# .PCD v0.7 - Point Cloud Data file format
VERSION 0.7
FIELDS x y z intensity
SIZE 4 4 4 4
TYPE F F F F
COUNT 1 1 1 1
WIDTH 1512
HEIGHT 1
VIEWPOINT 0 0 0 1 0 0 0
POINTS 1512
DATA ascii
32.20961 -30.77469 4.321815 0
32.30961 -30.77469 4.321815 0
32.25961 -30.72469 4.321815 0
32.30961 -30.67469 4.371815 0
32.10961 -30.82469 4.621815 0
32.05961 -30.67469 4.521815 0
31.95961 -30.77469 4.671815 0
32.00961 -30.57469 4.771815 0
32.20961 -30.77469 4.621815 0
32.20961 -30.72469 4.521815 0
32.25961 -30.72469 4.621815 0
32.15961 -30.67469 4.771815 0
32.45961 -30.82469 3.271815 0
32.40961 -30.67469 3.471815 0
32.45961 -30.77469 3.621815 0
32.45961 -30.62469 3.271815 0
32.35961 -30.82469 3.671815 0
32.35961 -30.77469 3.771815 0
32.40961 -30.77469 3.771815 0
32.50961 -30.77469 3.671815 0
32.35961 -30.77469 3.971815 0
32.40961 -30.72469 3.971815 0
32.35961 -30.62469 3.671815 0
32.40961 -30.62469 3.721815 0
32.35961 -30.77469 4.171815 0
32.45961 -30.67469 4.171815 0
32.40961 -30.67469 4.321815 0
32.50961 -30.62469 4.221815 0
32.35961 -30.57469 4.321815 0
32.35961 -30.52469 4.271815 0
32.35961 -30.67469 4.621815 0
32.40961 -30.67469 4.571815 0
31.90961 -30.72469 5.371815 0
32.10961 -30.77469 4.971815 0
32.25961 -30.72469 4.971815 0
31.95961 -30.57469 5.471815 0
32.15961 -30.77469 5.321815 0
32.30961 -30.57469 5.321815 0
32.15961 -30.62469 5.471815 0
30.35961 -30.42469 0.07181472 0
30.55961 -30.27469 0.07181472 0
30.70961 -30.17469 0.07181472 0
29.95961 -29.17469 0.07181472 0
30.15961 -29.07469 0.07181472 0
30.30961 -28.97469 0.07181472 0
30.50961 -28.87469 0.07181472 0
30.90961 -30.02469 0.07181472 0
31.05961 -29.92469 0.07181472 0
31.20961 -29.77469 0.07181472 0
30.70961 -28.77469 0.07181472 0
31.40961 -28.37469 0.07181472 0
32.30961 -30.37469 0.6718147 0
31.90961 -29.32469 0.07181472 0
32.10961 -29.22469 0.07181472 0
32.25961 -29.07469 0.07181472 0
32.55961 -30.37469 0.07181472 0
32.70961 -30.22469 0.07181472 0
32.40961 -30.42469 0.6718147 0
32.55961 -30.27469 0.7218148 0
32.85961 -30.07469 0.07181472 0
33.05961 -29.97469 0.07181472 0
32.45961 -28.97469 0.07181472 0
32.65961 -28.87469 0.07181472 0
32.45961 -29.27469 1.271815 0
32.35961 -29.07469 1.271815 0
32.50961 -29.12469 1.371815 0
31.60961 -28.27469 0.07181472 0
31.80961 -28.17469 0.07181472 0
32.00961 -28.07469 0.07181472 0
32.15961 -28.02469 0.07181472 0
32.85961 -28.77469 0.07181472 0
33.00961 -28.67469 0.07181472 0
32.35961 -28.82469 1.321815 0
32.35961 -27.92469 0.07181472 0
32.55961 -27.82469 0.07181472 0
32.75961 -27.77469 0.07181472 0
32.95961 -27.67469 0.07181472 0
31.00961 -30.42469 3.971815 0
31.55961 -30.42469 4.721815 0
32.00961 -30.22469 4.821815 0
32.25961 -29.67469 4.271815 0
32.30961 -29.62469 4.521815 0
31.90961 -30.37469 5.521815 0
32.25961 -30.37469 5.021815 0
32.20961 -29.47469 5.271815 0
33.20961 -29.82469 0.07181472 0
33.40961 -29.72469 0.07181472 0
33.55961 -29.57469 0.07181472 0
33.75961 -29.47469 0.07181472 0
33.90961 -29.32469 0.07181472 0
34.10961 -29.22469 0.07181472 0
34.25961 -29.12469 0.07181472 0
34.45961 -29.02469 0.07181472 0
34.65961 -28.87469 0.07181472 0
33.20961 -28.57469 0.07181472 0
33.40961 -28.47469 0.07181472 0
33.55961 -28.37469 0.07181472 0
33.75961 -28.27469 0.07181472 0
33.15961 -27.62469 0.07181472 0
33.35961 -27.52469 0.07181472 0
33.50961 -27.42469 0.07181472 0
33.70961 -27.37469 0.07181472 0
33.90961 -27.32469 0.07181472 0
33.95961 -28.17469 0.07181472 0
34.15961 -28.07469 0.07181472 0
34.35961 -28.02469 0.07181472 0
34.50961 -27.92469 0.07181472 0
34.70961 -27.82469 0.07181472 0
34.80961 -28.77469 0.07181472 0
35.00961 -28.67469 0.07181472 0
35.20961 -28.57469 0.07181472 0
35.40961 -28.47469 0.07181472 0
34.90961 -27.72469 0.07181472 0
35.10961 -27.67469 0.07181472 0
35.30961 -27.57469 0.07181472 0
35.50961 -27.52469 0.07181472 0
35.55961 -28.37469 0.07181472 0
35.75961 -28.27469 0.07181472 0
35.95961 -28.17469 0.07181472 0
36.15961 -28.07469 0.07181472 0
35.70961 -27.42469 0.07181472 0
35.90961 -27.37469 0.07181472 0
36.30961 -27.97469 0.07181472 0
36.10961 -27.27469 0.07181472 0
34.10961 -27.22469 0.07181472 0
34.30961 -27.17469 0.07181472 0
34.50961 -27.12469 0.07181472 0
34.70961 -27.02469 0.07181472 0
34.90961 -26.97469 0.07181472 0
35.10961 -26.92469 0.07181472 0
35.30961 -26.87469 0.07181472 0
35.50961 -26.82469 0.07181472 0
35.70961 -26.77469 0.07181472 0
35.90961 -26.72469 0.07181472 0
36.30961 -27.22469 0.07181472 0
36.10961 -26.67469 0.07181472 0
38.20961 -31.37469 0.07181472 0
38.35961 -31.22469 0.07181472 0
38.55961 -31.07469 0.07181472 0
38.70961 -30.97469 0.07181472 0
38.85961 -30.82469 0.07181472 0
39.05961 -30.67469 0.07181472 0
39.20961 -30.57469 0.07181472 0
36.50961 -27.87469 0.07181472 0
36.70961 -27.82469 0.07181472 0
36.90961 -27.72469 0.07181472 0
37.10961 -27.62469 0.07181472 0
37.30961 -27.57469 0.07181472 0
37.50961 -27.47469 0.07181472 0
37.70961 -27.37469 0.07181472 0
37.90961 -27.32469 0.07181472 0
39.35961 -30.42469 0.07181472 0
36.50961 -27.17469 0.07181472 0
36.70961 -27.07469 0.07181472 0
36.35961 -26.62469 0.07181472 0
36.55961 -26.57469 0.07181472 0
36.90961 -27.02469 0.07181472 0
37.10961 -26.97469 0.07181472 0
36.75961 -26.52469 0.07181472 0
36.95961 -26.47469 0.07181472 0
37.30961 -26.92469 0.07181472 0
37.50961 -26.87469 0.07181472 0
37.15961 -26.47469 0.07181472 0
37.70961 -26.82469 0.07181472 0
37.90961 -26.77469 0.07181472 0
38.10961 -27.22469 0.07181472 0
38.30961 -27.17469 0.07181472 0
38.10961 -26.67469 0.07181472 0
38.30961 -26.62469 0.07181472 0
38.50961 -27.12469 0.07181472 0
38.70961 -27.02469 0.07181472 0
38.50961 -26.62469 0.07181472 0
38.70961 -26.57469 0.07181472 0
38.90961 -26.97469 0.07181472 0
39.10961 -26.92469 0.07181472 0
38.90961 -26.52469 0.07181472 0
39.30961 -26.82469 0.07181472 0
39.15961 -26.47469 0.07181472 0
39.50961 -26.77469 0.07181472 0
39.35961 -26.47469 0.07181472 0
39.55961 -30.27469 0.07181472 0
39.70961 -30.17469 0.07181472 0
39.90961 -30.02469 0.07181472 0
40.05961 -29.92469 0.07181472 0
40.20961 -29.77469 0.07181472 0
40.40961 -29.67469 0.07181472 0
40.60961 -29.52469 0.07181472 0
40.75961 -29.42469 0.07181472 0
40.95961 -29.32469 0.07181472 0
41.10961 -29.17469 0.07181472 0
41.30961 -29.07469 0.07181472 0
41.50961 -28.97469 0.07181472 0
41.65961 -28.87469 0.07181472 0
41.85961 -28.72469 0.07181472 0
42.05961 -28.62469 0.07181472 0
42.25961 -28.52469 0.07181472 0
42.40961 -28.42469 0.07181472 0
42.60961 -28.32469 0.07181472 0
39.70961 -26.72469 0.07181472 0
39.90961 -26.67469 0.07181472 0
40.10961 -26.62469 0.07181472 0
40.30961 -26.57469 0.07181472 0
39.55961 -26.42469 0.07181472 0
39.75961 -26.37469 0.07181472 0
39.95961 -26.32469 0.07181472 0
40.15961 -26.32469 0.07181472 0
40.55961 -26.52469 0.07181472 0
40.75961 -26.47469 0.07181472 0
40.35961 -26.27469 0.07181472 0
40.60961 -26.27469 0.07181472 0
40.80961 -26.22469 0.07181472 0
40.95961 -26.42469 0.07181472 0
41.00961 -26.22469 0.07181472 0
41.15961 -26.37469 0.07181472 0
41.20961 -26.17469 0.07181472 0
41.35961 -26.37469 0.07181472 0
41.40961 -26.17469 0.07181472 0
41.55961 -26.32469 0.07181472 0
41.60961 -26.17469 0.07181472 0
41.80961 -26.27469 0.07181472 0
41.85961 -26.17469 0.07181472 0
42.00961 -26.22469 0.07181472 0
42.05961 -26.17469 0.07181472 0
42.20961 -26.22469 0.07181472 0
42.25961 -26.17469 0.07181472 0
42.40961 -26.17469 0.07181472 0
42.45961 -26.17469 0.07181472 0
42.60961 -26.12469 0.07181472 0
42.65961 -26.17469 0.07181472 0
42.75961 -43.12469 0.07181472 0
42.75961 -43.12469 0.1218147 0
42.80961 -43.12469 0.07181472 0
42.80961 -43.12469 0.1218147 0
42.90961 -43.17469 0.07181472 0
42.85961 -43.12469 0.07181472 0
42.85961 -43.12469 0.1218147 0
42.90961 -43.12469 0.1218147 0
42.95961 -43.12469 0.07181472 0
43.00961 -43.12469 0.1218147 0
43.00961 -43.07469 0.07181472 0
43.05961 -43.17469 0.07181472 0
43.05961 -43.12469 0.1218147 0
43.10961 -43.12469 0.07181472 0
43.10961 -43.12469 0.1218147 0
42.75961 -42.67469 0.1718147 0
42.80961 -42.62469 0.1718147 0
42.75961 -42.47469 0.1218147 0
42.80961 -42.52469 0.1218147 0
42.90961 -42.57469 0.1218147 0
42.90961 -42.57469 0.1718147 0
43.00961 -42.67469 0.1218147 0
43.10961 -42.77469 0.1218147 0
43.05961 -42.72469 0.1218147 0
42.95961 -42.52469 0.1718147 0
43.00961 -42.52469 0.1718147 0
43.10961 -42.47469 0.1718147 0
43.15961 -43.17469 0.07181472 0
43.15961 -43.12469 0.1218147 0
43.20961 -43.12469 0.1218147 0
43.25961 -43.17469 0.07181472 0
43.25961 -43.12469 0.07181472 0
43.25961 -43.12469 0.1218147 0
43.30961 -43.12469 0.1218147 0
43.30961 -42.97469 0.1218147 0
43.25961 -42.87469 0.1218147 0
43.35961 -43.17469 0.07181472 0
43.35961 -43.17469 0.1218147 0
43.40961 -43.17469 0.1218147 0
43.40961 -43.07469 0.1218147 0
43.45961 -43.17469 0.07181472 0
43.45961 -43.12469 0.1218147 0
43.50961 -43.12469 0.1218147 0
43.35961 -43.02469 0.1218147 0
43.15961 -42.82469 0.1218147 0
43.20961 -42.82469 0.1218147 0
42.75961 -41.87469 0.1718147 0
42.85961 -41.87469 0.1718147 0
43.00961 -41.87469 0.1718147 0
43.05961 -41.87469 0.1718147 0
43.20961 -42.37469 0.1718147 0
43.30961 -42.37469 0.1718147 0
43.35961 -42.32469 0.1718147 0
43.40961 -42.27469 0.1718147 0
43.45961 -42.27469 0.1718147 0
43.15961 -41.87469 0.1718147 0
43.25961 -41.92469 0.1718147 0
43.35961 -41.92469 0.1718147 0
43.45961 -41.92469 0.1718147 0
43.50961 -41.82469 0.1218147 0
43.50961 -41.67469 0.1218147 0
43.60961 -43.17469 0.07181472 0
43.60961 -43.17469 0.1218147 0
43.60961 -43.12469 0.1218147 0
43.65961 -43.17469 0.07181472 0
43.70961 -43.17469 0.07181472 0
43.65961 -43.12469 0.1218147 0
43.70961 -43.12469 0.1218147 0
43.70961 -43.07469 0.1218147 0
43.70961 -42.92469 0.1218147 0
43.75961 -43.17469 0.1218147 0
43.80961 -43.17469 0.1218147 0
43.80961 -43.12469 0.1218147 0
43.85961 -43.17469 0.1218147 0
43.90961 -43.17469 0.1218147 0
43.85961 -43.12469 0.1218147 0
43.70961 -42.82469 0.1218147 0
43.65961 -42.67469 0.1218147 0
43.65961 -42.57469 0.1218147 0
43.95961 -43.17469 0.1218147 0
44.00961 -43.17469 0.07181472 0
44.00961 -43.17469 0.1218147 0
43.95961 -43.12469 0.1218147 0
44.05961 -43.17469 0.1218147 0
44.10961 -43.17469 0.07181472 0
44.10961 -43.12469 0.1218147 0
44.15961 -43.22469 0.07181472 0
44.15961 -43.17469 0.1218147 0
44.15961 -43.12469 0.1218147 0
44.25961 -43.17469 0.07181472 0
44.30961 -43.22469 0.1218147 0
44.30961 -43.17469 0.07181472 0
44.25961 -43.12469 0.1218147 0
43.60961 -42.32469 0.1218147 0
43.55961 -42.27469 0.1718147 0
43.65961 -42.42469 0.1218147 0
43.60961 -42.17469 0.1218147 0
43.60961 -42.22469 0.1718147 0
43.55961 -42.07469 0.1218147 0
43.70961 -42.17469 0.1718147 0
43.75961 -42.17469 0.1718147 0
43.80961 -42.12469 0.1718147 0
43.90961 -42.12469 0.1718147 0
43.60961 -41.97469 0.1718147 0
43.55961 -41.92469 0.1218147 0
43.55961 -41.92469 0.1718147 0
43.65961 -41.97469 0.1218147 0
43.70961 -41.97469 0.1718147 0
43.75961 -42.02469 0.1718147 0
43.85961 -42.02469 0.1218147 0
43.95961 -42.07469 0.1218147 0
44.00961 -42.07469 0.1718147 0
44.05961 -42.07469 0.1218147 0
44.05961 -42.07469 0.1718147 0
44.10961 -42.07469 0.1718147 0
44.15961 -42.12469 0.1218147 0
44.25961 -42.17469 0.1218147 0
44.30961 -42.17469 0.1218147 0
44.20961 -42.02469 0.1718147 0
44.30961 -42.02469 0.1718147 0
43.45961 -41.57469 0.1218147 0
43.40961 -41.42469 0.1218147 0
43.30961 -41.07469 0.1218147 0
43.25961 -40.92469 0.1218147 0
43.10961 -40.47469 0.1218147 0
43.10961 -40.32469 0.1218147 0
43.00961 -40.22469 0.1218147 0
43.20961 -40.67469 0.1218147 0
43.25961 -40.82469 0.1218147 0
43.15961 -40.57469 0.1218147 0
44.35961 -43.22469 0.1218147 0
44.40961 -43.17469 0.07181472 0
44.40961 -43.17469 0.1218147 0
44.40961 -43.12469 0.1218147 0
44.45961 -43.22469 0.1218147 0
44.45961 -43.17469 0.1218147 0
44.50961 -43.17469 0.07181472 0
44.55961 -43.22469 0.1218147 0
44.55961 -43.17469 0.07181472 0
44.60961 -43.22469 0.1218147 0
44.60961 -43.17469 0.07181472 0
44.65961 -43.17469 0.07181472 0
44.65961 -43.17469 0.1218147 0
44.70961 -43.22469 0.1218147 0
44.70961 -43.17469 0.07181472 0
44.65961 -43.02469 0.1718147 0
44.70961 -42.97469 0.1718147 0
44.75961 -43.22469 0.1218147 0
44.80961 -43.17469 0.07181472 0
44.85961 -43.22469 0.1218147 0
44.90961 -43.22469 0.1218147 0
44.90961 -43.17469 0.07181472 0
44.80961 -42.92469 0.1718147 0
44.95961 -43.17469 0.07181472 0
44.85961 -42.82469 0.1718147 0
44.85961 -42.47469 0.1218147 0
44.90961 -42.52469 0.1218147 0
44.95961 -42.77469 0.1718147 0
44.95961 -42.52469 0.1218147 0
44.45961 -42.27469 0.1218147 0
44.35961 -42.22469 0.1218147 0
44.55961 -42.27469 0.1218147 0
44.60961 -42.27469 0.1218147 0
44.65961 -42.37469 0.1218147 0
44.40961 -42.02469 0.1718147 0
44.45961 -41.97469 0.1718147 0
44.55961 -41.97469 0.1718147 0
44.65961 -41.97469 0.1718147 0
44.75961 -42.42469 0.1218147 0
44.75961 -42.37469 0.1218147 0
44.75961 -41.97469 0.1718147 0
44.80961 -41.97469 0.1718147 0
44.90961 -41.97469 0.1718147 0
42.80961 -28.27469 0.07181472 0
43.00961 -28.12469 0.07181472 0
43.20961 -28.07469 0.07181472 0
43.40961 -27.97469 0.07181472 0
43.60961 -27.87469 0.07181472 0
43.75961 -27.77469 0.07181472 0
43.95961 -27.72469 0.07181472 0
44.15961 -27.62469 0.07181472 0
44.35961 -27.52469 0.07181472 0
44.55961 -27.47469 0.07181472 0
44.75961 -27.37469 0.07181472 0
44.95961 -27.32469 0.07181472 0
42.85961 -26.12469 0.07181472 0
42.90961 -26.12469 0.07181472 0
43.05961 -26.12469 0.07181472 0
43.10961 -26.12469 0.07181472 0
43.25961 -26.07469 0.07181472 0
43.30961 -26.12469 0.07181472 0
43.45961 -26.07469 0.07181472 0
43.70961 -26.07469 0.07181472 0
43.90961 -26.02469 0.07181472 0
44.10961 -26.02469 0.07181472 0
44.30961 -26.02469 0.07181472 0
44.55961 -26.02469 0.07181472 0
44.75961 -26.02469 0.07181472 0
44.95961 -26.02469 0.07181472 0
21.15961 -21.22469 0.02181472 0
21.35961 -21.22469 0.02181472 0
21.60961 -21.22469 0.02181472 0
21.80961 -21.22469 0.02181472 0
21.90961 -20.92469 0.02181472 0
22.00961 -21.27469 0.02181472 0
22.10961 -20.92469 0.02181472 0
22.20961 -21.22469 0.02181472 0
22.30961 -20.97469 0.02181472 0
22.40961 -21.22469 0.02181472 0
22.50961 -20.97469 0.02181472 0
22.65961 -21.22469 0.02181472 0
22.85961 -21.22469 0.02181472 0
22.75961 -20.97469 0.02181472 0
23.05961 -21.22469 0.02181472 0
22.95961 -21.02469 0.02181472 0
23.15961 -21.02469 0.02181472 0
20.65961 -20.77469 0.02181472 0
20.85961 -20.77469 0.02181472 0
21.05961 -20.82469 0.02181472 0
20.95961 -20.47469 -0.1281853 0
20.70961 -19.77469 -0.02818528 0
20.75961 -19.87469 -0.1281853 0
20.90961 -19.82469 -0.02818528 0
20.95961 -19.92469 -0.1281853 0
21.10961 -19.87469 -0.02818528 0
21.25961 -20.82469 0.02181472 0
21.15961 -20.47469 -0.1281853 0
21.35961 -20.47469 -0.1281853 0
21.45961 -20.47469 -0.02818528 0
21.60961 -20.47469 -0.1281853 0
21.65961 -20.47469 -0.02818528 0
21.80961 -20.52469 -0.1281853 0
21.85961 -20.47469 -0.02818528 0
21.75961 -20.07469 -0.1281853 0
21.15961 -19.97469 -0.1281853 0
21.30961 -19.92469 -0.02818528 0
21.35961 -19.97469 -0.1281853 0
21.50961 -19.97469 -0.02818528 0
21.55961 -20.02469 -0.1281853 0
21.70961 -20.02469 -0.02818528 0
20.95961 -17.87469 0.02181472 0
22.00961 -20.52469 -0.1281853 0
22.05961 -20.47469 -0.02818528 0
22.30961 -20.47469 -0.02818528 0
22.00961 -20.07469 -0.1281853 0
21.95961 -20.07469 -0.02818528 0
22.20961 -20.12469 -0.1281853 0
22.15961 -20.07469 -0.02818528 0
22.65961 -20.57469 -0.1281853 0
22.50961 -20.42469 -0.02818528 0
22.40961 -20.17469 -0.1281853 0
22.35961 -20.12469 -0.02818528 0
22.70961 -20.37469 -0.02818528 0
22.60961 -20.17469 -0.1281853 0
22.55961 -20.17469 -0.02818528 0
22.25961 -19.32469 -0.07818528 0
22.45961 -19.42469 -0.07818528 0
22.65961 -19.42469 -0.07818528 0
22.85961 -20.57469 -0.1281853 0
23.10961 -20.57469 -0.1281853 0
22.90961 -20.37469 -0.02818528 0
22.80961 -20.22469 -0.1281853 0
22.75961 -20.22469 -0.02818528 0
22.95961 -20.22469 -0.02818528 0
23.05961 -20.22469 -0.1281853 0
23.25961 -20.82469 0.02181472 0
23.30961 -20.77469 0.02181472 0
23.30961 -20.57469 -0.1281853 0
23.35961 -20.72469 0.02181472 0
23.45961 -20.72469 0.02181472 0
23.50961 -20.72469 0.02181472 0
23.50961 -20.57469 -0.1281853 0
23.15961 -20.37469 -0.02818528 0
23.15961 -20.27469 -0.02818528 0
23.25961 -20.27469 -0.1281853 0
23.35961 -20.32469 -0.02818528 0
23.35961 -20.27469 -0.02818528 0
23.45961 -20.27469 -0.1281853 0
22.85961 -19.47469 -0.07818528 0
23.05961 -19.52469 -0.07818528 0
23.25961 -19.57469 -0.07818528 0
23.45961 -19.62469 -0.07818528 0
20.95961 -17.42469 0.02181472 0
20.95961 -17.02469 0.02181472 0
21.00961 -16.97469 0.02181472 0
21.00961 -16.62469 0.02181472 0
21.00961 -16.57469 0.02181472 0
21.00961 -16.37469 0.02181472 0
21.00961 -16.27469 0.02181472 0
21.00961 -16.17469 0.02181472 0
21.00961 -16.02469 0.02181472 0
21.05961 -15.67469 0.02181472 0
21.05961 -15.37469 0.02181472 0
21.05961 -15.07469 0.02181472 0
23.80961 -21.07469 0.02181472 0
23.90961 -21.17469 0.02181472 0
24.00961 -21.07469 0.02181472 0
24.10961 -21.17469 0.02181472 0
24.20961 -21.02469 0.02181472 0
24.35961 -21.12469 0.02181472 0
24.40961 -21.07469 0.02181472 0
24.55961 -21.12469 0.02181472 0
24.65961 -21.02469 0.02181472 0
24.75961 -21.07469 0.02181472 0
24.85961 -21.02469 0.02181472 0
25.05961 -21.02469 0.02181472 0
25.25961 -21.02469 0.02181472 0
25.40961 -20.97469 0.02181472 0
25.50961 -21.02469 0.02181472 0
25.60961 -20.92469 0.02181472 0
25.70961 -20.97469 0.02181472 0
25.80961 -20.87469 0.02181472 0
25.90961 -20.97469 0.02181472 0
26.00961 -20.87469 0.02181472 0
26.10961 -20.97469 0.02181472 0
26.30961 -20.92469 0.02181472 0
26.55961 -20.87469 0.02181472 0
23.55961 -20.72469 0.02181472 0
23.65961 -20.77469 0.02181472 0
23.70961 -20.67469 0.02181472 0
23.90961 -20.67469 0.02181472 0
23.75961 -20.57469 -0.1281853 0
23.55961 -20.32469 -0.02818528 0
23.65961 -20.32469 -0.1281853 0
23.75961 -20.37469 -0.02818528 0
23.75961 -20.27469 -0.02818528 0
23.85961 -20.32469 -0.1281853 0
23.95961 -20.57469 -0.1281853 0
24.15961 -20.57469 -0.1281853 0
24.15961 -20.62469 0.02181472 0
24.30961 -20.52469 0.02181472 0
23.95961 -20.37469 -0.02818528 0
24.00961 -20.27469 -0.02818528 0
24.10961 -20.32469 -0.1281853 0
24.15961 -20.42469 -0.02818528 0
24.30961 -20.32469 -0.1281853 0
24.20961 -20.22469 -0.02818528 0
23.65961 -19.67469 -0.07818528 0
23.85961 -19.72469 -0.07818528 0
24.05961 -19.72469 -0.1281853 0
24.25961 -19.77469 -0.1281853 0
24.20961 -19.42469 -0.07818528 0
24.35961 -20.52469 -0.1281853 0
24.60961 -20.52469 -0.1281853 0
24.55961 -20.47469 0.02181472 0
24.40961 -20.42469 -0.02818528 0
24.50961 -20.37469 -0.1281853 0
24.40961 -20.17469 -0.02818528 0
24.60961 -20.42469 -0.02818528 0
24.70961 -20.37469 -0.1281853 0
24.60961 -20.17469 -0.02818528 0
24.80961 -20.52469 -0.1281853 0
25.00961 -20.47469 -0.1281853 0
25.00961 -20.47469 -0.02818528 0
24.75961 -20.42469 0.02181472 0
24.80961 -20.42469 -0.02818528 0
24.80961 -20.12469 -0.02818528 0
24.95961 -20.37469 0.02181472 0
24.95961 -20.32469 -0.1281853 0
24.45961 -19.82469 -0.1281853 0
24.65961 -19.82469 -0.1281853 0
24.40961 -19.47469 -0.07818528 0
24.60961 -19.52469 -0.07818528 0
24.85961 -19.87469 -0.1281853 0
25.10961 -19.87469 -0.1281853 0
24.80961 -19.57469 -0.07818528 0
25.00961 -19.62469 -0.07818528 0
24.30961 -18.77469 0.02181472 0
24.50961 -18.72469 0.02181472 0
24.70961 -18.62469 0.02181472 0
24.90961 -18.52469 0.02181472 0
25.10961 -18.47469 0.02181472 0
25.20961 -20.47469 -0.1281853 0
25.20961 -20.47469 -0.02818528 0
25.40961 -20.47469 -0.02818528 0
25.15961 -20.37469 -0.1281853 0
25.15961 -20.32469 0.02181472 0
25.35961 -20.37469 -0.1281853 0
25.45961 -20.42469 -0.1281853 0
25.35961 -20.22469 0.02181472 0
25.60961 -20.47469 -0.02818528 0
25.85961 -20.47469 -0.02818528 0
25.55961 -20.37469 -0.1281853 0
25.65961 -20.42469 -0.1281853 0
25.55961 -20.17469 0.02181472 0
25.75961 -20.32469 -0.1281853 0
25.85961 -20.37469 -0.1281853 0
25.75961 -20.12469 0.02181472 0
25.25961 -20.02469 -0.02818528 0
25.30961 -19.92469 -0.1281853 0
25.20961 -19.67469 -0.07818528 0
25.45961 -19.97469 -0.02818528 0
25.50961 -19.92469 -0.1281853 0
25.40961 -19.72469 -0.07818528 0
25.70961 -19.92469 -0.1281853 0
25.65961 -19.92469 -0.02818528 0
25.60961 -19.72469 -0.07818528 0
25.90961 -19.97469 -0.1281853 0
25.85961 -19.87469 -0.02818528 0
26.05961 -20.52469 -0.02818528 0
26.20961 -20.82469 0.02181472 0
26.25961 -20.47469 -0.02818528 0
26.00961 -20.37469 -0.1281853 0
26.05961 -20.37469 -0.1281853 0
26.20961 -20.37469 -0.1281853 0
26.30961 -20.32469 -0.1281853 0
26.45961 -20.77469 0.02181472 0
26.45961 -20.47469 -0.02818528 0
26.65961 -20.72469 0.02181472 0
26.65961 -20.47469 -0.02818528 0
26.40961 -20.32469 -0.1281853 0
26.50961 -20.27469 -0.1281853 0
26.60961 -20.32469 -0.1281853 0
26.70961 -20.27469 -0.1281853 0
25.95961 -20.02469 0.02181472 0
26.10961 -19.97469 -0.1281853 0
26.10961 -19.82469 -0.02818528 0
26.15961 -19.97469 0.02181472 0
26.20961 -19.87469 -0.07818528 0
26.30961 -19.97469 -0.1281853 0
26.30961 -19.77469 -0.02818528 0
26.15961 -19.52469 -0.07818528 0
26.35961 -19.87469 0.02181472 0
26.45961 -19.87469 -0.07818528 0
26.50961 -19.72469 -0.02818528 0
26.55961 -19.97469 -0.1281853 0
26.65961 -19.92469 -0.07818528 0
26.55961 -19.82469 0.02181472 0
26.55961 -19.67469 -0.07818528 0
26.35961 -19.62469 -0.07818528 0
26.70961 -19.62469 -0.02818528 0
25.30961 -18.37469 0.02181472 0
25.50961 -18.27469 0.02181472 0
25.70961 -18.17469 0.02181472 0
25.85961 -18.07469 0.02181472 0
26.05961 -18.02469 0.02181472 0
26.25961 -17.87469 0.02181472 0
26.45961 -17.82469 0.02181472 0
26.60961 -17.72469 0.02181472 0
26.75961 -20.87469 0.02181472 0
26.95961 -20.87469 0.02181472 0
26.85961 -20.67469 0.02181472 0
26.85961 -20.47469 -0.02818528 0
27.05961 -20.62469 0.02181472 0
27.10961 -20.47469 -0.02818528 0
26.85961 -20.27469 -0.1281853 0
26.90961 -20.22469 -0.1281853 0
27.05961 -20.27469 -0.1281853 0
27.15961 -20.82469 0.02181472 0
27.25961 -20.57469 0.02181472 0
27.30961 -20.47469 -0.02818528 0
27.40961 -20.77469 0.02181472 0
27.45961 -20.52469 0.02181472 0
27.50961 -20.47469 -0.02818528 0
27.15961 -20.17469 -0.1281853 0
27.25961 -20.22469 -0.1281853 0
27.35961 -20.12469 -0.1281853 0
27.45961 -20.22469 -0.1281853 0
26.75961 -19.97469 -0.1281853 0
26.85961 -19.92469 -0.07818528 0
26.75961 -19.72469 -0.07818528 0
26.75961 -19.72469 0.02181472 0
26.95961 -20.02469 -0.1281853 0
27.05961 -19.97469 -0.07818528 0
26.95961 -19.77469 -0.07818528 0
26.90961 -19.57469 -0.02818528 0
26.95961 -19.62469 0.02181472 0
27.10961 -19.52469 -0.02818528 0
27.15961 -20.02469 -0.1281853 0
27.25961 -19.97469 -0.07818528 0
27.15961 -19.77469 -0.07818528 0
27.35961 -20.02469 -0.1281853 0
27.45961 -20.02469 -0.07818528 0
27.15961 -19.57469 0.02181472 0
27.30961 -19.47469 -0.02818528 0
27.35961 -19.47469 0.02181472 0
27.50961 -19.37469 -0.02818528 0
27.60961 -20.77469 0.02181472 0
27.65961 -20.47469 0.02181472 0
27.80961 -20.72469 0.02181472 0
27.70961 -20.42469 -0.02818528 0
27.55961 -20.07469 -0.1281853 0
27.65961 -20.22469 -0.1281853 0
27.85961 -20.42469 0.02181472 0
27.90961 -20.42469 -0.02818528 0
27.90961 -20.17469 -0.1281853 0
28.00961 -20.67469 0.02181472 0
28.20961 -20.62469 0.02181472 0
28.10961 -20.37469 -0.02818528 0
28.10961 -20.37469 0.02181472 0
28.10961 -20.12469 -0.1281853 0
28.10961 -20.07469 -0.07818528 0
28.30961 -20.37469 -0.02818528 0
28.30961 -20.27469 0.02181472 0
28.30961 -20.12469 -0.1281853 0
28.30961 -20.07469 -0.07818528 0
27.55961 -20.02469 -0.1281853 0
27.65961 -20.02469 -0.07818528 0
27.75961 -20.02469 -0.1281853 0
27.75961 -20.02469 -0.07818528 0
27.85961 -20.02469 -0.07818528 0
27.70961 -19.32469 -0.02818528 0
27.90961 -19.27469 -0.02818528 0
27.95961 -19.97469 -0.1281853 0
27.95961 -19.97469 -0.07818528 0
28.20961 -20.02469 -0.1281853 0
28.20961 -19.92469 -0.07818528 0
27.90961 -19.22469 0.02181472 0
28.10961 -19.17469 -0.02818528 0
28.10961 -19.12469 0.02181472 0
28.30961 -19.12469 -0.02818528 0
28.30961 -19.02469 0.02181472 0
28.45961 -20.62469 0.02181472 0
28.65961 -20.52469 0.02181472 0
28.50961 -20.22469 0.02181472 0
28.50961 -20.07469 -0.1281853 0
28.55961 -20.37469 -0.02818528 0
28.70961 -20.07469 -0.1281853 0
28.70961 -20.12469 0.02181472 0
28.85961 -20.52469 0.02181472 0
29.05961 -20.47469 0.02181472 0
28.75961 -20.32469 -0.02818528 0
28.90961 -20.07469 0.02181472 0
28.95961 -20.27469 -0.02818528 0
28.40961 -19.87469 -0.07818528 0
28.60961 -19.82469 -0.07818528 0
28.90961 -20.02469 -0.1281853 0
28.80961 -19.77469 -0.07818528 0
29.10961 -20.02469 0.02181472 0
29.00961 -19.72469 -0.07818528 0
29.15961 -20.27469 -0.02818528 0
29.25961 -20.37469 0.02181472 0
29.45961 -20.37469 0.02181472 0
29.15961 -19.97469 -0.1281853 0
29.30961 -19.92469 0.02181472 0
29.20961 -19.62469 -0.07818528 0
29.40961 -19.57469 -0.07818528 0
28.50961 -19.02469 -0.02818528 0
28.50961 -18.92469 0.02181472 0
28.70961 -18.92469 -0.02818528 0
28.65961 -18.82469 0.02181472 0
28.90961 -18.87469 -0.02818528 0
28.85961 -18.72469 0.02181472 0
29.10961 -18.77469 -0.02818528 0
29.05961 -18.62469 0.02181472 0
29.30961 -18.67469 -0.02818528 0
29.25961 -18.47469 0.02181472 0
24.90961 -17.37469 0.02181472 0
25.05961 -17.27469 0.02181472 0
24.70961 -15.72469 -0.02818528 0
24.90961 -15.57469 -0.02818528 0
25.05961 -15.47469 -0.02818528 0
25.25961 -17.12469 0.02181472 0
25.45961 -17.02469 0.02181472 0
25.60961 -16.92469 0.02181472 0
25.80961 -16.82469 0.02181472 0
25.95961 -16.67469 0.02181472 0
26.15961 -16.57469 0.02181472 0
26.30961 -16.42469 0.02181472 0
26.50961 -16.32469 0.02181472 0
26.65961 -16.17469 0.02181472 0
25.20961 -15.32469 -0.02818528 0
25.35961 -15.22469 -0.02818528 0
25.55961 -15.07469 -0.02818528 0
26.80961 -17.57469 0.02181472 0
27.00961 -17.47469 0.02181472 0
27.20961 -17.37469 0.02181472 0
27.35961 -17.27469 0.02181472 0
26.80961 -16.07469 -0.02818528 0
27.55961 -17.17469 0.02181472 0
27.70961 -17.07469 0.02181472 0
27.00961 -15.97469 -0.02818528 0
27.15961 -15.82469 -0.02818528 0
27.35961 -15.67469 -0.02818528 0
27.50961 -15.57469 -0.02818528 0
27.65961 -15.42469 -0.02818528 0
27.80961 -15.27469 -0.02818528 0
27.95961 -15.12469 -0.02818528 0
28.45961 -16.57469 0.02181472 0
28.60961 -16.47469 0.02181472 0
28.65961 -16.42469 0.02181472 0
28.65961 -16.32469 0.02181472 0
28.65961 -16.17469 0.02181472 0
28.65961 -16.07469 0.02181472 0
29.05961 -16.62469 0.02181472 0
29.10961 -16.62469 0.02181472 0
29.25961 -16.67469 0.02181472 0
29.30961 -16.67469 0.02181472 0
29.30961 -16.62469 0.02181472 0
29.40961 -16.62469 0.02181472 0
29.45961 -16.62469 0.02181472 0
29.60961 -16.67469 0.02181472 0
29.65961 -16.67469 0.02181472 0
29.65961 -16.62469 0.02181472 0
29.75961 -16.67469 0.02181472 0
29.85961 -16.67469 -0.02818528 0
29.85961 -16.62469 0.02181472 0
28.65961 -15.92469 0.02181472 0
28.65961 -15.82469 0.02181472 0
28.65961 -15.72469 0.02181472 0
28.70961 -15.72469 -0.02818528 0
28.65961 -15.52469 0.02181472 0
28.70961 -15.52469 0.02181472 0
28.65961 -15.37469 0.02181472 0
28.70961 -15.22469 0.02181472 0
28.70961 -15.17469 0.02181472 0
28.70961 -15.07469 0.02181472 0
32.65961 -21.12469 0.02181472 0
32.90961 -21.07469 0.02181472 0
33.10961 -21.22469 0.02181472 0
32.40961 -20.42469 -0.02818528 0
32.60961 -20.42469 -0.02818528 0
32.80961 -20.42469 -0.02818528 0
33.00961 -20.42469 -0.02818528 0
33.25961 -20.42469 -0.02818528 0
33.15961 -20.17469 -0.07818528 0
33.45961 -20.42469 -0.02818528 0
33.35961 -20.12469 -0.07818528 0
33.65961 -20.42469 -0.02818528 0
33.55961 -20.12469 -0.07818528 0
33.85961 -20.42469 -0.02818528 0
33.80961 -20.07469 -0.07818528 0
33.85961 -19.62469 -0.07818528 0
34.05961 -20.42469 -0.02818528 0
34.00961 -20.07469 -0.07818528 0
34.30961 -20.42469 -0.02818528 0
34.50961 -20.37469 -0.02818528 0
34.20961 -20.02469 -0.07818528 0
34.05961 -19.57469 -0.07818528 0
34.25961 -19.52469 -0.07818528 0
34.40961 -20.02469 -0.07818528 0
34.45961 -19.47469 -0.07818528 0
34.45961 -18.72469 -0.1281853 0
34.50961 -18.32469 -0.1281853 0
34.50961 -17.67469 0.02181472 0
34.55961 -17.82469 -0.07818528 0
34.55961 -17.72469 -0.1281853 0
29.95961 -16.67469 0.02181472 0
30.00961 -16.67469 -0.02818528 0
30.00961 -16.67469 0.02181472 0
30.10961 -16.67469 -0.02818528 0
30.10961 -16.67469 0.02181472 0
30.15961 -16.67469 -0.02818528 0
30.15961 -16.67469 0.02181472 0
30.25961 -16.67469 0.02181472 0
30.30961 -16.72469 -0.02818528 0
30.35961 -16.67469 -0.02818528 0
30.35961 -16.67469 0.02181472 0
30.50961 -16.72469 -0.07818528 0
30.45961 -16.67469 -0.02818528 0
30.45961 -16.67469 0.02181472 0
30.50961 -16.72469 -0.02818528 0
30.50961 -16.67469 0.02181472 0
30.60961 -16.67469 0.02181472 0
30.70961 -16.72469 -0.07818528 0
30.65961 -16.72469 -0.02818528 0
30.70961 -16.67469 -0.02818528 0
30.70961 -16.67469 0.02181472 0
30.80961 -16.72469 0.02181472 0
30.90961 -16.72469 -0.07818528 0
30.85961 -16.72469 -0.02818528 0
30.85961 -16.67469 0.02181472 0
30.95961 -16.72469 0.02181472 0
31.00961 -16.72469 -0.02818528 0
31.00961 -16.72469 0.02181472 0
31.10961 -16.72469 -0.07818528 0
31.05961 -16.72469 -0.02818528 0
31.05961 -16.67469 0.02181472 0
31.10961 -16.72469 -0.02818528 0
31.15961 -16.72469 0.02181472 0
31.20961 -16.72469 -0.02818528 0
31.20961 -16.72469 0.02181472 0
31.30961 -16.72469 -0.07818528 0
31.30961 -16.72469 0.02181472 0
31.40961 -16.77469 -0.02818528 0
31.35961 -16.72469 -0.02818528 0
31.40961 -16.72469 -0.02818528 0
31.40961 -16.72469 0.02181472 0
31.50961 -16.72469 -0.07818528 0
31.55961 -16.77469 -0.02818528 0
31.55961 -16.72469 -0.02818528 0
31.55961 -16.72469 0.02181472 0
31.70961 -16.72469 -0.07818528 0
31.65961 -16.72469 0.02181472 0
31.70961 -16.72469 0.02181472 0
31.75961 -16.77469 -0.02818528 0
31.80961 -16.77469 0.02181472 0
31.75961 -16.72469 0.02181472 0
31.95961 -16.77469 -0.02818528 0
32.00961 -16.72469 0.02181472 0
32.00961 -16.57469 -0.07818528 0
32.00961 -16.62469 -0.02818528 0
32.00961 -16.32469 0.02181472 0
32.00961 -16.27469 -0.02818528 0
32.00961 -16.12469 -0.07818528 0
32.05961 -16.02469 -0.02818528 0
32.05961 -15.92469 -0.02818528 0
32.05961 -15.72469 -0.02818528 0
32.05961 -15.62469 -0.02818528 0
32.05961 -15.32469 -0.02818528 0
32.05961 -15.17469 -0.02818528 0
34.55961 -17.37469 -0.07818528 0
34.55961 -17.32469 -0.1281853 0
34.55961 -17.27469 0.02181472 0
34.55961 -16.97469 0.02181472 0
34.55961 -16.92469 -0.07818528 0
34.60961 -16.92469 -0.07818528 0
34.55961 -16.92469 0.02181472 0
34.60961 -16.57469 -0.07818528 0
34.55961 -16.62469 0.02181472 0
34.55961 -16.57469 0.02181472 0
34.60961 -16.52469 -0.07818528 0
34.60961 -16.32469 -0.07818528 0
34.55961 -16.32469 0.02181472 0
34.60961 -16.22469 -0.07818528 0
34.60961 -16.22469 0.02181472 0
34.60961 -16.12469 -0.07818528 0
34.60961 -16.07469 -0.02818528 0
33.85961 -15.87469 -0.02818528 0
34.00961 -15.72469 -0.02818528 0
34.15961 -15.62469 -0.02818528 0
34.30961 -15.47469 -0.02818528 0
34.55961 -16.02469 0.02181472 0
34.60961 -16.02469 0.02181472 0
34.60961 -15.87469 -0.07818528 0
34.60961 -15.87469 0.02181472 0
34.65961 -15.97469 -0.07818528 0
34.60961 -15.72469 -0.02818528 0
34.60961 -15.72469 0.02181472 0
34.65961 -15.67469 -0.07818528 0
34.50961 -15.32469 -0.02818528 0
34.60961 -15.57469 0.02181472 0
34.60961 -15.52469 0.02181472 0
34.65961 -15.52469 -0.07818528 0
34.65961 -15.37469 -0.02818528 0
34.60961 -15.22469 0.02181472 0
34.65961 -15.22469 -0.07818528 0
34.65961 -15.17469 -0.02818528 0
34.65961 -15.17469 0.02181472 0
34.65961 -15.07469 -0.02818528 0
34.65961 -15.02469 -0.02818528 0
41.10961 -23.07469 -0.07818528 0
41.05961 -23.02469 -0.02818528 0
40.40961 -21.62469 0.02181472 0
40.35961 -21.42469 0.02181472 0
40.35961 -21.22469 0.02181472 0
41.40961 -22.97469 -0.07818528 0
41.40961 -22.97469 0.02181472 0
41.40961 -22.92469 -0.02818528 0
41.40961 -22.82469 0.02181472 0
41.40961 -22.72469 -0.07818528 0
41.40961 -22.72469 -0.02818528 0
41.40961 -22.62469 0.02181472 0
41.40961 -22.52469 -0.07818528 0
41.40961 -22.52469 -0.02818528 0
41.40961 -22.27469 -0.07818528 0
41.40961 -22.32469 -0.02818528 0
41.50961 -22.22469 0.02181472 0
41.45961 -22.07469 -0.07818528 0
41.50961 -22.02469 0.02181472 0
41.50961 -21.82469 0.02181472 0
42.60961 -19.62469 -0.07818528 0
42.55961 -19.62469 -0.02818528 0
44.05961 -23.12469 0.02181472 0
44.20961 -23.12469 -0.02818528 0
44.25961 -23.17469 -0.02818528 0
44.30961 -23.17469 -0.02818528 0
44.45961 -23.12469 0.02181472 0
44.45961 -23.07469 -0.02818528 0
44.45961 -22.97469 0.02181472 0
44.45961 -22.87469 -0.02818528 0
44.45961 -22.82469 -0.02818528 0
44.45961 -22.77469 0.02181472 0
44.45961 -22.67469 -0.02818528 0
44.45961 -22.62469 -0.02818528 0
44.45961 -22.57469 0.02181472 0
44.45961 -22.52469 -0.02818528 0
44.45961 -22.42469 -0.02818528 0
44.45961 -22.42469 0.02181472 0
44.45961 -22.37469 -0.02818528 0
44.45961 -22.27469 -0.02818528 0
44.45961 -22.22469 -0.02818528 0
44.45961 -22.17469 -0.02818528 0
44.50961 -22.22469 0.02181472 0
44.50961 -22.07469 0.02181472 0
44.45961 -22.02469 -0.02818528 0
43.00961 -19.62469 -0.07818528 0
42.95961 -19.62469 -0.02818528 0
43.35961 -19.62469 -0.07818528 0
43.35961 -19.62469 -0.02818528 0
43.35961 -19.62469 0.02181472 0
43.55961 -19.52469 -0.07818528 0
43.55961 -19.52469 -0.02818528 0
43.60961 -19.52469 0.02181472 0
43.90961 -19.52469 -0.02818528 0
44.00961 -19.52469 0.02181472 0
44.20961 -19.52469 -0.07818528 0
44.20961 -19.52469 -0.02818528 0
44.25961 -19.57469 -0.02818528 0
44.40961 -19.52469 0.02181472 0
44.50961 -19.52469 -0.07818528 0
44.55961 -19.57469 -0.02818528 0
44.60961 -19.57469 0.02181472 0
44.80961 -19.57469 -0.07818528 0
44.80961 -19.52469 0.02181472 0
44.85961 -19.57469 -0.02818528 0
44.95961 -19.57469 0.02181472 0
19.60961 -22.67469 0.07181472 0
19.65961 -22.47469 0.07181472 0
18.80961 -21.82469 0.07181472 0
18.80961 -21.62469 0.07181472 0
18.75961 -21.37469 0.07181472 0
18.75961 -21.17469 0.07181472 0
18.75961 -20.97469 0.07181472 0
19.70961 -22.27469 0.07181472 0
19.75961 -22.07469 0.07181472 0
19.80961 -21.87469 0.07181472 0
19.85961 -21.67469 0.07181472 0
17.90961 -19.87469 0.07181472 0
17.70961 -19.27469 0.07181472 0
18.00961 -20.27469 0.07181472 0
17.95961 -20.07469 0.07181472 0
18.70961 -20.77469 0.07181472 0
18.70961 -20.57469 0.07181472 0
18.70961 -20.32469 0.07181472 0
18.65961 -20.12469 0.07181472 0
18.60961 -19.92469 0.07181472 0
18.60961 -19.72469 0.07181472 0
18.55961 -19.52469 0.07181472 0
18.55961 -19.32469 0.07181472 0
17.40961 -18.97469 0.07181472 0
17.25961 -18.57469 0.07181472 0
17.35961 -18.77469 0.07181472 0
17.65961 -19.07469 0.07181472 0
17.60961 -18.87469 0.07181472 0
17.55961 -18.67469 0.07181472 0
18.50961 -19.12469 0.07181472 0
18.45961 -18.92469 0.07181472 0
23.25961 -20.97469 0.7218148 0
23.30961 -20.87469 0.6718147 0
23.25961 -21.07469 1.371815 0
23.35961 -20.92469 1.371815 0
23.45961 -20.87469 1.371815 0
20.95961 -17.87469 0.6718147 0
20.95961 -17.87469 1.321815 0
20.95961 -17.87469 1.971815 0
20.95961 -17.87469 2.671815 0
23.35961 -20.82469 0.6718147 0
23.45961 -20.77469 0.7218148 0
23.50961 -20.72469 0.6718147 0
20.95961 -17.87469 3.321815 0
20.95961 -17.87469 4.021815 0
21.05961 -18.02469 4.571815 0
20.95961 -17.42469 0.6718147 0
20.95961 -17.37469 0.7218148 0
20.95961 -17.02469 0.7218148 0
21.00961 -16.97469 0.6718147 0
20.95961 -17.42469 1.321815 0
21.00961 -16.97469 1.271815 0
21.00961 -16.62469 0.6718147 0
21.00961 -16.57469 0.6718147 0
21.00961 -16.37469 0.7218148 0
21.00961 -16.27469 0.6718147 0
21.00961 -16.17469 0.6218147 0
21.00961 -16.17469 0.6718147 0
21.00961 -16.57469 1.271815 0
21.00961 -16.17469 1.271815 0
20.95961 -17.42469 1.971815 0
21.00961 -16.97469 1.921815 0
20.95961 -17.42469 2.621815 0
21.00961 -16.97469 2.571815 0
21.00961 -16.97469 3.171815 0
21.00961 -16.57469 1.871815 0
21.00961 -16.17469 1.871815 0
21.00961 -16.57469 2.521815 0
21.00961 -16.57469 3.121815 0
21.00961 -16.17469 2.471815 0
21.00961 -16.17469 3.071815 0
21.00961 -15.92469 0.07181472 0
21.05961 -15.77469 0.07181472 0
21.05961 -15.67469 0.07181472 0
21.00961 -16.02469 0.7218148 0
21.05961 -15.92469 0.6718147 0
21.05961 -15.77469 0.6218147 0
21.05961 -15.67469 0.6218147 0
21.05961 -15.67469 0.7218148 0
21.05961 -15.57469 0.07181472 0
21.05961 -15.37469 0.07181472 0
21.05961 -15.57469 0.6718147 0
21.05961 -15.37469 0.6218147 0
21.05961 -15.37469 0.7218148 0
21.05961 -15.77469 1.221815 0
21.05961 -15.37469 1.221815 0
21.05961 -15.57469 1.321815 0
21.05961 -15.22469 0.07181472 0
21.05961 -15.02469 0.07181472 0
21.05961 -15.22469 0.6218147 0
21.05961 -15.22469 0.6718147 0
21.05961 -15.07469 0.6718147 0
21.05961 -15.02469 0.6218147 0
21.05961 -15.02469 1.221815 0
21.05961 -15.22469 1.271815 0
21.05961 -15.77469 1.821815 0
21.05961 -15.77469 2.421815 0
21.05961 -15.57469 1.921815 0
21.05961 -15.37469 1.771815 0
21.05961 -15.42469 2.371815 0
21.00961 -15.92469 3.221815 0
21.05961 -15.77469 3.021815 0
21.05961 -15.57469 2.571815 0
21.05961 -15.57469 3.171815 0
21.05961 -15.37469 2.971815 0
21.05961 -15.22469 1.871815 0
21.05961 -15.02469 1.771815 0
21.05961 -15.02469 2.321815 0
21.05961 -15.22469 2.521815 0
21.05961 -15.22469 3.121815 0
21.05961 -15.02469 2.921815 0
20.95961 -17.42469 3.271815 0
20.95961 -17.42469 3.921815 0
21.00961 -16.97469 3.821815 0
20.95961 -17.42469 4.571815 0
20.95961 -16.97469 4.521815 0
21.00961 -16.62469 3.321815 0
21.00961 -16.57469 3.771815 0
21.00961 -16.62469 4.021815 0
21.00961 -16.27469 3.271815 0
21.00961 -16.17469 3.721815 0
21.00961 -16.22469 3.921815 0
21.00961 -16.57469 4.421815 0
21.00961 -16.17469 4.321815 0
21.10961 -16.42469 4.621815 0
21.00961 -16.22469 4.621815 0
21.20961 -16.67469 4.671815 0
21.05961 -15.77469 3.621815 0
21.00961 -15.92469 3.871815 0
21.05961 -15.37469 3.571815 0
21.05961 -15.57469 3.821815 0
21.05961 -15.67469 4.071815 0
21.00961 -15.77469 4.271815 0
21.00961 -15.92469 4.521815 0
21.05961 -15.37469 4.171815 0
21.05961 -15.57469 4.471815 0
21.05961 -15.02469 3.521815 0
21.05961 -15.22469 3.771815 0
21.05961 -15.22469 3.971815 0
21.05961 -15.22469 4.421815 0
21.05961 -15.02469 4.121815 0
21.05961 -15.22469 4.571815 0
21.25961 -15.62469 4.671815 0
21.15961 -15.37469 4.621815 0
21.25961 -15.12469 4.671815 0
23.80961 -20.97469 0.6718147 0
23.65961 -20.87469 1.371815 0
23.80961 -20.92469 1.371815 0
23.55961 -20.77469 0.6718147 0
23.65961 -20.82469 0.7218148 0
23.70961 -20.82469 0.6718147 0
23.55961 -20.82469 1.371815 0
24.65961 -19.52469 0.1218147 0
24.85961 -19.47469 0.1218147 0
25.05961 -19.37469 0.1218147 0
25.25961 -19.27469 0.1218147 0
25.45961 -19.17469 0.1218147 0
25.65961 -19.07469 0.1218147 0
25.85961 -19.02469 0.1218147 0
26.00961 -18.87469 0.1218147 0
26.20961 -18.77469 0.1218147 0
26.40961 -18.67469 0.1218147 0
26.60961 -18.57469 0.1218147 0
26.75961 -18.47469 0.1218147 0
26.95961 -18.37469 0.1218147 0
27.15961 -18.27469 0.07181472 0
27.30961 -18.17469 0.07181472 0
27.50961 -18.02469 0.07181472 0
27.70961 -17.92469 0.07181472 0
27.85961 -17.82469 0.07181472 0
28.05961 -17.67469 0.07181472 0
28.20961 -17.57469 0.07181472 0
28.40961 -17.47469 0.07181472 0
28.60961 -17.32469 0.07181472 0
28.60961 -16.62469 0.07181472 0
28.60961 -16.52469 0.07181472 0
28.55961 -16.62469 0.7218148 0
28.60961 -16.52469 0.6718147 0
28.60961 -16.42469 0.07181472 0
28.60961 -16.27469 0.07181472 0
28.60961 -16.12469 0.07181472 0
28.60961 -16.42469 0.6218147 0
28.65961 -16.32469 0.6218147 0
28.60961 -16.32469 0.6718147 0
28.65961 -16.42469 0.6718147 0
28.65961 -16.17469 0.5718147 0
28.60961 -16.12469 0.6718147 0
28.65961 -16.17469 0.6718147 0
29.00961 -16.62469 0.07181472 0
29.00961 -16.57469 0.07181472 0
29.00961 -16.37469 0.07181472 0
28.95961 -16.32469 0.07181472 0
28.60961 -16.52469 1.221815 0
28.60961 -16.42469 1.171815 0
28.65961 -16.32469 1.221815 0
28.60961 -16.12469 1.221815 0
28.60961 -16.32469 1.321815 0
28.65961 -16.42469 1.321815 0
28.65961 -16.07469 1.271815 0
29.20961 -16.62469 0.07181472 0
29.25961 -16.62469 0.07181472 0
29.25961 -16.62469 0.1218147 0
29.30961 -16.62469 0.07181472 0
29.40961 -16.67469 0.1218147 0
29.50961 -16.67469 0.1218147 0
29.35961 -16.62469 0.1218147 0
29.40961 -16.62469 0.1218147 0
29.50961 -16.62469 0.07181472 0
29.55961 -16.67469 0.1218147 0
29.60961 -16.67469 0.07181472 0
29.65961 -16.67469 0.1218147 0
29.60961 -16.62469 0.1218147 0
29.70961 -16.62469 0.07181472 0
29.75961 -16.67469 0.1218147 0
29.85961 -16.67469 0.07181472 0
29.85961 -16.67469 0.1218147 0
29.90961 -16.67469 0.1218147 0
29.75961 -16.62469 0.1218147 0
28.60961 -16.52469 1.821815 0
28.60961 -16.52469 2.421815 0
28.65961 -16.32469 1.871815 0
28.60961 -16.12469 1.771815 0
28.60961 -16.17469 2.371815 0
28.65961 -16.17469 2.271815 0
29.05961 -16.62469 2.121815 0
29.00961 -16.62469 2.271815 0
28.95961 -16.52469 2.321815 0
29.05961 -16.62469 2.271815 0
29.10961 -16.62469 2.271815 0
29.10961 -16.62469 2.321815 0
29.00961 -16.37469 2.121815 0
28.95961 -16.27469 2.221815 0
29.15961 -16.67469 2.221815 0
29.30961 -16.67469 2.221815 0
29.25961 -16.67469 2.271815 0
29.15961 -16.62469 2.271815 0
29.25961 -16.62469 2.271815 0
29.30961 -16.62469 2.321815 0
29.50961 -16.67469 2.221815 0
29.35961 -16.67469 2.271815 0
29.35961 -16.62469 2.121815 0
29.40961 -16.62469 2.221815 0
29.40961 -16.62469 2.271815 0
29.45961 -16.62469 2.321815 0
29.50961 -16.62469 2.271815 0
29.60961 -16.67469 2.121815 0
29.60961 -16.67469 2.221815 0
29.65961 -16.67469 2.221815 0
29.65961 -16.67469 2.271815 0
29.55961 -16.62469 2.271815 0
29.65961 -16.62469 2.321815 0
29.75961 -16.67469 2.221815 0
29.85961 -16.67469 2.071815 0
29.85961 -16.67469 2.221815 0
29.85961 -16.67469 2.271815 0
29.90961 -16.67469 2.271815 0
29.75961 -16.62469 2.271815 0
28.60961 -15.97469 0.07181472 0
28.60961 -15.92469 0.07181472 0
28.60961 -15.77469 0.07181472 0
28.60961 -15.92469 0.6218147 0
28.65961 -15.92469 0.6218147 0
28.60961 -15.97469 0.6718147 0
28.65961 -16.02469 0.6718147 0
28.65961 -15.67469 0.5718147 0
28.60961 -15.77469 0.6718147 0
28.60961 -15.67469 0.6718147 0
28.65961 -15.82469 0.6718147 0
28.65961 -15.72469 0.6718147 0
28.60961 -15.62469 0.07181472 0
28.65961 -15.47469 0.07181472 0
28.65961 -15.42469 0.1218147 0
28.65961 -15.32469 0.07181472 0
28.70961 -15.57469 0.6218147 0
28.65961 -15.47469 0.6218147 0
28.65961 -15.52469 0.6718147 0
28.65961 -15.42469 0.6218147 0
28.65961 -15.37469 0.6218147 0
28.70961 -15.27469 0.5218147 0
28.65961 -15.32469 0.6718147 0
29.05961 -15.72469 0.07181472 0
29.00961 -15.52469 0.1218147 0
29.05961 -15.42469 0.07181472 0
28.60961 -15.97469 1.171815 0
28.65961 -15.92469 1.221815 0
28.60961 -15.77469 1.221815 0
28.60961 -15.97469 1.271815 0
28.60961 -15.67469 1.271815 0
28.70961 -15.57469 1.221815 0
28.65961 -15.47469 1.121815 0
28.65961 -15.42469 1.171815 0
28.65961 -15.32469 1.271815 0
28.65961 -15.12469 0.1218147 0
28.65961 -15.07469 0.07181472 0
28.65961 -15.07469 0.1218147 0
28.70961 -15.17469 0.6218147 0
28.65961 -15.12469 0.5718147 0
28.65961 -15.12469 0.6218147 0
28.65961 -15.07469 0.6218147 0
28.70961 -15.07469 0.6218147 0
28.70961 -15.22469 0.6718147 0
28.65961 -15.02469 0.6718147 0
29.00961 -15.17469 0.6218147 0
28.70961 -15.17469 1.171815 0
28.65961 -15.07469 1.121815 0
28.65961 -15.12469 1.171815 0
28.65961 -15.02469 1.271815 0
29.00961 -15.17469 1.121815 0
29.00961 -15.17469 1.621815 0
29.50961 -15.52469 0.07181472 0
28.65961 -15.92469 1.821815 0
28.60961 -15.77469 1.771815 0
28.60961 -15.77469 2.321815 0
28.70961 -15.57469 1.771815 0
28.65961 -15.47469 1.721815 0
28.70961 -15.52469 2.371815 0
28.65961 -15.42469 2.271815 0
29.00961 -16.02469 2.071815 0
28.70961 -15.22469 1.771815 0
28.65961 -15.12469 1.721815 0
28.70961 -15.07469 1.871815 0
28.70961 -15.17469 2.321815 0
28.65961 -15.12469 2.271815 0
32.10961 -21.22469 0.7718147 0
32.30961 -21.22469 0.7718147 0
32.50961 -21.32469 0.7718147 0
32.75961 -21.12469 0.07181472 0
32.95961 -21.12469 0.07181472 0
32.75961 -21.12469 0.7718147 0
32.95961 -21.17469 0.7718147 0
33.15961 -21.32469 0.07181472 0
34.50961 -17.87469 0.07181472 0
34.50961 -17.87469 0.7218148 0
34.50961 -17.67469 0.6718147 0
34.55961 -17.82469 0.5718147 0
34.55961 -17.72469 0.5718147 0
34.55961 -17.77469 1.271815 0
34.55961 -17.87469 1.871815 0
34.60961 -17.77469 1.921815 0
34.55961 -17.72469 1.971815 0
34.10961 -17.82469 3.121815 0
34.50961 -17.97469 2.621815 0
34.55961 -17.87469 2.521815 0
34.55961 -17.77469 2.621815 0
34.55961 -17.72469 2.621815 0
33.80961 -18.57469 4.071815 0
33.85961 -18.12469 4.021815 0
33.90961 -17.82469 3.971815 0
33.85961 -17.72469 3.921815 0
34.05961 -18.52469 3.371815 0
34.05961 -18.12469 3.321815 0
34.10961 -17.77469 3.271815 0
34.05961 -17.67469 3.271815 0
29.95961 -16.67469 0.1218147 0
30.00961 -16.67469 0.07181472 0
30.00961 -16.67469 0.1218147 0
30.05961 -16.67469 0.1218147 0
30.10961 -16.67469 0.1218147 0
30.15961 -16.67469 0.07181472 0
30.15961 -16.67469 0.1218147 0
30.20961 -16.67469 0.1218147 0
30.25961 -16.67469 0.1218147 0
30.30961 -16.67469 0.1218147 0
30.35961 -16.67469 0.07181472 0
30.35961 -16.67469 0.1218147 0
30.40961 -16.67469 0.1218147 0
30.45961 -16.67469 0.1218147 0
30.50961 -16.67469 0.07181472 0
30.50961 -16.67469 0.1218147 0
30.55961 -16.67469 0.1218147 0
30.60961 -16.67469 0.1218147 0
30.65961 -16.67469 0.1218147 0
30.70961 -16.67469 0.07181472 0
30.75961 -16.72469 0.1218147 0
30.80961 -16.72469 0.1218147 0
30.85961 -16.72469 0.1218147 0
30.85961 -16.67469 0.07181472 0
30.90961 -16.72469 0.1218147 0
30.95961 -16.72469 0.1218147 0
31.00961 -16.72469 0.1218147 0
31.05961 -16.72469 0.07181472 0
31.05961 -16.72469 0.1218147 0
31.15961 -16.72469 0.1218147 0
31.20961 -16.72469 0.07181472 0
31.20961 -16.72469 0.1218147 0
31.35961 -16.72469 0.1218147 0
31.40961 -16.72469 0.07181472 0
31.50961 -16.72469 0.1218147 0
29.95961 -16.67469 2.221815 0
30.00961 -16.67469 2.221815 0
30.10961 -16.67469 2.221815 0
30.00961 -16.67469 2.271815 0
30.05961 -16.67469 2.271815 0
30.15961 -16.67469 2.221815 0
30.25961 -16.67469 2.221815 0
30.15961 -16.67469 2.271815 0
30.25961 -16.67469 2.271815 0
30.35961 -16.67469 2.221815 0
30.45961 -16.67469 2.221815 0
30.50961 -16.72469 2.221815 0
30.35961 -16.67469 2.271815 0
30.40961 -16.67469 2.271815 0
30.50961 -16.67469 2.271815 0
30.60961 -16.72469 2.221815 0
30.70961 -16.72469 2.221815 0
30.55961 -16.67469 2.271815 0
30.65961 -16.67469 2.271815 0
30.70961 -16.72469 2.321815 0
30.80961 -16.72469 2.221815 0
30.85961 -16.72469 2.221815 0
30.75961 -16.67469 2.271815 0
30.85961 -16.72469 2.271815 0
30.85961 -16.72469 2.321815 0
30.95961 -16.72469 2.221815 0
31.05961 -16.72469 2.221815 0
31.00961 -16.72469 2.271815 0
31.05961 -16.72469 2.371815 0
31.15961 -16.72469 2.221815 0
31.20961 -16.72469 2.221815 0
31.30961 -16.72469 2.221815 0
31.20961 -16.77469 2.271815 0
31.15961 -16.72469 2.271815 0
31.20961 -16.72469 2.371815 0
31.40961 -16.77469 2.271815 0
31.35961 -16.72469 2.271815 0
31.40961 -16.72469 2.371815 0
31.50961 -16.72469 2.271815 0
31.55961 -16.72469 0.1218147 0
31.60961 -16.72469 0.07181472 0
31.70961 -16.72469 0.1218147 0
31.90961 -16.72469 0.1218147 0
31.55961 -16.77469 2.271815 0
31.60961 -16.72469 2.371815 0
31.65961 -16.72469 2.271815 0
31.75961 -16.77469 2.271815 0
31.75961 -16.72469 2.371815 0
31.85961 -16.77469 2.271815 0
31.90961 -16.77469 2.271815 0
31.95961 -16.77469 2.271815 0
31.95961 -16.77469 2.371815 0
31.95961 -16.47469 2.271815 0
32.00961 -16.37469 2.271815 0
32.00961 -15.87469 0.07181472 0
32.00961 -15.77469 0.07181472 0
32.05961 -15.37469 1.571815 0
32.35961 -15.72469 0.1218147 0
32.40961 -15.22469 0.1218147 0
32.40961 -15.22469 0.6718147 0
32.05961 -15.37469 2.121815 0
32.00961 -15.17469 1.671815 0
34.50961 -17.42469 0.07181472 0
34.50961 -17.42469 0.6718147 0
34.55961 -17.37469 0.5718147 0
34.55961 -17.32469 0.5718147 0
34.55961 -17.27469 0.6718147 0
34.55961 -16.97469 0.07181472 0
34.55961 -16.92469 0.5218147 0
34.60961 -16.92469 0.5718147 0
34.55961 -16.97469 0.6718147 0
34.55961 -16.97469 0.7218148 0
34.55961 -16.92469 0.6718147 0
34.50961 -17.17469 1.271815 0
34.55961 -16.57469 0.07181472 0
34.55961 -16.57469 0.6218147 0
34.60961 -16.57469 0.5718147 0
34.60961 -16.52469 0.5218147 0
34.55961 -16.62469 0.6718147 0
34.55961 -16.57469 0.6718147 0
34.55961 -16.17469 0.07181472 0
34.60961 -16.32469 0.6218147 0
34.55961 -16.32469 0.6718147 0
34.55961 -16.17469 0.6218147 0
34.60961 -16.22469 0.5718147 0
34.60961 -16.12469 0.5218147 0
34.60961 -16.07469 0.5718147 0
34.55961 -16.12469 0.6718147 0
