# .PCD v0.7 - Point Cloud Data file format
VERSION 0.7
FIELDS x y z intensity
SIZE 4 4 4 4
TYPE F F F F
COUNT 1 1 1 1
WIDTH 1544
HEIGHT 1
VIEWPOINT 0 0 0 1 0 0 0
POINTS 1544
DATA ascii
137.1596 -47.17469 -0.02818528 0
137.1596 -47.17469 0.02181472 0
137.2096 -47.22469 0.02181472 0
137.1596 -47.07469 -0.02818528 0
137.2096 -47.07469 0.02181472 0
137.1596 -46.97469 0.02181472 0
137.2096 -46.97469 -0.02818528 0
137.1596 -46.87469 0.02181472 0
137.2596 -46.87469 0.02181472 0
137.1596 -46.77469 0.02181472 0
137.2096 -46.77469 -0.02818528 0
137.1596 -46.67469 0.02181472 0
137.2596 -46.72469 0.02181472 0
137.2096 -46.62469 0.02181472 0
137.2096 -46.57469 -0.02818528 0
137.1596 -46.52469 -0.02818528 0
137.2096 -46.52469 0.02181472 0
137.2596 -46.52469 0.02181472 0
138.1096 -47.32469 0.02181472 0
138.2596 -47.32469 0.02181472 0
138.3596 -47.27469 0.02181472 0
138.5096 -47.27469 0.02181472 0
138.6096 -47.27469 0.02181472 0
135.5596 -46.42469 -0.02818528 0
135.6596 -46.42469 -0.02818528 0
135.6096 -46.22469 -0.02818528 0
135.6096 -46.17469 -0.02818528 0
135.7096 -46.22469 -0.02818528 0
135.8096 -46.22469 -0.02818528 0
135.8096 -46.07469 -0.02818528 0
135.9096 -46.22469 -0.02818528 0
135.8596 -46.07469 -0.02818528 0
135.5596 -45.97469 -0.02818528 0
135.6596 -46.02469 -0.02818528 0
135.5596 -45.67469 -0.02818528 0
135.6596 -45.72469 -0.02818528 0
135.7596 -46.02469 -0.02818528 0
135.8096 -46.02469 -0.02818528 0
135.8096 -45.77469 -0.02818528 0
135.7596 -45.72469 -0.02818528 0
135.8596 -45.77469 -0.02818528 0
136.0096 -46.27469 -0.02818528 0
135.9596 -46.07469 -0.02818528 0
136.1096 -46.22469 -0.02818528 0
136.0596 -46.07469 -0.02818528 0
136.2096 -46.27469 -0.02818528 0
136.3096 -46.27469 -0.02818528 0
136.1596 -46.07469 -0.02818528 0
136.2596 -46.07469 -0.02818528 0
135.9596 -45.77469 -0.02818528 0
136.0596 -45.77469 -0.02818528 0
136.1596 -45.77469 -0.02818528 0
136.2596 -45.77469 -0.02818528 0
135.5596 -45.62469 -0.02818528 0
135.6096 -45.47469 -0.02818528 0
135.6596 -45.47469 -0.02818528 0
135.5596 -45.42469 -0.02818528 0
135.7596 -45.52469 -0.02818528 0
135.8596 -45.57469 -0.02818528 0
135.9096 -45.57469 -0.02818528 0
135.5596 -45.02469 -0.02818528 0
135.6096 -45.02469 -0.02818528 0
135.8596 -45.07469 -0.02818528 0
135.9096 -45.07469 -0.02818528 0
135.7596 -45.02469 -0.02818528 0
135.9596 -45.57469 -0.02818528 0
136.0596 -45.57469 -0.02818528 0
136.1596 -45.57469 -0.02818528 0
136.2596 -45.57469 -0.02818528 0
136.0096 -45.07469 -0.02818528 0
136.1596 -45.07469 -0.02818528 0
136.2596 -45.07469 -0.02818528 0
136.4096 -46.27469 -0.02818528 0
136.5096 -46.27469 -0.02818528 0
136.3596 -46.07469 -0.02818528 0
136.4096 -46.07469 -0.02818528 0
136.4596 -46.07469 -0.02818528 0
136.6096 -46.22469 -0.02818528 0
136.6596 -46.22469 -0.02818528 0
136.7096 -46.22469 -0.02818528 0
136.3596 -45.77469 -0.02818528 0
136.4096 -45.77469 -0.02818528 0
136.4596 -45.77469 -0.02818528 0
136.5596 -46.02469 -0.02818528 0
136.6596 -46.02469 -0.02818528 0
136.5596 -45.72469 -0.02818528 0
136.6596 -45.72469 -0.02818528 0
136.7096 -45.67469 -0.02818528 0
136.7596 -46.42469 -0.07818528 0
136.8596 -46.37469 -0.07818528 0
136.9096 -46.37469 -0.07818528 0
136.8096 -46.22469 -0.02818528 0
136.9096 -46.22469 -0.02818528 0
136.9596 -46.37469 -0.07818528 0
137.1096 -46.42469 0.02181472 0
137.0596 -46.32469 -0.07818528 0
137.1096 -46.27469 -0.07818528 0
137.1096 -46.32469 0.02181472 0
137.0096 -46.17469 -0.02818528 0
137.1096 -46.22469 -0.02818528 0
137.1096 -46.22469 0.02181472 0
137.1096 -46.17469 -0.02818528 0
136.7596 -45.97469 -0.02818528 0
136.8096 -45.97469 -0.02818528 0
136.8596 -45.92469 -0.07818528 0
136.7596 -45.67469 -0.02818528 0
136.9596 -45.92469 -0.02818528 0
137.0096 -45.87469 -0.02818528 0
137.0596 -45.82469 -0.07818528 0
137.1096 -45.82469 -0.07818528 0
136.3596 -45.57469 -0.02818528 0
136.4596 -45.52469 -0.02818528 0
136.5596 -45.52469 -0.02818528 0
136.6596 -45.47469 -0.02818528 0
136.7096 -45.47469 -0.02818528 0
136.3596 -45.07469 -0.02818528 0
136.4096 -45.07469 -0.02818528 0
136.5596 -45.07469 -0.02818528 0
136.6596 -45.07469 -0.02818528 0
136.8596 -45.62469 -0.02818528 0
136.7596 -45.42469 -0.02818528 0
136.8596 -45.37469 -0.02818528 0
136.9096 -45.37469 -0.02818528 0
136.9596 -45.57469 -0.07818528 0
137.0096 -45.57469 -0.07818528 0
137.1096 -45.47469 -0.07818528 0
137.0596 -45.52469 -0.02818528 0
136.9596 -45.32469 -0.02818528 0
137.0096 -45.27469 -0.02818528 0
136.7596 -45.07469 -0.02818528 0
136.8096 -45.02469 -0.02818528 0
136.9096 -45.02469 -0.02818528 0
137.0596 -45.22469 -0.07818528 0
137.1096 -45.17469 -0.07818528 0
137.2096 -46.42469 0.02181472 0
137.2096 -46.37469 -0.02818528 0
137.2096 -46.32469 0.02181472 0
137.2596 -46.37469 0.02181472 0
137.2096 -46.22469 0.02181472 0
137.2096 -46.17469 -0.02818528 0
137.1596 -46.12469 -0.02818528 0
137.1596 -46.12469 0.02181472 0
137.2096 -46.12469 0.02181472 0
137.2596 -46.17469 0.02181472 0
137.1596 -46.02469 0.02181472 0
137.1596 -45.97469 0.02181472 0
137.2096 -46.02469 0.02181472 0
137.2096 -45.97469 0.02181472 0
137.1596 -45.87469 0.02181472 0
137.2096 -45.92469 0.02181472 0
137.2596 -45.97469 -0.02818528 0
137.3096 -45.97469 0.02181472 0
137.1596 -45.77469 -0.02818528 0
137.2096 -45.82469 0.02181472 0
137.2096 -45.77469 0.02181472 0
137.1596 -45.72469 0.02181472 0
137.2096 -45.72469 0.02181472 0
137.2096 -45.67469 0.02181472 0
137.2596 -45.82469 0.02181472 0
137.2596 -45.77469 -0.02818528 0
137.2596 -45.67469 -0.02818528 0
137.2096 -45.57469 -0.07818528 0
137.1596 -45.62469 0.02181472 0
137.2096 -45.57469 0.02181472 0
137.1596 -45.52469 -0.07818528 0
137.1596 -45.52469 0.02181472 0
137.2096 -45.47469 0.02181472 0
137.2596 -45.62469 0.02181472 0
137.2596 -45.57469 -0.02818528 0
137.3096 -45.62469 0.02181472 0
137.2596 -45.52469 -0.02818528 0
137.3096 -45.47469 0.02181472 0
137.1596 -45.42469 -0.02818528 0
137.1596 -45.42469 0.02181472 0
137.1596 -45.37469 -0.02818528 0
137.2096 -45.42469 0.02181472 0
137.1596 -45.32469 0.02181472 0
137.2596 -45.42469 -0.02818528 0
137.2596 -45.37469 -0.02818528 0
137.3096 -45.27469 0.02181472 0
137.1596 -45.22469 0.02181472 0
137.1596 -45.12469 -0.02818528 0
137.1596 -45.12469 0.02181472 0
137.1596 -45.07469 -0.02818528 0
137.2596 -45.17469 -0.02818528 0
137.3096 -45.07469 0.02181472 0
137.1596 -45.02469 0.02181472 0
139.3096 -49.12469 0.02181472 0
139.4596 -49.07469 0.02181472 0
139.5596 -49.07469 0.02181472 0
139.6596 -49.02469 0.02181472 0
139.8096 -49.02469 0.02181472 0
139.9096 -48.97469 0.02181472 0
140.0596 -48.92469 0.02181472 0
140.1596 -48.87469 0.02181472 0
140.2596 -48.82469 0.02181472 0
138.7596 -47.27469 0.02181472 0
138.8596 -47.22469 0.02181472 0
139.0096 -47.17469 0.02181472 0
139.1096 -47.17469 0.02181472 0
139.2596 -47.12469 0.02181472 0
139.3596 -47.12469 0.02181472 0
139.4596 -47.07469 0.02181472 0
139.6096 -47.07469 0.02181472 0
139.7096 -47.02469 0.02181472 0
139.8596 -46.97469 0.02181472 0
139.9596 -46.97469 0.02181472 0
140.1096 -46.92469 0.02181472 0
140.2096 -46.87469 0.02181472 0
140.3096 -46.87469 0.02181472 0
140.4596 -46.82469 0.02181472 0
135.0596 -70.57469 0.07181472 0
135.2596 -71.12469 0.07181472 0
135.4596 -71.07469 0.07181472 0
135.2596 -70.52469 0.07181472 0
135.4596 -70.52469 0.07181472 0
135.0096 -69.57469 0.07181472 0
135.2096 -69.52469 0.07181472 0
135.4096 -69.47469 0.07181472 0
135.7096 -71.07469 0.07181472 0
135.9096 -71.02469 0.07181472 0
135.6596 -70.47469 0.07181472 0
135.8596 -70.42469 0.07181472 0
136.1096 -70.37469 0.07181472 0
136.3096 -70.32469 0.07181472 0
135.6096 -69.42469 0.07181472 0
135.8096 -69.32469 0.07181472 0
136.0096 -69.27469 0.07181472 0
136.2096 -69.22469 0.07181472 0
136.5096 -70.27469 0.07181472 0
136.7096 -70.17469 0.07181472 0
136.9096 -70.17469 0.07181472 0
137.1096 -70.07469 0.07181472 0
136.4096 -69.12469 0.07181472 0
136.6096 -69.02469 0.07181472 0
136.8096 -68.97469 0.07181472 0
137.0096 -68.87469 0.07181472 0
137.3096 -70.02469 0.07181472 0
137.5096 -69.97469 0.07181472 0
137.7096 -69.87469 0.07181472 0
137.9096 -69.82469 0.07181472 0
138.1096 -69.77469 0.07181472 0
138.3596 -69.67469 0.07181472 0
138.5596 -69.62469 0.07181472 0
135.1596 -68.17469 0.07181472 0
135.3596 -68.07469 0.07181472 0
135.5096 -68.02469 0.07181472 0
135.7096 -67.92469 0.07181472 0
135.9096 -67.82469 0.07181472 0
136.0596 -67.72469 0.07181472 0
136.2596 -67.62469 0.07181472 0
136.4596 -67.52469 0.07181472 0
136.6096 -67.42469 0.07181472 0
136.8096 -67.32469 0.07181472 0
136.9596 -67.22469 0.07181472 0
137.2096 -68.82469 0.07181472 0
137.4096 -68.72469 0.07181472 0
137.6096 -68.62469 0.07181472 0
137.8096 -68.57469 0.07181472 0
137.9596 -68.47469 0.07181472 0
138.1596 -68.37469 0.07181472 0
138.3596 -68.27469 0.07181472 0
138.5596 -68.22469 0.07181472 0
138.7096 -68.07469 0.07181472 0
137.1596 -67.12469 0.07181472 0
137.3096 -67.02469 0.07181472 0
137.5096 -66.87469 0.07181472 0
137.6596 -66.77469 0.07181472 0
137.8596 -66.67469 0.07181472 0
138.0096 -66.52469 0.07181472 0
138.2096 -66.42469 0.07181472 0
138.3596 -66.32469 0.07181472 0
138.5096 -66.17469 0.07181472 0
138.7096 -66.07469 0.07181472 0
138.7596 -69.52469 0.07181472 0
138.9596 -69.47469 0.07181472 0
139.1596 -69.37469 0.07181472 0
139.3096 -69.32469 0.07181472 0
139.5096 -69.22469 0.07181472 0
139.7096 -69.12469 0.07181472 0
139.9096 -69.07469 0.07181472 0
140.1096 -68.97469 0.07181472 0
140.3096 -68.87469 0.07181472 0
138.9096 -68.02469 0.07181472 0
139.1096 -67.92469 0.07181472 0
139.3096 -67.77469 0.07181472 0
139.4596 -67.67469 0.07181472 0
139.6596 -67.57469 0.07181472 0
139.8096 -67.47469 0.07181472 0
140.0096 -67.37469 0.07181472 0
140.2096 -67.27469 0.07181472 0
138.8596 -65.92469 0.07181472 0
139.0096 -65.82469 0.07181472 0
139.2096 -65.67469 0.07181472 0
140.5096 -68.77469 0.07181472 0
140.7096 -68.67469 0.07181472 0
140.9096 -68.57469 0.07181472 0
141.0596 -68.47469 0.07181472 0
141.2596 -68.37469 0.07181472 0
141.4596 -68.27469 0.07181472 0
141.6596 -68.17469 0.07181472 0
141.8096 -68.07469 0.07181472 0
140.3596 -67.12469 0.07181472 0
140.5596 -67.02469 0.07181472 0
140.7096 -66.87469 0.07181472 0
140.9096 -66.77469 0.07181472 0
141.0596 -66.67469 0.07181472 0
141.2596 -66.52469 0.07181472 0
141.4096 -66.42469 0.07181472 0
141.6096 -66.27469 0.07181472 0
141.7596 -66.17469 0.07181472 0
141.9096 -66.02469 0.07181472 0
139.3596 -65.57469 0.07181472 0
139.5096 -65.42469 0.07181472 0
139.6596 -65.27469 0.07181472 0
139.8096 -65.17469 0.07181472 0
142.0096 -67.97469 0.07181472 0
142.0596 -65.87469 0.07181472 0
142.2596 -65.77469 0.07181472 0
142.4096 -65.62469 0.07181472 0
135.0096 -56.12469 0.07181472 0
135.0596 -56.02469 0.07181472 0
135.0596 -55.92469 0.07181472 0
135.1096 -55.87469 0.07181472 0
135.2096 -55.97469 0.07181472 0
135.3096 -55.97469 0.07181472 0
135.2096 -55.77469 0.07181472 0
135.2596 -55.67469 0.07181472 0
135.4596 -55.97469 0.07181472 0
135.3096 -55.57469 0.07181472 0
135.3596 -55.47469 0.07181472 0
135.4096 -55.37469 0.07181472 0
135.4596 -55.27469 0.07181472 0
135.0596 -54.67469 0.1718147 0
135.1596 -54.62469 0.1718147 0
135.2096 -54.57469 0.1718147 0
135.2596 -54.57469 0.1718147 0
135.3096 -54.52469 0.1718147 0
135.4096 -54.47469 0.1718147 0
135.0096 -54.22469 0.1218147 0
135.0096 -54.17469 0.07181472 0
135.0596 -54.22469 0.07181472 0
135.0596 -54.22469 0.1218147 0
135.2596 -54.27469 0.1218147 0
135.1596 -54.22469 0.1218147 0
135.1596 -54.12469 0.07181472 0
135.3096 -54.22469 0.1218147 0
135.3096 -54.17469 0.07181472 0
135.3596 -54.27469 0.1218147 0
135.4596 -54.42469 0.1718147 0
135.5096 -54.37469 0.1718147 0
135.4596 -54.27469 0.1218147 0
135.4096 -54.22469 0.1218147 0
135.4596 -54.17469 0.07181472 0
135.4596 -50.27469 0.2218147 0
135.4096 -50.27469 0.2718147 0
135.4096 -50.27469 0.3218147 0
135.4096 -50.27469 0.4218147 0
135.5096 -50.27469 0.3218147 0
135.4596 -50.27469 0.4218147 0
135.5096 -50.07469 0.2718147 0
135.3596 -50.02469 0.1718147 0
135.4096 -49.97469 0.1718147 0
135.3596 -49.92469 0.3218147 0
135.3596 -49.87469 0.3218147 0
135.3596 -49.92469 0.4218147 0
135.3596 -49.87469 0.3718147 0
135.3596 -49.87469 0.4218147 0
135.3596 -49.92469 0.5218147 0
135.3596 -49.87469 0.5218147 0
135.5596 -55.97469 0.07181472 0
135.7096 -55.97469 0.07181472 0
135.8096 -55.97469 0.07181472 0
135.9596 -56.02469 0.07181472 0
136.0596 -56.02469 0.07181472 0
136.2096 -55.97469 0.07181472 0
136.3096 -56.02469 0.07181472 0
135.5596 -55.17469 0.07181472 0
135.6096 -55.02469 0.07181472 0
135.6596 -54.92469 0.07181472 0
135.7096 -54.82469 0.07181472 0
135.7596 -54.72469 0.07181472 0
135.8096 -54.57469 0.07181472 0
135.8596 -54.47469 0.07181472 0
136.4596 -56.02469 0.07181472 0
136.5596 -55.97469 0.07181472 0
136.7096 -55.97469 0.07181472 0
136.8096 -55.97469 0.07181472 0
136.9596 -55.97469 0.07181472 0
137.0596 -55.97469 0.07181472 0
135.5596 -54.37469 0.1718147 0
135.5596 -54.27469 0.1218147 0
135.6096 -54.32469 0.1718147 0
135.6596 -54.27469 0.1218147 0
135.7096 -54.27469 0.1718147 0
135.5596 -54.22469 0.1218147 0
135.6096 -54.17469 0.07181472 0
135.6596 -54.22469 0.1218147 0
135.7596 -54.27469 0.1218147 0
135.8096 -54.27469 0.1218147 0
135.9096 -54.37469 0.07181472 0
135.8596 -54.27469 0.1218147 0
135.9096 -54.27469 0.1218147 0
135.7596 -54.17469 0.07181472 0
135.8096 -54.22469 0.1218147 0
135.9096 -54.17469 0.07181472 0
135.9596 -54.27469 0.1218147 0
136.0096 -54.27469 0.1218147 0
136.0596 -54.27469 0.1218147 0
136.1096 -54.27469 0.1218147 0
135.9596 -54.22469 0.1218147 0
136.0596 -54.22469 0.1218147 0
136.0596 -54.17469 0.07181472 0
136.1596 -54.27469 0.1218147 0
136.2096 -54.27469 0.1218147 0
136.2596 -54.27469 0.1218147 0
136.3096 -54.27469 0.1218147 0
136.2096 -54.17469 0.07181472 0
136.3596 -54.27469 0.1218147 0
136.4596 -54.27469 0.1218147 0
136.3596 -54.17469 0.07181472 0
136.4596 -54.22469 0.1218147 0
136.5096 -54.22469 0.1218147 0
136.5096 -54.17469 0.07181472 0
136.5596 -54.27469 0.1218147 0
136.7096 -54.27469 0.1218147 0
136.5596 -54.22469 0.1218147 0
136.6596 -54.22469 0.07181472 0
136.6596 -54.22469 0.1218147 0
136.8596 -54.27469 0.1218147 0
136.7596 -54.17469 0.1218147 0
136.8096 -54.22469 0.07181472 0
136.8596 -54.17469 0.1218147 0
136.9096 -54.17469 0.1218147 0
136.9596 -54.27469 0.1218147 0
136.9596 -54.12469 0.1218147 0
137.0596 -54.12469 0.1218147 0
136.9596 -53.97469 0.07181472 0
137.0596 -53.87469 0.1218147 0
136.7596 -53.37469 0.07181472 0
136.7596 -53.27469 0.07181472 0
136.7596 -53.17469 0.07181472 0
136.8096 -53.17469 0.07181472 0
136.7596 -53.12469 0.07181472 0
136.7596 -52.97469 0.07181472 0
136.7596 -52.87469 0.07181472 0
136.8096 -52.92469 0.07181472 0
137.2096 -55.97469 0.07181472 0
137.3096 -55.97469 0.07181472 0
137.4596 -55.92469 0.07181472 0
137.5596 -55.92469 0.07181472 0
137.7096 -55.92469 0.07181472 0
137.8596 -55.92469 0.07181472 0
137.9596 -55.87469 0.07181472 0
138.0596 -55.87469 0.07181472 0
138.2096 -55.82469 0.07181472 0
138.3096 -55.82469 0.07181472 0
138.4596 -55.77469 0.07181472 0
138.5596 -55.77469 0.07181472 0
138.7096 -55.72469 0.07181472 0
137.1596 -54.07469 0.1218147 0
137.2096 -54.02469 0.1218147 0
137.2096 -53.87469 0.1218147 0
137.2596 -54.02469 0.1218147 0
137.3096 -53.87469 0.1218147 0
137.3596 -54.02469 0.1218147 0
137.4596 -53.92469 0.1218147 0
137.4596 -53.87469 0.1218147 0
137.5596 -53.92469 0.1218147 0
137.6596 -53.87469 0.1218147 0
137.5596 -53.82469 0.1218147 0
137.7096 -53.82469 0.1218147 0
137.7596 -53.82469 0.1218147 0
137.8096 -53.82469 0.1218147 0
137.8096 -53.77469 0.1218147 0
137.8596 -53.72469 0.1218147 0
137.9596 -53.77469 0.1218147 0
137.9596 -53.67469 0.1218147 0
138.0596 -53.77469 0.1218147 0
138.2096 -53.77469 0.1218147 0
138.3096 -53.72469 0.1218147 0
138.4596 -53.72469 0.1218147 0
138.5596 -53.67469 0.1218147 0
138.7096 -53.67469 0.1218147 0
138.0096 -53.62469 0.1218147 0
138.0596 -53.62469 0.1218147 0
138.1096 -53.57469 0.1218147 0
138.1596 -53.52469 0.1218147 0
138.2096 -53.47469 0.1218147 0
138.3096 -53.42469 0.1218147 0
138.4096 -53.37469 0.1218147 0
138.4596 -53.27469 0.1218147 0
138.5596 -53.22469 0.1218147 0
138.6096 -53.17469 0.1218147 0
138.6596 -53.07469 0.1218147 0
138.6096 -55.87469 3.571815 0
138.5596 -55.82469 3.571815 0
138.7096 -55.77469 3.571815 0
136.7596 -52.77469 0.1218147 0
136.7596 -52.67469 0.1218147 0
136.8096 -52.72469 0.07181472 0
136.7596 -52.62469 0.1218147 0
136.8096 -52.52469 0.1218147 0
136.8596 -52.52469 0.07181472 0
136.8596 -52.47469 0.07181472 0
136.9096 -52.47469 0.1218147 0
137.0096 -52.72469 0.07181472 0
137.0096 -52.62469 0.07181472 0
136.9596 -52.47469 0.1218147 0
137.0596 -52.47469 0.07181472 0
136.7596 -52.42469 0.07181472 0
136.7596 -52.27469 0.1218147 0
136.8596 -52.32469 0.07181472 0
136.8096 -52.12469 0.1218147 0
136.8096 -52.07469 0.07181472 0
136.8596 -52.22469 0.07181472 0
136.9096 -52.22469 0.1218147 0
136.8596 -52.07469 0.07181472 0
137.0096 -52.42469 0.1218147 0
137.1096 -52.37469 0.07181472 0
137.1096 -52.37469 0.1218147 0
137.0096 -52.17469 0.1218147 0
137.1096 -52.22469 0.07181472 0
137.1096 -52.17469 0.1218147 0
136.8096 -52.02469 0.07181472 0
136.8096 -51.92469 0.1218147 0
136.8096 -51.87469 0.1218147 0
136.8596 -51.97469 0.07181472 0
136.8096 -51.77469 0.1218147 0
136.8096 -51.72469 0.1218147 0
136.8596 -51.82469 0.07181472 0
136.8596 -51.72469 0.07181472 0
136.8596 -51.72469 0.1218147 0
136.9096 -51.67469 0.1218147 0
137.1096 -51.72469 0.07181472 0
136.8096 -51.57469 0.07181472 0
136.8096 -51.47469 0.07181472 0
136.8596 -51.57469 0.07181472 0
136.8596 -51.57469 0.1218147 0
136.9096 -51.47469 0.07181472 0
136.8096 -51.37469 0.1218147 0
136.8096 -51.27469 0.1218147 0
136.8596 -51.37469 0.1218147 0
136.9096 -51.32469 0.07181472 0
136.9596 -51.62469 0.1218147 0
137.0096 -51.57469 0.1218147 0
137.0596 -51.52469 0.1218147 0
137.1096 -51.47469 0.1218147 0
135.6096 -50.27469 0.2718147 0
135.6096 -50.27469 0.3218147 0
135.5596 -50.27469 0.3718147 0
135.6596 -50.27469 0.2718147 0
135.6596 -50.27469 0.3218147 0
135.6596 -50.27469 0.3718147 0
135.6096 -50.17469 0.2718147 0
136.8596 -51.22469 0.1218147 0
136.8596 -51.17469 0.1218147 0
136.9096 -51.22469 0.07181472 0
136.8596 -51.07469 0.07181472 0
136.9096 -51.12469 0.07181472 0
136.9096 -51.12469 0.1218147 0
136.9096 -51.07469 0.07181472 0
136.8096 -50.97469 0.07181472 0
136.8596 -51.02469 0.1218147 0
136.9096 -51.02469 0.07181472 0
136.9096 -50.97469 0.07181472 0
136.8596 -50.87469 0.1218147 0
136.9096 -50.87469 0.07181472 0
137.0096 -51.02469 0.1218147 0
136.9596 -50.92469 0.07181472 0
137.0096 -50.92469 0.1218147 0
137.0096 -50.87469 0.1218147 0
136.8596 -50.82469 0.1218147 0
136.8596 -50.77469 0.07181472 0
136.9096 -50.82469 0.07181472 0
136.8596 -50.67469 0.07181472 0
136.8596 -50.67469 0.1218147 0
136.9096 -50.72469 0.07181472 0
136.9096 -50.67469 0.1218147 0
136.8596 -50.62469 0.07181472 0
136.8596 -50.57469 0.1218147 0
136.9096 -50.62469 0.1218147 0
136.9096 -50.57469 0.07181472 0
136.8596 -50.52469 0.07181472 0
136.8596 -50.52469 0.1218147 0
136.9096 -50.52469 0.1218147 0
136.9596 -50.82469 0.07181472 0
136.9596 -50.67469 0.07181472 0
137.0596 -50.82469 0.1218147 0
137.1096 -50.72469 0.1218147 0
136.9596 -50.57469 0.1718147 0
136.9596 -50.52469 0.1218147 0
136.9596 -50.47469 0.07181472 0
137.1096 -50.62469 0.1218147 0
137.0596 -50.52469 0.1218147 0
137.1096 -50.52469 0.1218147 0
136.8596 -50.42469 0.1218147 0
136.8596 -50.32469 0.1218147 0
136.8596 -50.27469 0.07181472 0
136.9096 -50.32469 0.1218147 0
136.8596 -50.22469 0.1218147 0
136.8596 -50.17469 0.07181472 0
136.8596 -50.17469 0.1218147 0
136.9096 -50.17469 0.1218147 0
136.8596 -50.12469 0.07181472 0
136.8596 -50.12469 0.1218147 0
136.9596 -50.37469 0.07181472 0
136.9596 -50.42469 0.1718147 0
136.9596 -50.32469 0.07181472 0
137.0096 -50.27469 0.1718147 0
137.1096 -50.42469 0.1218147 0
137.1096 -50.27469 0.1218147 0
136.9596 -50.22469 0.07181472 0
137.0096 -50.17469 0.07181472 0
136.9596 -50.12469 0.07181472 0
136.9596 -50.07469 0.07181472 0
137.0096 -50.12469 0.1718147 0
137.1096 -50.22469 0.1218147 0
137.1096 -50.17469 0.07181472 0
137.1096 -50.12469 0.1218147 0
136.8596 -50.02469 0.1218147 0
136.8596 -49.97469 0.1218147 0
136.9096 -49.97469 0.1218147 0
136.8596 -49.87469 0.07181472 0
136.8596 -49.82469 0.1218147 0
136.9096 -49.82469 0.07181472 0
136.9096 -49.67469 0.1218147 0
136.9596 -50.02469 0.07181472 0
136.9596 -49.97469 0.07181472 0
136.9596 -49.92469 0.07181472 0
137.0096 -49.87469 0.07181472 0
137.0096 -49.87469 0.1218147 0
137.0096 -49.92469 0.1718147 0
137.0596 -50.02469 0.07181472 0
137.0596 -50.02469 0.1218147 0
137.0596 -49.92469 0.07181472 0
137.0596 -49.92469 0.1218147 0
136.9596 -49.82469 0.1218147 0
137.0096 -49.77469 0.1218147 0
137.0096 -49.77469 0.1718147 0
136.9596 -49.72469 0.07181472 0
136.9596 -49.72469 0.1218147 0
136.9596 -49.67469 0.1218147 0
137.0596 -49.77469 0.07181472 0
137.0596 -49.72469 0.1218147 0
137.1596 -52.32469 0.1218147 0
137.2096 -52.27469 0.1218147 0
137.1596 -52.12469 0.07181472 0
137.2096 -52.12469 0.1218147 0
137.3096 -52.22469 0.1218147 0
137.3096 -52.07469 0.1218147 0
137.3596 -52.07469 0.1218147 0
137.4096 -52.12469 0.1218147 0
137.4096 -52.07469 0.07181472 0
137.1596 -51.97469 0.07181472 0
137.2096 -51.87469 0.07181472 0
137.2096 -51.72469 0.07181472 0
137.5096 -52.02469 0.07181472 0
137.5096 -52.02469 0.1218147 0
137.3596 -51.72469 0.07181472 0
137.4596 -51.72469 0.07181472 0
137.2596 -51.62469 0.07181472 0
137.2596 -51.47469 0.07181472 0
137.1596 -51.42469 0.1218147 0
137.2096 -51.37469 0.1218147 0
137.3096 -51.37469 0.07181472 0
137.2596 -51.32469 0.1218147 0
137.6096 -51.97469 0.07181472 0
137.6096 -51.92469 0.1218147 0
137.6596 -51.87469 0.1218147 0
137.7096 -51.92469 0.07181472 0
137.6096 -51.72469 0.07181472 0
137.7096 -51.82469 0.1218147 0
137.7096 -51.67469 0.07181472 0
137.8096 -51.87469 0.07181472 0
137.7596 -51.72469 0.1218147 0
137.8096 -51.67469 0.1218147 0
137.9096 -51.82469 0.07181472 0
137.8596 -51.67469 0.07181472 0
137.8096 -51.62469 0.1218147 0
137.8596 -51.57469 0.1218147 0
137.9096 -51.52469 0.1218147 0
137.9096 -51.42469 0.1218147 0
137.9596 -51.82469 0.07181472 0
138.0096 -51.77469 0.07181472 0
137.9596 -51.67469 0.07181472 0
138.1096 -51.67469 0.07181472 0
137.9596 -51.32469 0.1218147 0
138.0096 -51.27469 0.1218147 0
138.2096 -51.62469 0.07181472 0
138.3096 -51.57469 0.07181472 0
138.3596 -51.62469 0.07181472 0
138.3596 -51.52469 0.07181472 0
138.4596 -51.62469 0.07181472 0
138.4596 -51.47469 0.07181472 0
138.5096 -51.42469 0.07181472 0
138.6096 -51.57469 0.07181472 0
138.7096 -51.57469 0.07181472 0
138.5596 -51.37469 0.07181472 0
138.6096 -51.32469 0.07181472 0
138.6596 -51.27469 0.07181472 0
138.7096 -51.27469 0.07181472 0
137.2596 -51.22469 0.1218147 0
137.3096 -51.22469 0.07181472 0
137.3096 -51.17469 0.1218147 0
137.3596 -51.12469 0.07181472 0
137.3596 -51.12469 0.1218147 0
137.3596 -50.97469 0.07181472 0
137.4096 -51.02469 0.1218147 0
137.4096 -50.92469 0.1218147 0
137.4096 -50.87469 0.07181472 0
137.4096 -50.87469 0.1218147 0
137.1596 -50.47469 0.1218147 0
137.4096 -50.72469 0.07181472 0
137.4596 -50.82469 0.1218147 0
137.4596 -50.72469 0.1218147 0
137.4096 -50.62469 0.07181472 0
137.4096 -50.47469 0.07181472 0
137.5096 -50.62469 0.1218147 0
137.5096 -50.52469 0.1218147 0
137.1596 -50.42469 0.1218147 0
137.1596 -50.32469 0.1218147 0
137.2596 -50.42469 0.1218147 0
137.3096 -50.37469 0.1218147 0
137.2096 -50.12469 0.07181472 0
137.3096 -50.12469 0.07181472 0
137.4096 -50.37469 0.07181472 0
137.3596 -50.32469 0.1218147 0
137.4096 -50.27469 0.1218147 0
137.5096 -50.42469 0.1218147 0
137.5096 -50.32469 0.1218147 0
137.4096 -50.22469 0.07181472 0
137.4096 -50.12469 0.07181472 0
137.4096 -50.07469 0.07181472 0
137.4596 -50.22469 0.1218147 0
137.5096 -50.22469 0.1218147 0
137.4596 -50.12469 0.1218147 0
137.4596 -50.07469 0.07181472 0
137.4096 -49.92469 0.1218147 0
137.4596 -50.02469 0.1218147 0
137.4596 -49.97469 0.07181472 0
137.5096 -50.02469 0.07181472 0
137.4596 -49.87469 0.07181472 0
137.3596 -49.77469 0.1218147 0
137.4096 -49.82469 0.1218147 0
137.3596 -49.72469 0.1218147 0
137.4596 -49.72469 0.07181472 0
137.5596 -50.17469 0.1218147 0
137.6596 -50.12469 0.07181472 0
137.6096 -50.02469 0.07181472 0
137.7096 -50.02469 0.07181472 0
137.7596 -49.97469 0.07181472 0
137.8096 -49.87469 0.07181472 0
137.8596 -49.92469 0.07181472 0
137.9096 -49.87469 0.07181472 0
137.8596 -49.82469 0.07181472 0
137.9096 -49.77469 0.07181472 0
138.0096 -51.22469 0.1218147 0
138.0596 -51.12469 0.1218147 0
138.1096 -51.02469 0.1218147 0
138.1096 -50.97469 0.1218147 0
138.1096 -50.92469 0.1218147 0
138.1596 -50.87469 0.1218147 0
138.1596 -50.77469 0.1218147 0
138.1596 -50.67469 0.1218147 0
138.1596 -50.57469 0.1218147 0
138.1596 -50.47469 0.1218147 0
138.1596 -50.37469 0.1218147 0
138.1596 -50.27469 0.1218147 0
138.1596 -50.17469 0.1218147 0
138.1596 -50.07469 0.1218147 0
137.9596 -49.87469 0.07181472 0
138.1096 -50.02469 0.1218147 0
138.1096 -49.92469 0.1218147 0
137.9596 -49.72469 0.07181472 0
138.0096 -49.67469 0.07181472 0
138.0596 -49.82469 0.07181472 0
138.1096 -49.82469 0.1218147 0
138.1096 -49.77469 0.07181472 0
138.0596 -49.72469 0.1218147 0
138.0596 -49.67469 0.1218147 0
138.1596 -49.77469 0.07181472 0
138.2096 -49.72469 0.07181472 0
138.3096 -49.67469 0.07181472 0
139.2096 -56.67469 3.171815 0
139.3096 -56.62469 3.221815 0
139.3596 -56.72469 3.171815 0
139.4596 -56.72469 3.171815 0
139.4096 -56.62469 3.221815 0
139.4596 -56.62469 3.221815 0
139.6096 -57.07469 3.071815 0
139.8596 -57.02469 3.021815 0
139.8096 -56.92469 3.071815 0
140.1096 -56.87469 2.821815 0
140.0096 -56.87469 2.971815 0
139.8096 -56.17469 1.921815 0
139.7596 -56.07469 1.921815 0
139.8096 -56.07469 1.921815 0
139.9096 -56.17469 1.921815 0
140.1096 -56.37469 1.821815 0
139.9596 -56.17469 1.971815 0
140.0096 -56.22469 1.971815 0
140.0596 -56.17469 1.971815 0
140.1096 -56.17469 1.971815 0
140.2596 -56.32469 1.821815 0
140.3096 -56.12469 1.821815 0
140.1596 -56.17469 1.971815 0
140.1596 -56.12469 1.971815 0
140.2596 -56.17469 1.971815 0
140.3096 -56.07469 1.971815 0
139.6096 -56.67469 3.171815 0
139.7096 -56.72469 3.171815 0
139.6096 -56.57469 3.221815 0
139.5596 -56.52469 3.221815 0
139.7096 -56.62469 3.171815 0
139.9096 -56.77469 3.071815 0
139.8596 -56.67469 3.171815 0
139.7596 -56.57469 3.221815 0
139.8096 -56.57469 3.171815 0
139.7596 -56.47469 3.171815 0
139.8596 -56.52469 3.221815 0
139.9096 -56.47469 3.171815 0
140.2096 -56.72469 2.821815 0
140.2596 -56.62469 2.771815 0
140.3096 -56.57469 2.821815 0
140.0096 -56.67469 3.171815 0
140.0096 -56.62469 3.071815 0
139.9596 -56.47469 3.171815 0
140.0096 -56.47469 3.221815 0
140.1096 -56.52469 3.171815 0
140.1596 -56.67469 2.971815 0
140.1596 -56.47469 3.121815 0
139.9596 -56.37469 3.121815 0
140.0596 -56.27469 3.121815 0
140.1096 -56.32469 3.221815 0
140.1596 -56.42469 3.171815 0
140.2596 -56.37469 3.121815 0
140.2596 -56.27469 3.121815 0
140.1596 -56.17469 3.121815 0
140.2096 -56.22469 3.171815 0
140.2096 -56.07469 3.071815 0
140.3096 -56.07469 3.171815 0
140.3596 -56.32469 1.821815 0
140.5096 -56.37469 1.821815 0
140.5096 -56.27469 1.821815 0
140.3596 -56.12469 1.971815 0
140.4096 -56.07469 1.971815 0
140.4596 -56.12469 1.971815 0
140.5596 -56.22469 1.821815 0
140.6596 -56.22469 1.821815 0
140.7096 -56.17469 1.821815 0
140.5596 -56.07469 1.971815 0
140.5596 -56.07469 2.021815 0
140.8096 -56.32469 1.871815 0
140.7596 -56.17469 1.821815 0
140.9096 -56.17469 1.821815 0
140.9096 -56.07469 1.821815 0
141.0596 -56.12469 1.821815 0
141.1096 -56.07469 1.821815 0
140.3596 -56.47469 2.771815 0
140.4096 -56.42469 2.821815 0
140.4596 -56.32469 2.771815 0
140.5096 -56.27469 2.821815 0
140.5596 -56.17469 2.821815 0
140.5596 -56.12469 2.821815 0
140.3596 -56.32469 3.171815 0
140.3596 -56.22469 3.121815 0
140.3596 -56.12469 3.121815 0
140.5096 -56.07469 3.121815 0
140.5096 -56.12469 3.171815 0
141.1596 -56.07469 1.821815 0
141.3096 -56.07469 1.821815 0
141.1596 -56.22469 1.871815 0
141.4596 -56.12469 1.921815 0
138.8096 -56.07469 3.471815 0
139.4596 -56.52469 3.271815 0
139.1596 -56.07469 3.421815 0
139.3096 -56.07469 3.421815 0
139.4596 -56.57469 4.271815 0
139.3096 -56.42469 4.371815 0
139.3596 -56.42469 4.321815 0
139.3596 -56.27469 4.371815 0
139.5096 -56.37469 4.271815 0
139.4096 -56.22469 4.321815 0
139.4596 -56.12469 4.321815 0
139.4596 -56.07469 4.321815 0
139.6596 -56.42469 3.271815 0
139.7596 -56.42469 3.271815 0
139.8596 -56.32469 3.271815 0
139.9096 -56.27469 3.271815 0
139.9596 -56.17469 3.321815 0
139.9596 -56.12469 3.271815 0
139.6096 -56.22469 4.271815 0
140.1596 -57.37469 5.171815 0
141.9096 -59.17469 4.521815 0
141.8096 -58.87469 4.471815 0
141.8596 -58.47469 4.471815 0
141.3596 -58.42469 4.371815 0
141.8096 -58.42469 4.471815 0
141.8096 -58.22469 4.471815 0
141.1596 -59.22469 5.121815 0
141.2096 -59.02469 5.121815 0
141.2596 -59.02469 5.071815 0
141.3096 -58.82469 5.121815 0
141.3596 -58.82469 5.071815 0
141.4096 -58.67469 5.071815 0
141.3596 -58.62469 5.071815 0
141.1596 -58.27469 5.021815 0
141.2096 -58.32469 4.971815 0
141.1596 -58.07469 4.971815 0
141.2096 -58.12469 4.971815 0
141.2096 -57.92469 4.921815 0
141.1596 -57.87469 4.971815 0
141.2096 -57.67469 4.921815 0
140.6096 -56.12469 4.671815 0
140.8096 -56.17469 4.721815 0
141.0096 -56.27469 4.771815 0
140.9596 -56.17469 4.521815 0
141.2096 -56.32469 4.771815 0
141.4096 -56.32469 4.821815 0
141.4096 -56.22469 4.571815 0
141.6096 -56.27469 4.571815 0
141.6096 -56.42469 4.821815 0
141.8596 -56.32469 4.621815 0
141.2096 -57.47469 4.871815 0
141.8596 -56.47469 4.871815 0
142.3096 -56.47469 4.671815 0
142.1096 -56.37469 4.371815 0
142.0596 -56.42469 4.621815 0
142.4096 -56.62469 4.471815 0
142.6096 -56.92469 5.021815 0
142.0596 -56.52469 4.871815 0
142.2596 -56.62469 4.921815 0
138.8096 -55.72469 0.07181472 0
138.9596 -55.67469 0.07181472 0
139.0596 -55.67469 0.07181472 0
139.2096 -55.62469 0.07181472 0
139.3096 -55.62469 0.07181472 0
139.4596 -55.57469 0.07181472 0
139.5596 -55.52469 0.07181472 0
139.6596 -55.47469 0.07181472 0
139.8096 -55.47469 0.07181472 0
139.4596 -54.97469 2.421815 0
139.6096 -55.77469 2.071815 0
139.7596 -55.77469 2.121815 0
139.7596 -55.67469 2.171815 0
139.8596 -55.82469 2.121815 0
139.9096 -55.67469 2.171815 0
139.6596 -55.62469 2.121815 0
139.6596 -55.52469 2.171815 0
139.7596 -55.57469 2.221815 0
139.8596 -55.57469 2.171815 0
139.9096 -55.62469 2.221815 0
139.8596 -55.42469 2.171815 0
139.8596 -55.27469 2.371815 0
139.9596 -55.87469 2.021815 0
140.1096 -55.97469 2.021815 0
140.1096 -55.87469 2.171815 0
139.9596 -55.82469 2.171815 0
140.0096 -55.72469 2.221815 0
140.0096 -55.67469 2.171815 0
140.0596 -55.72469 2.221815 0
140.1596 -55.87469 2.171815 0
140.3096 -56.02469 2.071815 0
140.2596 -55.87469 2.221815 0
140.1596 -55.77469 2.221815 0
140.1596 -55.72469 2.171815 0
140.2096 -55.77469 2.271815 0
140.3096 -55.82469 2.271815 0
140.0596 -55.52469 2.221815 0
140.0096 -55.32469 2.421815 0
140.1096 -55.37469 2.421815 0
140.2596 -55.62469 2.221815 0
140.3096 -55.97469 3.071815 0
140.2096 -55.27469 2.521815 0
140.2596 -55.37469 2.471815 0
139.5596 -55.17469 2.321815 0
139.6596 -55.22469 2.321815 0
139.5596 -54.97469 2.421815 0
139.6096 -54.87469 2.421815 0
139.6596 -55.02469 2.421815 0
139.7096 -55.02469 2.371815 0
139.7596 -55.22469 2.371815 0
139.9096 -55.07469 2.421815 0
139.8596 -54.87469 2.321815 0
140.0596 -55.17469 2.421815 0
140.0596 -54.97469 2.371815 0
140.2096 -55.22469 2.421815 0
140.3096 -55.12469 2.371815 0
139.8096 -55.07469 2.471815 0
139.7596 -54.92469 2.471815 0
139.9096 -55.02469 2.471815 0
139.9596 -55.17469 2.471815 0
140.0596 -55.22469 2.521815 0
140.0596 -55.07469 2.521815 0
140.2596 -55.12469 2.521815 0
140.1596 -54.47469 3.221815 0
140.3096 -54.57469 3.221815 0
140.3096 -54.47469 3.171815 0
138.8096 -53.62469 0.1218147 0
138.9596 -53.62469 0.1218147 0
139.0596 -53.57469 0.1218147 0
138.7596 -53.02469 0.1218147 0
138.8096 -52.97469 0.1218147 0
138.8596 -52.87469 0.1218147 0
139.1596 -53.57469 0.1218147 0
139.3096 -53.52469 0.1218147 0
139.4096 -53.47469 0.1218147 0
139.5596 -53.42469 0.07181472 0
139.6596 -53.42469 0.07181472 0
139.8096 -53.37469 0.07181472 0
139.9096 -53.32469 0.07181472 0
139.7596 -54.32469 2.571815 0
139.9596 -54.32469 2.571815 0
140.1096 -54.32469 2.571815 0
140.2596 -54.32469 2.621815 0
140.2096 -54.42469 3.221815 0
140.3096 -54.32469 3.221815 0
140.3096 -54.27469 3.221815 0
140.2096 -54.12469 3.221815 0
140.2096 -54.07469 3.221815 0
140.1096 -53.92469 3.171815 0
140.1096 -53.87469 3.171815 0
139.9596 -53.67469 3.121815 0
140.0096 -53.67469 3.121815 0
140.5096 -56.02469 2.021815 0
140.5596 -56.02469 2.021815 0
140.6096 -56.02469 2.021815 0
140.6596 -55.97469 2.021815 0
140.7096 -56.02469 1.971815 0
140.7096 -55.97469 2.021815 0
140.3596 -55.87469 2.221815 0
140.4596 -56.02469 2.071815 0
140.3596 -55.82469 2.221815 0
140.4096 -55.82469 2.221815 0
140.5096 -55.82469 2.221815 0
140.5096 -55.77469 2.221815 0
140.4596 -55.72469 2.221815 0
140.3596 -55.77469 2.271815 0
140.4096 -55.82469 2.271815 0
140.4596 -55.77469 2.271815 0
140.6096 -55.97469 2.071815 0
140.5596 -55.92469 2.221815 0
140.6596 -55.87469 2.221815 0
140.6096 -55.82469 2.221815 0
140.6096 -55.72469 2.221815 0
140.6596 -55.72469 2.221815 0
140.7096 -55.72469 2.221815 0
140.5596 -55.77469 2.271815 0
140.5596 -55.72469 2.271815 0
140.6596 -55.72469 2.271815 0
140.7596 -55.97469 2.021815 0
140.8096 -56.02469 1.971815 0
140.8096 -55.97469 2.021815 0
140.8096 -55.92469 2.021815 0
140.9096 -55.97469 1.971815 0
140.9096 -55.97469 2.021815 0
140.9096 -55.92469 2.021815 0
140.9596 -55.87469 2.021815 0
141.0096 -55.92469 1.971815 0
141.0096 -55.92469 2.021815 0
141.1096 -55.87469 2.021815 0
140.7596 -55.97469 2.071815 0
140.9096 -55.92469 2.071815 0
140.7596 -55.77469 2.221815 0
140.8096 -55.82469 2.221815 0
140.8096 -55.67469 2.221815 0
140.9096 -55.77469 2.221815 0
140.8596 -55.72469 2.221815 0
140.7596 -55.72469 2.271815 0
140.7596 -55.67469 2.271815 0
140.8096 -55.67469 2.271815 0
140.8596 -55.67469 2.271815 0
140.9096 -55.67469 2.271815 0
141.0096 -55.72469 2.221815 0
141.1096 -55.82469 2.071815 0
141.0596 -55.72469 2.271815 0
140.9096 -55.42469 2.021815 0
140.8596 -55.62469 2.271815 0
140.9096 -55.27469 2.221815 0
140.7596 -55.32469 2.421815 0
141.0096 -55.62469 2.221815 0
140.9596 -55.62469 2.271815 0
141.0096 -55.62469 2.271815 0
141.0096 -55.62469 2.321815 0
141.0096 -55.32469 2.221815 0
141.0596 -55.32469 2.221815 0
141.1096 -55.32469 2.171815 0
140.9596 -55.42469 2.421815 0
141.0596 -55.32469 2.271815 0
140.6096 -56.02469 2.771815 0
140.6596 -55.92469 2.821815 0
140.6596 -55.87469 2.771815 0
140.7096 -55.77469 2.821815 0
140.7096 -55.67469 2.771815 0
140.4096 -56.02469 3.171815 0
140.4096 -55.92469 3.071815 0
140.4596 -55.92469 3.121815 0
140.5096 -55.87469 3.121815 0
140.4596 -55.82469 3.071815 0
140.6096 -55.92469 3.071815 0
140.6596 -55.92469 3.121815 0
140.5596 -55.72469 3.021815 0
140.5596 -55.77469 3.121815 0
140.6096 -55.77469 3.121815 0
140.7096 -55.82469 3.071815 0
140.5096 -55.47469 2.521815 0
140.3596 -55.42469 2.471815 0
140.3596 -55.32469 2.521815 0
140.4096 -55.32469 2.471815 0
140.5096 -55.37469 2.571815 0
140.6096 -55.47469 2.521815 0
140.7096 -55.47469 2.521815 0
140.6096 -55.42469 2.471815 0
140.6096 -55.37469 2.571815 0
140.5596 -55.27469 2.571815 0
140.7096 -55.32469 2.571815 0
140.6096 -55.62469 3.021815 0
140.7096 -55.47469 2.971815 0
140.7096 -55.62469 3.071815 0
140.7096 -55.62469 3.121815 0
140.9096 -55.67469 2.821815 0
140.7596 -55.47469 2.521815 0
140.8096 -55.42469 2.521815 0
140.7596 -55.37469 2.571815 0
140.9096 -55.42469 2.521815 0
140.8596 -55.37469 2.571815 0
140.8596 -55.32469 2.621815 0
141.1096 -55.57469 2.521815 0
140.9596 -55.57469 2.821815 0
141.0096 -55.52469 2.821815 0
140.9596 -55.37469 2.571815 0
140.9596 -55.27469 2.621815 0
141.0096 -55.32469 2.621815 0
141.0596 -55.37469 2.521815 0
141.1096 -55.32469 2.571815 0
140.8596 -55.62469 3.021815 0
140.8096 -55.52469 3.071815 0
140.7596 -55.37469 2.971815 0
140.8096 -55.42469 3.121815 0
140.9096 -55.27469 3.171815 0
140.5096 -55.22469 2.371815 0
140.6596 -55.22469 2.121815 0
140.6596 -54.72469 2.121815 0
140.6096 -54.52469 2.421815 0
140.8596 -55.17469 2.221815 0
140.8596 -55.07469 2.221815 0
140.8096 -54.97469 2.221815 0
140.8096 -54.87469 2.221815 0
140.9596 -55.22469 2.171815 0
140.7596 -54.77469 2.171815 0
140.8096 -54.67469 2.171815 0
140.7596 -54.57469 2.171815 0
140.8596 -54.52469 2.171815 0
140.8096 -54.57469 2.371815 0
140.8096 -54.57469 2.421815 0
140.9596 -54.62469 2.421815 0
141.0596 -54.52469 2.371815 0
140.4096 -55.22469 2.571815 0
140.4096 -54.52469 2.721815 0
140.5596 -54.57469 2.771815 0
140.6096 -54.52469 2.821815 0
140.5096 -54.57469 2.871815 0
140.5096 -54.57469 3.171815 0
140.7096 -54.62469 2.871815 0
140.7096 -54.47469 2.921815 0
140.7096 -54.57469 3.071815 0
140.7096 -54.62469 3.221815 0
140.8596 -55.02469 3.121815 0
140.7596 -54.67469 2.821815 0
140.7596 -54.52469 2.471815 0
140.7596 -54.57469 2.821815 0
140.9596 -54.67469 2.471815 0
141.1096 -54.72469 2.521815 0
141.1096 -54.67469 2.521815 0
140.9596 -54.57469 2.471815 0
140.9096 -54.77469 2.871815 0
140.8596 -54.67469 2.921815 0
140.8096 -54.82469 3.121815 0
140.9096 -54.57469 2.921815 0
141.0096 -54.77469 2.921815 0
140.9596 -54.67469 2.871815 0
141.0596 -54.82469 2.871815 0
141.1096 -54.72469 2.871815 0
141.3096 -56.02469 1.821815 0
141.1596 -55.92469 1.971815 0
141.2096 -55.87469 2.021815 0
141.2596 -55.87469 1.971815 0
141.3096 -55.82469 2.021815 0
141.4596 -56.02469 1.821815 0
141.5096 -55.92469 1.821815 0
141.3596 -55.87469 1.971815 0
141.4096 -55.77469 2.021815 0
141.5096 -55.82469 1.971815 0
141.2096 -55.82469 2.071815 0
141.2096 -55.77469 2.071815 0
141.3096 -55.72469 2.071815 0
141.2096 -55.67469 2.271815 0
141.3596 -55.77469 2.071815 0
141.4096 -55.72469 2.071815 0
141.5096 -55.77469 2.071815 0
141.4596 -55.67469 2.071815 0
141.5096 -55.72469 2.071815 0
141.2596 -55.62469 2.271815 0
141.3096 -55.37469 2.221815 0
141.1596 -55.37469 2.271815 0
141.1596 -55.42469 2.421815 0
141.2096 -55.32469 2.271815 0
141.2596 -55.37469 2.271815 0
141.3096 -55.42469 2.271815 0
141.5096 -55.47469 2.221815 0
141.4596 -55.32469 2.221815 0
141.3596 -55.37469 2.271815 0
141.4096 -55.42469 2.321815 0
141.3596 -55.37469 2.421815 0
141.4596 -55.42469 2.321815 0
141.5096 -55.42469 2.321815 0
141.5596 -55.97469 1.821815 0
141.7096 -55.92469 1.821815 0
141.7096 -55.87469 1.821815 0
141.6096 -55.77469 1.971815 0
141.7096 -55.77469 1.971815 0
141.8596 -55.87469 1.871815 0
141.9096 -55.82469 1.821815 0
141.9096 -55.82469 1.871815 0
141.8596 -55.72469 2.021815 0
141.5596 -55.67469 2.121815 0
141.6096 -55.72469 2.071815 0
141.6596 -55.67469 2.071815 0
141.7096 -55.72469 2.071815 0
141.8096 -55.67469 2.071815 0
141.6596 -55.62469 2.121815 0
141.6596 -55.52469 2.221815 0
141.5596 -55.47469 2.321815 0
141.6596 -55.42469 2.221815 0
141.5596 -55.42469 2.321815 0
141.6096 -55.42469 2.321815 0
141.6096 -55.37469 2.371815 0
141.6596 -55.42469 2.321815 0
141.7096 -55.37469 2.321815 0
141.7096 -55.32469 2.371815 0
141.7596 -55.57469 2.121815 0
141.8096 -55.52469 2.121815 0
141.9096 -55.62469 2.071815 0
141.8096 -55.47469 2.271815 0
141.8096 -55.42469 2.221815 0
141.7596 -55.42469 2.321815 0
141.9096 -55.42469 2.271815 0
141.8596 -55.32469 2.371815 0
141.9096 -55.27469 2.421815 0
141.1596 -56.02469 2.521815 0
141.2596 -55.27469 2.571815 0
141.3596 -55.42469 2.571815 0
141.6096 -55.37469 2.921815 0
141.2096 -55.22469 2.221815 0
141.5096 -55.02469 2.271815 0
141.5096 -54.57469 1.671815 0
141.2596 -54.62469 2.421815 0
141.3096 -54.52469 2.321815 0
141.3096 -54.52469 2.421815 0
141.5096 -54.57469 2.321815 0
141.6596 -55.02469 2.271815 0
141.6596 -54.87469 2.271815 0
141.8096 -55.07469 2.321815 0
141.8096 -55.02469 2.271815 0
141.8596 -54.92469 2.321815 0
141.4596 -54.92469 2.571815 0
141.2096 -54.92469 2.921815 0
141.4096 -54.97469 2.971815 0
141.3596 -54.92469 3.021815 0
141.1596 -54.72469 2.471815 0
141.3096 -54.82469 2.521815 0
141.2596 -54.72469 2.471815 0
141.2596 -54.72469 2.521815 0
141.3096 -54.62469 2.471815 0
141.4596 -54.82469 2.571815 0
141.4096 -54.47469 2.571815 0
141.2096 -54.82469 2.971815 0
141.1596 -54.67469 2.971815 0
141.6596 -54.87469 2.571815 0
141.7096 -55.07469 3.021815 0
141.6596 -55.22469 3.071815 0
141.5596 -54.97469 3.021815 0
141.5596 -54.82469 2.571815 0
141.6096 -54.67469 2.571815 0
141.6596 -54.57469 2.521815 0
141.6596 -54.47469 2.571815 0
141.7596 -54.77469 2.571815 0
141.8096 -54.62469 2.571815 0
141.8596 -54.52469 2.571815 0
141.1096 -53.92469 1.471815 0
140.9596 -53.67469 1.421815 0
140.9596 -53.67469 1.471815 0
141.0596 -53.82469 1.521815 0
141.1096 -53.82469 1.621815 0
140.9096 -53.57469 1.471815 0
140.9096 -53.52469 1.471815 0
141.1096 -53.47469 1.621815 0
141.0596 -53.12469 1.621815 0
141.2096 -54.12469 1.571815 0
141.1596 -53.97469 1.571815 0
141.2096 -54.02469 1.621815 0
141.1596 -53.87469 1.621815 0
141.1596 -53.72469 1.621815 0
141.4096 -54.02469 1.421815 0
141.5096 -53.97469 1.521815 0
141.5596 -54.07469 1.421815 0
141.8096 -54.42469 1.571815 0
141.6596 -53.97469 1.521815 0
141.6596 -53.87469 1.621815 0
141.5596 -53.72469 1.521815 0
141.5596 -53.72469 1.621815 0
141.7596 -54.02469 1.521815 0
141.7596 -53.87469 1.621815 0
141.9096 -54.02469 1.571815 0
141.9096 -53.87469 1.621815 0
141.7596 -53.82469 1.571815 0
141.7596 -53.82469 1.621815 0
141.1596 -53.62469 1.621815 0
141.2096 -53.57469 1.571815 0
141.1596 -53.52469 1.621815 0
141.3096 -53.47469 1.621815 0
141.2096 -53.37469 1.621815 0
141.1596 -53.27469 1.621815 0
141.4596 -52.97469 1.621815 0
141.5596 -53.57469 1.621815 0
140.8096 -54.42469 2.171815 0
140.8596 -54.42469 2.371815 0
140.3596 -54.32469 2.521815 0
140.4596 -54.32469 2.621815 0
140.5596 -54.37469 2.521815 0
140.6096 -54.32469 2.621815 0
140.5096 -54.32469 3.071815 0
140.4096 -54.07469 3.021815 0
140.7096 -54.17469 3.121815 0
140.7596 -54.37469 2.521815 0
140.7596 -54.32469 2.621815 0
141.0096 -54.42469 2.521815 0
140.9596 -54.32469 2.621815 0
141.1096 -54.32469 2.621815 0
140.9596 -53.97469 2.721815 0
141.0596 -53.87469 2.671815 0
141.0596 -53.77469 2.721815 0
141.0596 -53.62469 1.721815 0
141.1096 -53.62469 1.671815 0
141.0596 -53.52469 1.721815 0
141.0596 -53.42469 1.721815 0
141.1096 -53.32469 1.671815 0
140.6596 -53.47469 3.021815 0
140.6096 -53.42469 3.071815 0
140.8096 -53.47469 3.021815 0
140.9096 -53.47469 3.021815 0
140.8096 -53.42469 2.971815 0
140.7596 -53.42469 3.071815 0
140.9096 -53.42469 3.071815 0
140.9096 -53.27469 3.071815 0
140.9596 -53.47469 3.021815 0
141.0596 -53.47469 3.071815 0
141.0596 -53.42469 3.121815 0
141.1096 -53.32469 3.071815 0
141.3096 -54.22469 1.671815 0
141.2596 -54.07469 1.671815 0
141.4096 -54.42469 1.671815 0
141.3596 -54.32469 1.671815 0
141.4596 -54.32469 1.771815 0
141.5096 -54.32469 1.821815 0
141.3596 -54.07469 1.821815 0
141.4096 -54.22469 1.871815 0
141.4096 -54.17469 1.871815 0
141.3096 -54.42469 2.371815 0
141.3596 -54.42469 2.421815 0
141.4096 -54.37469 2.421815 0
141.4096 -54.27469 2.371815 0
141.4596 -54.07469 2.121815 0
141.4596 -54.17469 2.371815 0
141.4596 -54.12469 2.421815 0
141.3096 -53.97469 1.771815 0
141.2596 -53.92469 1.821815 0
141.3096 -53.92469 1.871815 0
141.1596 -53.82469 1.771815 0
141.1596 -53.72469 1.721815 0
141.2596 -53.82469 2.021815 0
141.3096 -53.77469 2.021815 0
141.3096 -53.67469 1.971815 0
141.3596 -53.72469 1.871815 0
141.4596 -53.72469 1.971815 0
141.3596 -53.92469 2.071815 0
141.4596 -54.02469 2.071815 0
141.5596 -54.42469 1.871815 0
141.5596 -54.42469 1.921815 0
141.6596 -54.42469 2.271815 0
141.6596 -54.37469 2.321815 0
141.7096 -54.32469 2.271815 0
141.5596 -54.22469 2.171815 0
141.6096 -54.17469 2.421815 0
141.7096 -54.17469 2.421815 0
141.7096 -54.12469 2.271815 0
141.7596 -54.27469 2.271815 0
141.8096 -54.17469 2.371815 0
141.7596 -54.07469 2.271815 0
141.6596 -53.77469 1.721815 0
141.7096 -53.72469 1.771815 0
141.8596 -53.92469 1.821815 0
141.8096 -53.77469 1.721815 0
141.8596 -53.72469 1.821815 0
141.7096 -53.97469 2.271815 0
141.7096 -53.77469 2.271815 0
141.7596 -53.87469 2.271815 0
141.9096 -53.87469 2.421815 0
141.7596 -53.72469 2.271815 0
141.9096 -53.77469 2.421815 0
141.8596 -53.72469 2.371815 0
141.2096 -54.42469 2.571815 0
141.2596 -54.32469 2.621815 0
141.4596 -54.32469 2.621815 0
141.2596 -54.27469 2.921815 0
141.1596 -53.87469 2.671815 0
141.3096 -53.87469 2.721815 0
141.2096 -53.77469 2.721815 0
141.2096 -53.77469 2.771815 0
141.4596 -53.87469 2.571815 0
141.4096 -53.87469 2.721815 0
141.5096 -53.87469 2.721815 0
141.3596 -53.77469 2.721815 0
141.3596 -53.77469 2.771815 0
141.4596 -53.77469 2.771815 0
141.5096 -53.77469 2.771815 0
141.6096 -54.12469 2.471815 0
141.7096 -54.17469 2.471815 0
141.6596 -54.07469 2.471815 0
141.8096 -54.12469 2.471815 0
141.8596 -54.17469 2.471815 0
141.9096 -54.12469 2.471815 0
141.6096 -53.87469 2.571815 0
141.6596 -53.87469 2.771815 0
141.6096 -53.77469 2.771815 0
141.6596 -53.77469 2.771815 0
141.8096 -53.92469 2.621815 0
141.9096 -53.87469 2.471815 0
141.8096 -53.87469 2.771815 0
141.7596 -53.77469 2.821815 0
141.8096 -53.82469 2.771815 0
141.9096 -53.82469 2.821815 0
141.8596 -53.67469 2.771815 0
141.1596 -53.57469 1.671815 0
141.1596 -53.47469 1.671815 0
141.2096 -53.62469 1.971815 0
141.2096 -53.52469 1.971815 0
141.2096 -53.47469 1.971815 0
141.3096 -53.62469 1.971815 0
141.3096 -53.57469 1.971815 0
141.3096 -53.47469 1.971815 0
141.1596 -53.37469 1.671815 0
141.2596 -53.32469 1.721815 0
141.2096 -53.32469 1.921815 0
141.2596 -53.37469 1.971815 0
141.3096 -53.32469 1.921815 0
141.4096 -53.57469 1.821815 0
141.4596 -53.62469 1.671815 0
141.3596 -53.52469 1.871815 0
141.3596 -53.47469 1.971815 0
141.4596 -53.52469 1.971815 0
141.4096 -53.27469 1.771815 0
141.3596 -53.27469 1.921815 0
141.5096 -53.37469 1.871815 0
141.4596 -53.27469 1.921815 0
141.1596 -53.17469 1.671815 0
141.2596 -53.22469 1.921815 0
141.2596 -53.12469 1.921815 0
141.3096 -53.12469 1.921815 0
141.2096 -52.87469 1.821815 0
141.2096 -52.87469 1.871815 0
141.3096 -52.97469 1.921815 0
141.3596 -53.12469 1.821815 0
141.4596 -53.12469 1.771815 0
141.3596 -53.22469 1.921815 0
141.3596 -53.17469 1.921815 0
141.5096 -53.22469 1.971815 0
141.4596 -53.12469 1.971815 0
141.5096 -52.87469 1.671815 0
141.8096 -53.52469 1.821815 0
141.7596 -53.42469 2.021815 0
141.7096 -53.57469 2.271815 0
141.7096 -53.42469 2.271815 0
141.6596 -53.32469 2.271815 0
141.7596 -53.52469 2.271815 0
141.7596 -53.52469 2.321815 0
141.8096 -53.47469 2.371815 0
141.8596 -53.57469 2.271815 0
141.5596 -53.17469 1.971815 0
141.6596 -53.22469 1.921815 0
141.8596 -53.22469 2.021815 0
141.9096 -52.87469 1.971815 0
141.6096 -53.17469 2.221815 0
141.5596 -53.02469 2.221815 0
141.2096 -53.57469 2.821815 0
141.4096 -53.57469 2.821815 0
141.1596 -53.47469 3.021815 0
141.3096 -53.47469 3.021815 0
141.2096 -53.47469 3.071815 0
141.3096 -53.52469 3.071815 0
141.2096 -53.42469 3.121815 0
141.3096 -53.32469 3.071815 0
141.4596 -53.47469 3.021815 0
141.4596 -53.47469 3.121815 0
141.3596 -53.42469 3.121815 0
141.5096 -53.42469 3.121815 0
141.6096 -53.62469 2.821815 0
141.7096 -53.62469 2.721815 0
141.7596 -53.62469 2.821815 0
141.8596 -53.47469 2.771815 0
141.5596 -53.52469 3.121815 0
141.6596 -53.47469 3.071815 0
141.6596 -53.47469 3.171815 0
141.7096 -53.52469 3.171815 0
141.5596 -53.32469 3.071815 0
141.8096 -53.52469 3.071815 0
141.8096 -53.47469 3.171815 0
141.8596 -53.47469 3.171815 0
141.7596 -53.32469 3.071815 0
138.7596 -55.77469 3.571815 0
138.9096 -55.67469 3.621815 0
139.0096 -55.92469 3.521815 0
139.0596 -55.97469 3.521815 0
139.0596 -55.92469 3.521815 0
138.8596 -55.62469 3.621815 0
138.9096 -55.52469 3.571815 0
138.7596 -55.42469 3.571815 0
138.8596 -55.32469 3.571815 0
139.1596 -55.92469 3.471815 0
139.2096 -55.92469 3.521815 0
139.3096 -55.92469 3.521815 0
139.3096 -55.87469 3.521815 0
139.2096 -55.82469 3.571815 0
139.3096 -55.67469 3.571815 0
139.5096 -56.02469 3.421815 0
139.4096 -55.87469 3.521815 0
139.4596 -55.82469 3.521815 0
139.2596 -55.47469 3.521815 0
139.2096 -55.62469 3.921815 0
139.3096 -55.47469 3.921815 0
139.5096 -55.62469 3.721815 0
139.4096 -55.27469 3.971815 0
139.5096 -55.37469 3.921815 0
