# .PCD v0.7 - Point Cloud Data file format
VERSION 0.7
FIELDS x y z intensity
SIZE 4 4 4 4
TYPE F F F F
COUNT 1 1 1 1
WIDTH 1577
HEIGHT 1
VIEWPOINT 0 0 0 1 0 0 0
POINTS 1577
DATA ascii
111.6596 -35.92469 1.671815 0
111.7096 -35.87469 1.821815 0
111.5596 -35.77469 1.671815 0
111.6096 -35.77469 1.721815 0
111.6596 -35.82469 1.671815 0
111.6596 -35.77469 1.721815 0
111.6596 -35.82469 1.821815 0
111.6596 -35.67469 1.671815 0
111.7596 -35.92469 1.771815 0
111.8096 -35.97469 1.871815 0
111.8096 -35.97469 2.021815 0
111.8596 -36.02469 2.021815 0
111.8596 -35.92469 1.871815 0
111.8596 -35.92469 2.021815 0
111.7596 -35.82469 1.671815 0
111.7596 -35.82469 1.771815 0
111.8096 -35.77469 1.821815 0
111.7596 -35.67469 1.721815 0
111.8096 -35.67469 1.721815 0
111.8596 -35.77469 1.771815 0
111.8596 -35.72469 1.771815 0
111.8596 -35.67469 1.821815 0
111.9096 -35.82469 1.871815 0
111.9096 -35.82469 2.021815 0
111.7096 -35.77469 2.221815 0
111.9096 -36.02469 2.071815 0
111.8596 -35.92469 2.071815 0
111.6596 -35.62469 1.671815 0
111.7096 -35.62469 1.721815 0
111.7096 -35.57469 1.671815 0
111.8096 -35.62469 1.721815 0
111.8096 -35.57469 1.721815 0
111.7596 -35.62469 1.771815 0
111.7596 -35.47469 1.671815 0
111.8096 -35.47469 1.671815 0
111.9096 -35.57469 1.671815 0
111.9096 -35.57469 1.721815 0
111.9096 -35.47469 1.671815 0
111.8596 -35.37469 1.671815 0
111.9096 -35.42469 1.721815 0
111.9096 -35.37469 1.671815 0
111.9096 -35.32469 1.671815 0
111.9596 -35.82469 1.921815 0
111.9596 -35.77469 1.871815 0
112.0096 -35.72469 1.871815 0
112.0096 -35.67469 1.921815 0
111.9596 -35.72469 2.021815 0
111.9596 -35.97469 2.071815 0
111.9596 -35.87469 2.071815 0
112.1096 -35.87469 2.321815 0
112.0596 -35.77469 2.071815 0
112.1096 -35.67469 2.071815 0
112.0596 -35.72469 2.321815 0
112.2096 -36.02469 2.171815 0
112.1596 -35.87469 2.171815 0
112.1596 -35.67469 2.121815 0
112.2096 -35.72469 2.171815 0
112.2596 -35.67469 2.421815 0
111.9596 -35.57469 1.821815 0
112.0096 -35.62469 1.821815 0
112.0096 -35.57469 1.821815 0
111.9596 -35.47469 1.721815 0
112.0096 -35.47469 1.821815 0
112.1096 -35.47469 1.821815 0
112.0596 -35.62469 1.921815 0
112.1096 -35.57469 1.921815 0
112.0596 -35.62469 2.021815 0
112.0596 -35.57469 2.021815 0
112.1096 -35.62469 2.021815 0
112.1096 -35.52469 1.971815 0
111.9596 -35.42469 1.671815 0
112.0096 -35.37469 1.671815 0
112.0096 -35.37469 1.721815 0
112.0596 -35.42469 1.721815 0
112.0596 -35.37469 1.721815 0
112.1096 -35.42469 1.821815 0
112.1096 -35.37469 1.771815 0
112.1096 -35.37469 1.821815 0
112.0596 -35.32469 1.671815 0
112.1596 -35.57469 1.871815 0
112.2096 -35.47469 1.921815 0
112.3096 -35.62469 2.021815 0
112.2096 -35.37469 1.821815 0
112.1596 -35.27469 1.721815 0
112.2096 -35.32469 1.721815 0
112.2096 -35.32469 1.821815 0
112.2096 -35.27469 1.771815 0
112.3096 -35.37469 1.921815 0
112.3096 -35.32469 1.921815 0
112.0096 -35.57469 2.321815 0
112.2096 -35.57469 2.071815 0
111.8596 -35.52469 2.771815 0
111.7596 -35.37469 2.771815 0
111.9596 -35.92469 2.721815 0
112.1596 -35.92469 2.771815 0
112.0096 -35.57469 2.771815 0
111.9596 -35.47469 2.771815 0
112.1096 -35.47469 2.721815 0
111.9596 -35.42469 2.721815 0
112.1596 -35.47469 2.721815 0
112.3096 -35.52469 2.721815 0
112.2096 -35.32469 2.721815 0
112.5096 -36.62469 2.271815 0
112.5096 -36.52469 2.271815 0
112.5596 -36.72469 2.271815 0
112.6596 -36.82469 2.321815 0
112.5096 -36.42469 2.271815 0
112.5096 -36.32469 2.271815 0
113.0596 -36.82469 1.971815 0
112.9596 -36.72469 2.371815 0
112.5096 -36.47469 2.971815 0
112.6096 -36.57469 2.971815 0
113.1096 -36.17469 2.621815 0
113.1096 -36.07469 2.621815 0
113.0096 -36.12469 2.671815 0
113.1096 -36.22469 2.671815 0
112.4596 -35.87469 2.271815 0
112.4096 -35.67469 2.121815 0
112.4096 -35.67469 2.171815 0
112.7096 -35.87469 2.271815 0
112.6596 -35.67469 2.121815 0
112.7096 -35.67469 2.071815 0
112.4596 -35.52469 2.021815 0
112.3596 -35.32469 1.721815 0
112.3596 -35.32469 1.821815 0
112.4096 -35.42469 1.971815 0
112.5096 -35.37469 1.871815 0
112.5596 -35.62469 1.971815 0
112.6096 -35.52469 2.021815 0
112.5596 -35.37469 1.721815 0
112.5596 -35.32469 1.771815 0
112.7096 -35.37469 1.871815 0
113.0096 -35.67469 2.021815 0
112.9096 -35.87469 2.221815 0
112.8096 -35.67469 2.121815 0
112.9596 -35.72469 2.121815 0
113.0596 -35.67469 2.071815 0
113.1096 -35.72469 2.121815 0
112.7596 -35.62469 1.971815 0
112.7596 -35.52469 1.971815 0
112.8596 -35.52469 2.021815 0
112.9096 -35.37469 1.871815 0
112.9596 -35.62469 1.971815 0
113.0096 -35.52469 1.971815 0
113.0596 -35.47469 1.921815 0
113.1096 -35.37469 1.821815 0
112.7596 -35.62469 2.071815 0
112.9096 -35.62469 2.071815 0
112.4096 -35.87469 2.771815 0
112.3596 -35.47469 2.721815 0
112.5096 -35.47469 2.721815 0
112.3596 -35.42469 2.721815 0
112.6096 -35.47469 2.621815 0
112.5596 -35.47469 2.671815 0
112.6596 -35.52469 2.721815 0
113.1096 -35.97469 2.621815 0
113.0596 -35.87469 2.621815 0
113.0096 -35.97469 2.671815 0
113.0096 -35.67469 2.621815 0
113.0596 -35.77469 2.621815 0
113.0596 -35.67469 2.621815 0
113.0096 -35.82469 2.671815 0
113.0096 -35.67469 2.671815 0
113.1096 -35.82469 2.671815 0
112.7596 -35.52469 2.621815 0
112.8096 -35.57469 2.671815 0
113.0096 -35.57469 2.621815 0
112.9596 -35.52469 2.621815 0
112.9596 -35.47469 2.621815 0
113.1096 -35.47469 2.521815 0
113.1096 -35.37469 2.521815 0
113.0596 -35.27469 2.521815 0
113.1096 -35.32469 2.521815 0
111.9596 -35.22469 1.621815 0
112.0096 -35.12469 1.621815 0
112.1096 -35.22469 1.571815 0
112.1096 -35.02469 1.471815 0
112.0596 -35.02469 1.621815 0
112.1096 -35.02469 1.621815 0
112.2096 -35.07469 1.571815 0
112.2096 -34.92469 1.471815 0
112.3096 -34.97469 1.571815 0
112.3096 -34.82469 1.471815 0
111.6096 -34.07469 0.1718147 0
111.9096 -34.07469 0.07181472 0
111.9096 -34.07469 0.6718147 0
111.6096 -34.02469 0.07181472 0
111.6096 -34.02469 0.1218147 0
111.5596 -34.02469 0.1718147 0
111.5596 -33.97469 0.2218147 0
111.6096 -34.02469 0.1718147 0
111.7096 -34.02469 0.07181472 0
111.6596 -34.02469 0.1718147 0
111.6596 -33.97469 0.1718147 0
111.7096 -34.02469 0.1718147 0
111.6096 -33.77469 0.07181472 0
111.7596 -34.02469 0.07181472 0
111.7596 -34.02469 0.1218147 0
111.7596 -34.02469 0.1718147 0
111.7596 -34.02469 0.2218147 0
111.7596 -33.97469 0.2218147 0
111.8096 -34.02469 0.1718147 0
111.8096 -33.97469 0.1718147 0
111.8596 -34.02469 0.1718147 0
111.8596 -33.97469 0.1718147 0
111.9096 -34.02469 0.1718147 0
111.9096 -33.97469 0.2218147 0
111.9096 -33.87469 0.1218147 0
111.7596 -33.77469 0.07181472 0
111.8596 -33.82469 0.07181472 0
111.6096 -34.02469 0.6218147 0
111.5596 -34.02469 0.7218148 0
111.6096 -34.02469 0.6718147 0
111.6096 -34.02469 0.7218148 0
111.6096 -33.97469 0.7218148 0
111.5596 -33.97469 0.7718147 0
111.6096 -33.92469 0.7218148 0
111.6096 -33.87469 0.7718147 0
111.6596 -34.02469 0.6718147 0
111.6596 -33.97469 0.7218148 0
111.7096 -34.02469 0.6718147 0
111.7096 -34.02469 0.7218148 0
111.7096 -33.92469 0.7718147 0
111.5596 -33.77469 0.5718147 0
111.6096 -33.77469 0.5718147 0
111.7096 -33.77469 0.5718147 0
111.8096 -34.02469 0.6218147 0
111.9096 -33.87469 0.5218147 0
111.7596 -34.02469 0.6718147 0
111.7596 -33.97469 0.7218148 0
111.8096 -34.02469 0.6718147 0
111.8096 -34.02469 0.7218148 0
111.8096 -33.97469 0.7218148 0
111.7596 -33.97469 0.7718147 0
111.8096 -33.87469 0.7718147 0
111.8596 -34.02469 0.6718147 0
111.8596 -34.02469 0.7218148 0
111.9096 -34.02469 0.6718147 0
111.9096 -34.02469 0.7218148 0
111.9096 -33.97469 0.7718147 0
111.8096 -33.82469 0.5718147 0
111.8096 -33.77469 0.5718147 0
111.8596 -33.82469 0.5718147 0
111.9596 -34.07469 0.07181472 0
111.9596 -34.07469 0.1218147 0
111.9596 -34.07469 0.1718147 0
112.0096 -34.07469 0.1718147 0
112.1096 -34.07469 0.1218147 0
112.0596 -34.12469 0.1718147 0
112.0596 -34.07469 0.1718147 0
112.0596 -34.07469 0.2218147 0
112.1096 -34.07469 0.1718147 0
112.2096 -34.07469 0.1718147 0
112.2596 -34.07469 0.2218147 0
111.9596 -34.07469 0.6218147 0
111.9596 -34.07469 0.6718147 0
111.9596 -34.07469 0.7218148 0
112.0096 -34.07469 0.6718147 0
112.0596 -34.07469 0.6718147 0
112.0596 -34.07469 0.7218148 0
112.1096 -34.07469 0.6718147 0
112.1096 -34.07469 0.7218148 0
112.1596 -34.07469 0.6718147 0
112.2096 -34.07469 0.7218148 0
112.2596 -34.07469 0.7218148 0
112.0096 -33.97469 0.1718147 0
112.0596 -33.97469 0.07181472 0
112.0596 -33.92469 0.07181472 0
112.0596 -33.87469 0.1218147 0
112.1096 -33.92469 0.1218147 0
112.1096 -33.87469 0.1718147 0
112.0096 -33.77469 0.07181472 0
111.9596 -33.67469 0.07181472 0
112.0096 -33.67469 0.1218147 0
112.0096 -33.67469 0.1718147 0
112.0596 -33.82469 0.07181472 0
112.0596 -33.77469 0.07181472 0
112.1096 -33.77469 0.1218147 0
112.1096 -33.77469 0.1718147 0
112.0596 -33.72469 0.1218147 0
112.1096 -33.67469 0.1718147 0
112.2096 -34.02469 0.1718147 0
112.1596 -33.87469 0.1218147 0
112.2096 -33.87469 0.1218147 0
112.3096 -33.87469 0.07181472 0
112.1596 -33.77469 0.1218147 0
112.1596 -33.67469 0.1218147 0
112.2096 -33.72469 0.1218147 0
112.2596 -33.72469 0.1218147 0
112.0596 -33.97469 0.5218147 0
112.0596 -33.92469 0.5218147 0
112.0596 -33.87469 0.5218147 0
112.1096 -33.87469 0.5218147 0
112.0596 -33.92469 0.5718147 0
112.1096 -33.87469 0.5718147 0
112.0096 -34.02469 0.7218148 0
112.0096 -33.97469 0.7218148 0
112.0096 -33.92469 0.7718147 0
112.1096 -34.02469 0.7718147 0
111.9596 -33.77469 0.5718147 0
112.0096 -33.77469 0.5718147 0
111.9596 -33.72469 0.5218147 0
112.0096 -33.67469 0.5218147 0
112.0596 -33.77469 0.5218147 0
112.1096 -33.77469 0.5218147 0
112.1096 -33.82469 0.5718147 0
112.0596 -33.72469 0.5218147 0
112.2096 -33.87469 0.5218147 0
112.2096 -33.87469 0.5718147 0
112.3096 -33.92469 0.5718147 0
112.2096 -34.02469 0.7218148 0
112.2096 -33.97469 0.7718147 0
112.2596 -33.97469 0.7718147 0
112.1596 -33.77469 0.5218147 0
112.1596 -33.67469 0.5218147 0
112.2096 -33.72469 0.5218147 0
112.3096 -33.82469 0.5718147 0
112.2596 -33.72469 0.5218147 0
112.3096 -33.67469 0.5718147 0
111.9096 -34.07469 1.221815 0
111.9096 -34.07469 1.321815 0
111.6096 -34.02469 1.221815 0
111.6596 -34.02469 1.171815 0
111.6096 -33.77469 1.021815 0
111.7096 -33.77469 1.121815 0
111.8596 -33.92469 0.8718147 0
111.9096 -33.87469 0.9218147 0
111.7596 -34.02469 1.221815 0
111.8096 -34.02469 1.171815 0
111.8096 -34.02469 1.221815 0
111.8596 -34.02469 1.171815 0
111.9096 -34.02469 1.221815 0
111.8596 -33.77469 1.021815 0
111.8096 -33.77469 1.071815 0
111.5596 -34.02469 1.271815 0
111.5596 -33.97469 1.321815 0
111.6096 -34.02469 1.271815 0
111.6096 -33.92469 1.321815 0
111.6096 -33.87469 1.371815 0
111.6596 -33.97469 1.271815 0
111.7096 -34.02469 1.321815 0
111.7096 -33.92469 1.371815 0
111.6096 -33.77469 1.471815 0
111.5596 -33.77469 1.571815 0
111.7596 -34.02469 1.271815 0
111.7596 -33.97469 1.271815 0
111.7596 -33.97469 1.321815 0
111.8096 -34.02469 1.271815 0
111.8096 -33.97469 1.271815 0
111.7596 -34.02469 1.371815 0
111.8096 -33.92469 1.371815 0
111.8596 -34.02469 1.271815 0
111.9096 -34.02469 1.271815 0
111.9096 -33.97469 1.321815 0
111.9096 -33.97469 1.371815 0
111.8596 -33.92469 1.521815 0
111.8096 -33.77469 1.571815 0
111.8596 -33.77469 1.471815 0
111.9596 -34.12469 1.171815 0
111.9596 -34.07469 1.221815 0
112.0096 -34.07469 1.171815 0
112.0596 -34.07469 1.221815 0
112.1096 -34.07469 1.221815 0
112.1596 -34.07469 1.171815 0
112.2596 -34.07469 1.221815 0
112.0096 -34.07469 1.271815 0
111.9596 -34.07469 1.371815 0
112.0596 -34.12469 1.271815 0
112.1096 -34.07469 1.271815 0
112.2096 -34.07469 1.271815 0
112.0596 -33.97469 0.9718148 0
112.0596 -33.92469 0.9218147 0
112.0596 -33.87469 0.9218147 0
112.1096 -33.87469 0.8718147 0
112.0596 -33.92469 1.071815 0
112.0596 -33.87469 1.171815 0
112.1096 -33.87469 1.221815 0
112.0096 -33.67469 0.8718147 0
111.9596 -33.72469 0.9718148 0
112.0596 -33.77469 0.8718147 0
112.1096 -33.77469 0.8718147 0
112.0596 -33.77469 0.9718148 0
112.0596 -33.72469 0.9218147 0
111.9596 -33.82469 1.121815 0
112.0096 -33.77469 1.071815 0
112.0096 -33.67469 1.221815 0
112.0596 -33.82469 1.071815 0
112.1096 -33.77469 1.221815 0
112.1596 -33.97469 0.8718147 0
112.1596 -33.87469 0.8718147 0
112.2096 -33.87469 0.9218147 0
112.2096 -33.87469 0.9718148 0
112.2096 -33.87469 1.121815 0
112.3096 -33.92469 1.171815 0
112.1596 -33.77469 0.8718147 0
112.1596 -33.67469 0.8718147 0
112.2096 -33.72469 0.9218147 0
112.3096 -33.82469 1.021815 0
112.2596 -33.72469 0.9718148 0
112.1596 -33.67469 1.221815 0
112.0096 -33.97469 1.271815 0
111.9596 -33.87469 1.371815 0
112.0096 -33.92469 1.371815 0
112.0596 -33.97469 1.421815 0
112.0596 -33.92469 1.271815 0
112.0596 -33.87469 1.321815 0
112.1096 -33.87469 1.271815 0
112.0596 -33.92469 1.571815 0
112.1096 -33.87469 1.621815 0
112.0096 -33.67469 1.271815 0
111.9596 -33.72469 1.421815 0
112.0596 -33.77469 1.271815 0
112.0596 -33.77469 1.421815 0
112.0596 -33.72469 1.321815 0
111.9596 -33.82469 1.471815 0
112.0096 -33.77469 1.571815 0
112.0096 -33.67469 1.621815 0
112.1096 -33.82469 1.521815 0
112.1096 -33.77469 1.621815 0
112.2096 -34.02469 1.271815 0
112.2096 -33.97469 1.321815 0
112.2096 -33.87469 1.321815 0
112.2096 -33.87469 1.421815 0
112.2596 -33.97469 1.271815 0
112.2096 -34.02469 1.521815 0
112.2596 -33.92469 1.471815 0
112.1596 -33.77469 1.271815 0
112.1596 -33.67469 1.271815 0
112.2096 -33.72469 1.321815 0
112.2596 -33.72469 1.421815 0
112.1596 -33.77469 1.621815 0
112.1596 -33.67469 1.621815 0
112.3096 -33.82469 1.521815 0
112.3596 -34.97469 1.571815 0
112.5096 -34.92469 1.571815 0
112.3596 -33.77469 0.5718147 0
112.3596 -33.92469 0.8718147 0
112.3596 -33.77469 1.121815 0
112.3596 -33.87469 1.521815 0
112.4096 -33.77469 1.471815 0
112.0096 -35.17469 1.671815 0
112.0596 -35.22469 1.721815 0
112.1096 -35.12469 1.671815 0
112.1596 -35.22469 1.671815 0
112.1596 -35.22469 1.721815 0
112.2096 -35.12469 1.671815 0
112.2096 -35.07469 1.671815 0
112.3096 -35.17469 1.721815 0
112.3096 -35.22469 1.771815 0
112.3096 -35.17469 1.821815 0
112.2596 -35.07469 1.721815 0
112.3096 -35.12469 1.671815 0
112.3096 -35.12469 1.721815 0
111.6096 -34.07469 1.821815 0
111.9096 -34.07469 1.771815 0
111.9096 -34.07469 1.921815 0
111.9096 -34.07469 2.321815 0
111.6096 -34.02469 1.721815 0
111.5596 -34.02469 1.771815 0
111.6096 -34.02469 1.771815 0
111.6096 -33.97469 1.771815 0
111.6596 -34.02469 1.671815 0
111.7096 -34.02469 1.721815 0
111.7096 -34.02469 1.771815 0
111.7096 -34.02469 1.921815 0
111.6096 -33.77469 1.971815 0
111.7596 -34.02469 1.721815 0
111.8096 -34.02469 1.671815 0
111.7596 -34.02469 1.771815 0
111.8096 -34.02469 1.821815 0
111.8596 -34.02469 1.721815 0
111.9096 -34.02469 1.721815 0
111.9096 -33.87469 1.771815 0
111.7596 -34.02469 2.021815 0
111.8596 -33.77469 1.921815 0
111.7096 -34.02469 2.221815 0
111.6096 -34.02469 2.321815 0
111.6096 -34.02469 2.371815 0
111.9096 -33.87469 2.221815 0
111.7596 -34.02469 2.321815 0
111.8096 -34.02469 2.371815 0
111.7596 -33.77469 2.071815 0
111.8596 -33.82469 2.371815 0
111.9596 -34.12469 1.671815 0
112.0096 -34.07469 1.721815 0
111.9596 -34.07469 1.821815 0
112.0596 -34.07469 1.721815 0
112.1096 -34.07469 1.771815 0
112.1596 -34.12469 1.671815 0
111.9596 -34.07469 2.371815 0
112.0596 -33.92469 1.671815 0
112.0596 -33.87469 1.721815 0
112.1096 -33.87469 1.671815 0
112.1096 -33.92469 1.771815 0
112.0596 -33.97469 1.871815 0
112.0596 -33.92469 2.021815 0
112.1096 -33.87469 1.971815 0
112.1096 -33.87469 2.021815 0
111.9596 -33.82469 1.671815 0
112.0096 -33.67469 1.671815 0
112.0596 -33.77469 1.671815 0
112.0596 -33.72469 1.721815 0
111.9596 -33.67469 1.871815 0
112.0096 -33.67469 1.971815 0
112.0096 -33.67469 2.021815 0
112.0596 -33.82469 1.871815 0
112.0596 -33.77469 2.021815 0
112.1096 -33.77469 1.971815 0
112.1096 -33.67469 1.971815 0
112.2096 -33.87469 1.671815 0
112.2096 -33.87469 1.721815 0
112.3096 -33.92469 1.771815 0
112.2096 -33.87469 1.871815 0
112.1596 -33.77469 1.671815 0
112.2096 -33.72469 1.771815 0
112.1596 -33.77469 2.021815 0
112.3096 -33.82469 2.021815 0
112.2596 -33.72469 1.871815 0
112.0596 -33.92469 2.071815 0
112.0596 -33.87469 2.171815 0
112.0596 -33.97469 2.321815 0
112.0596 -33.92469 2.421815 0
112.1096 -33.87469 2.371815 0
112.0096 -33.77469 2.071815 0
112.0596 -33.72469 2.171815 0
111.9596 -33.67469 2.321815 0
112.0096 -33.67469 2.371815 0
112.0096 -33.67469 2.421815 0
112.0596 -33.77469 2.321815 0
112.0596 -33.77469 2.421815 0
112.1096 -33.77469 2.371815 0
112.1096 -33.67469 2.371815 0
112.2096 -33.87469 2.171815 0
112.2096 -33.87469 2.321815 0
112.1596 -33.87469 2.421815 0
112.2096 -33.72469 2.171815 0
112.1596 -33.77469 2.421815 0
112.2596 -33.72469 2.321815 0
111.9096 -34.07469 2.571815 0
111.8096 -34.07469 2.721815 0
111.6096 -34.07469 2.921815 0
111.7096 -34.07469 2.871815 0
111.9096 -34.07469 2.871815 0
111.9096 -34.07469 3.171815 0
111.7096 -34.02469 2.521815 0
111.6596 -34.02469 2.721815 0
111.6596 -34.02469 2.771815 0
111.9096 -33.87469 2.621815 0
111.7596 -34.02469 2.671815 0
111.8596 -34.02469 2.771815 0
111.5596 -34.02469 2.871815 0
111.6096 -34.02469 2.871815 0
111.6096 -34.02469 2.971815 0
111.7096 -34.02469 3.171815 0
111.5596 -33.77469 2.921815 0
111.7596 -34.02469 2.871815 0
111.8096 -34.02469 2.871815 0
111.8096 -34.02469 2.971815 0
111.9096 -34.02469 2.871815 0
111.9096 -33.87469 3.071815 0
111.8596 -33.82469 2.871815 0
112.0096 -34.07469 2.771815 0
111.9596 -34.12469 2.871815 0
111.9596 -34.12469 2.971815 0
112.0596 -34.07469 2.871815 0
112.1096 -34.07469 2.871815 0
111.9596 -34.07469 3.221815 0
112.0596 -33.92469 2.571815 0
112.0596 -33.87469 2.571815 0
112.0596 -33.97469 2.821815 0
112.0596 -33.87469 2.721815 0
112.0596 -33.92469 2.821815 0
112.0096 -33.77469 2.521815 0
112.0596 -33.72469 2.571815 0
111.9596 -33.67469 2.771815 0
112.0096 -33.67469 2.771815 0
112.0096 -33.67469 2.821815 0
112.1096 -33.77469 2.721815 0
112.0596 -33.77469 2.771815 0
112.0596 -33.77469 2.821815 0
112.1096 -33.67469 2.721815 0
112.2096 -33.87469 2.571815 0
112.1596 -33.87469 2.821815 0
112.2096 -33.87469 2.821815 0
112.2096 -33.72469 2.571815 0
112.1596 -33.77469 2.821815 0
112.2596 -33.72469 2.821815 0
112.0596 -33.87469 3.021815 0
112.0596 -33.92469 3.071815 0
112.1096 -33.87469 3.121815 0
112.0596 -33.92469 3.221815 0
112.0096 -33.77469 3.021815 0
112.0596 -33.72469 2.971815 0
112.0096 -33.67469 3.121815 0
112.0096 -33.67469 3.221815 0
112.1096 -33.77469 3.121815 0
112.0596 -33.77469 3.221815 0
112.1096 -33.77469 3.221815 0
112.1096 -33.67469 3.121815 0
112.2096 -33.87469 3.021815 0
112.1596 -33.87469 3.221815 0
112.2096 -33.72469 3.021815 0
112.1596 -33.77469 3.221815 0
112.4096 -35.17469 1.671815 0
112.3596 -35.22469 1.821815 0
112.4596 -35.17469 1.671815 0
112.4596 -35.17469 1.721815 0
112.5096 -35.22469 1.821815 0
112.5096 -35.17469 1.821815 0
112.4596 -35.12469 1.721815 0
112.5596 -35.22469 1.771815 0
112.5596 -35.07469 1.671815 0
112.7096 -35.22469 1.821815 0
112.8096 -35.22469 1.721815 0
113.1096 -35.22469 2.371815 0
113.1096 -35.07469 2.321815 0
113.0596 -34.92469 2.321815 0
113.1096 -34.92469 2.321815 0
112.9096 -34.82469 2.321815 0
112.9596 -34.77469 2.321815 0
113.1096 -34.82469 2.321815 0
113.1096 -34.87469 3.221815 0
112.3596 -33.77469 1.671815 0
112.3596 -33.92469 2.171815 0
110.8596 -36.82469 3.371815 0
111.0596 -36.42469 3.571815 0
111.2596 -36.47469 3.521815 0
111.4596 -36.52469 3.521815 0
110.0096 -33.97469 3.321815 0
110.0596 -33.97469 3.271815 0
110.0596 -33.97469 3.321815 0
110.0596 -33.97469 3.421815 0
110.1096 -33.97469 3.421815 0
110.0596 -33.92469 3.421815 0
109.9596 -33.97469 3.471815 0
109.9596 -33.97469 3.621815 0
110.0596 -33.97469 3.471815 0
110.1096 -33.97469 3.471815 0
110.1596 -33.97469 3.321815 0
110.2096 -33.97469 3.321815 0
110.2596 -33.97469 3.271815 0
110.3096 -33.97469 3.321815 0
110.2596 -33.97469 3.421815 0
110.2596 -33.97469 3.471815 0
110.3096 -33.72469 3.421815 0
109.9596 -33.97469 3.771815 0
109.9596 -33.97469 3.821815 0
110.0596 -33.97469 3.771815 0
110.1096 -33.97469 3.771815 0
109.9596 -33.97469 4.021815 0
110.0596 -33.97469 3.871815 0
110.0596 -33.97469 3.971815 0
110.0596 -33.97469 4.021815 0
110.1096 -33.97469 4.021815 0
110.1596 -33.97469 3.671815 0
110.2596 -33.97469 3.771815 0
110.2096 -33.97469 3.871815 0
110.2596 -34.02469 4.021815 0
110.2596 -33.97469 3.971815 0
110.2596 -33.97469 4.021815 0
110.3096 -33.97469 4.021815 0
110.3596 -33.97469 3.321815 0
110.4096 -33.97469 3.271815 0
110.4096 -33.97469 3.421815 0
110.4096 -33.97469 3.471815 0
110.5596 -34.02469 3.271815 0
110.5596 -33.97469 3.321815 0
110.5596 -33.97469 3.421815 0
110.7096 -33.97469 3.271815 0
110.7096 -33.97469 3.371815 0
110.6096 -33.97469 3.471815 0
110.7096 -33.72469 3.321815 0
110.3596 -33.97469 3.671815 0
110.4096 -33.97469 3.771815 0
110.3596 -33.97469 3.871815 0
110.4096 -34.02469 4.021815 0
110.4096 -33.97469 3.971815 0
110.4096 -33.97469 4.021815 0
110.4596 -33.97469 3.921815 0
110.4596 -33.97469 4.021815 0
110.6096 -33.97469 3.671815 0
110.5596 -33.97469 3.821815 0
110.6096 -34.02469 3.771815 0
110.7096 -33.97469 3.821815 0
110.5596 -33.97469 3.871815 0
110.5596 -33.97469 3.971815 0
110.6096 -34.02469 4.021815 0
110.7096 -33.97469 3.921815 0
109.9596 -33.97469 4.221815 0
109.9596 -33.97469 4.321815 0
110.0596 -33.97469 4.321815 0
110.1096 -33.97469 4.321815 0
110.0596 -33.97469 4.421815 0
110.1596 -33.97469 4.271815 0
110.2096 -33.97469 4.421815 0
110.2596 -33.97469 4.321815 0
109.9596 -33.97469 4.521815 0
110.0596 -33.97469 4.571815 0
110.0596 -33.97469 4.621815 0
110.2096 -33.97469 4.521815 0
110.2596 -33.97469 4.621815 0
110.4096 -33.97469 4.271815 0
110.4096 -33.97469 4.321815 0
110.3596 -33.97469 4.421815 0
110.6096 -33.97469 4.071815 0
110.5596 -33.97469 4.321815 0
110.6096 -34.02469 4.321815 0
110.6096 -33.97469 4.321815 0
110.7096 -34.02469 4.371815 0
110.4096 -34.02469 4.621815 0
110.4096 -33.97469 4.621815 0
110.4596 -33.97469 4.571815 0
110.5596 -33.97469 4.471815 0
110.6096 -34.02469 4.621815 0
110.7096 -33.97469 4.471815 0
110.7096 -33.97469 4.621815 0
110.6096 -33.97469 4.671815 0
110.7596 -33.97469 3.421815 0
110.8596 -33.97469 3.271815 0
110.9096 -34.02469 3.421815 0
110.9096 -33.97469 3.371815 0
110.7596 -34.02469 3.471815 0
110.8096 -33.97469 3.471815 0
110.9596 -34.02469 3.271815 0
111.0596 -33.97469 3.271815 0
111.0596 -34.02469 3.421815 0
111.0596 -33.97469 3.371815 0
110.9596 -34.02469 3.471815 0
111.0096 -33.97469 3.521815 0
111.1096 -34.02469 3.471815 0
110.8096 -33.97469 3.721815 0
110.8596 -34.02469 3.821815 0
110.7596 -33.97469 3.971815 0
110.9096 -33.97469 3.921815 0
110.9096 -34.02469 4.021815 0
111.0596 -33.97469 3.721815 0
111.0596 -34.02469 3.821815 0
110.9596 -34.02469 3.971815 0
111.0596 -33.97469 3.921815 0
111.0596 -34.02469 4.021815 0
111.2096 -34.02469 3.271815 0
111.2096 -34.02469 3.321815 0
111.2096 -34.02469 3.421815 0
111.2596 -34.02469 3.371815 0
111.2096 -34.02469 3.521815 0
111.2596 -34.02469 3.521815 0
111.3596 -34.02469 3.271815 0
111.4096 -34.02469 3.371815 0
111.4096 -34.02469 3.421815 0
111.5096 -34.02469 3.321815 0
111.4096 -34.02469 3.521815 0
111.4596 -34.02469 3.521815 0
111.2096 -34.02469 3.821815 0
111.2596 -34.02469 3.771815 0
111.2096 -34.02469 3.971815 0
111.2596 -34.02469 3.921815 0
111.3596 -34.02469 3.821815 0
111.5096 -34.02469 3.771815 0
111.5096 -34.02469 3.821815 0
111.4096 -34.02469 3.971815 0
111.5096 -34.02469 4.021815 0
110.7596 -34.02469 4.071815 0
110.8096 -33.97469 4.071815 0
110.9096 -34.02469 4.071815 0
110.8096 -33.97469 4.321815 0
110.8596 -33.97469 4.371815 0
111.0096 -34.02469 4.071815 0
111.1096 -34.02469 4.071815 0
111.0596 -34.02469 4.371815 0
111.0596 -33.97469 4.371815 0
110.7596 -34.02469 4.621815 0
110.9096 -34.02469 4.471815 0
110.8096 -33.97469 4.671815 0
110.9596 -34.02469 4.621815 0
111.0596 -34.02469 4.521815 0
111.0096 -33.97469 4.671815 0
111.4596 -34.07469 4.071815 0
111.2096 -34.02469 4.121815 0
111.2596 -34.02469 4.071815 0
111.2096 -34.02469 4.371815 0
111.2596 -34.02469 4.421815 0
111.4096 -34.02469 4.121815 0
111.5096 -34.02469 4.421815 0
111.2596 -34.02469 4.521815 0
111.2096 -34.02469 4.671815 0
111.2096 -34.02469 4.721815 0
111.4096 -34.02469 4.521815 0
111.4096 -34.02469 4.721815 0
111.4596 -34.02469 4.721815 0
109.9596 -33.97469 4.871815 0
109.9596 -33.97469 5.171815 0
110.1596 -33.97469 4.871815 0
110.2096 -33.97469 5.221815 0
110.3596 -33.97469 4.921815 0
110.6096 -33.97469 4.971815 0
110.4596 -33.97469 5.271815 0
110.7096 -33.97469 5.271815 0
110.8096 -33.97469 4.971815 0
111.0096 -34.02469 5.021815 0
110.9596 -33.97469 5.321815 0
111.2596 -34.02469 5.071815 0
111.4596 -34.02469 5.071815 0
111.2096 -34.02469 5.371815 0
111.5096 -34.02469 5.421815 0
111.9096 -34.07469 3.421815 0
111.9096 -34.07469 3.821815 0
111.9096 -34.07469 3.971815 0
111.6096 -34.02469 3.421815 0
111.6596 -34.02469 3.271815 0
111.7096 -34.02469 3.321815 0
111.6096 -34.02469 3.521815 0
111.6096 -34.02469 3.571815 0
111.8096 -34.02469 3.271815 0
111.7596 -34.02469 3.371815 0
111.7596 -34.02469 3.421815 0
111.8596 -34.02469 3.321815 0
111.8096 -34.02469 3.571815 0
111.7096 -34.02469 3.821815 0
111.6096 -34.02469 3.971815 0
111.7596 -34.02469 3.971815 0
112.0096 -34.12469 3.321815 0
111.9596 -34.07469 3.371815 0
112.1096 -34.07469 3.421815 0
111.9596 -34.07469 3.571815 0
112.1096 -34.07469 4.021815 0
112.0596 -33.97469 3.271815 0
112.0596 -33.87469 3.421815 0
112.0596 -33.92469 3.571815 0
111.9596 -33.67469 3.271815 0
112.0596 -33.72469 3.421815 0
112.0096 -33.77469 3.571815 0
112.0596 -33.97469 3.721815 0
111.9596 -33.67469 3.721815 0
112.0596 -33.77469 3.721815 0
111.6096 -34.07469 4.071815 0
111.9096 -34.07469 4.471815 0
111.6096 -34.02469 4.171815 0
111.7596 -34.02469 4.071815 0
111.8096 -34.02469 4.171815 0
111.6096 -34.02469 4.571815 0
111.7096 -34.02469 4.471815 0
111.6096 -34.02469 4.771815 0
111.7596 -34.02469 4.771815 0
111.8096 -34.02469 4.771815 0
111.9596 -34.07469 4.071815 0
111.9596 -34.07469 4.171815 0
112.0596 -33.92469 4.071815 0
111.9596 -33.77469 4.071815 0
112.3596 -35.12469 3.471815 0
112.5096 -35.17469 3.471815 0
112.4096 -34.92469 3.371815 0
112.6596 -35.22469 3.471815 0
112.6596 -34.92469 3.321815 0
112.8596 -34.87469 3.271815 0
112.9596 -35.22469 3.421815 0
111.9096 -34.07469 5.121815 0
111.7096 -34.02469 5.121815 0
111.7596 -34.02469 5.471815 0
111.9596 -34.07469 5.471815 0
111.9596 -33.62469 0.1218147 0
111.9596 -33.57469 0.07181472 0
112.0096 -33.57469 0.1218147 0
112.0096 -33.57469 0.1718147 0
111.9596 -33.52469 0.1218147 0
111.9596 -33.47469 0.07181472 0
111.9596 -33.47469 0.1218147 0
112.0596 -33.57469 0.1718147 0
112.0596 -33.47469 0.1218147 0
112.1096 -33.52469 0.1218147 0
112.0596 -33.47469 0.1718147 0
111.9596 -33.37469 0.1218147 0
112.0096 -33.42469 0.1718147 0
111.9596 -33.32469 0.1218147 0
112.0096 -33.32469 0.1218147 0
112.1096 -33.37469 0.1218147 0
112.1096 -33.27469 0.1218147 0
112.0596 -33.32469 0.1718147 0
112.1596 -33.52469 0.07181472 0
112.3096 -33.62469 0.07181472 0
112.1596 -33.32469 0.07181472 0
112.2596 -33.37469 0.07181472 0
111.9596 -33.62469 0.5218147 0
112.0096 -33.57469 0.5218147 0
111.9596 -33.57469 0.5718147 0
111.9596 -33.52469 0.5218147 0
111.9596 -33.47469 0.5218147 0
112.0096 -33.47469 0.5218147 0
111.9596 -33.47469 0.6218147 0
112.0596 -33.57469 0.5218147 0
112.0596 -33.47469 0.5218147 0
112.1096 -33.52469 0.5218147 0
112.0096 -33.42469 0.5218147 0
111.9596 -33.37469 0.5718147 0
111.9596 -33.32469 0.5218147 0
112.0096 -33.32469 0.5218147 0
112.0596 -33.37469 0.5218147 0
112.1096 -33.37469 0.5218147 0
112.0596 -33.32469 0.5218147 0
112.0596 -33.27469 0.5218147 0
112.1596 -33.52469 0.5218147 0
112.2596 -33.47469 0.5718147 0
112.1596 -33.27469 0.5218147 0
112.1596 -33.32469 0.5718147 0
112.2596 -33.37469 0.5718147 0
112.3096 -33.42469 0.5718147 0
111.9596 -33.22469 0.07181472 0
111.9596 -33.22469 0.1218147 0
111.9596 -33.17469 0.1218147 0
112.0096 -33.22469 0.1218147 0
112.0096 -33.17469 0.1218147 0
112.0096 -33.22469 0.1718147 0
112.0096 -33.07469 0.1218147 0
112.0096 -33.12469 0.1718147 0
112.0596 -33.22469 0.1718147 0
112.1096 -33.12469 0.1218147 0
112.0596 -33.12469 0.1718147 0
111.9596 -33.02469 0.1218147 0
112.0096 -32.97469 0.07181472 0
112.0096 -32.97469 0.1218147 0
112.0096 -32.92469 0.1218147 0
112.0096 -32.87469 0.1218147 0
112.1096 -33.02469 0.1218147 0
112.0596 -33.02469 0.1718147 0
112.0596 -32.97469 0.1718147 0
112.1096 -32.87469 0.1218147 0
112.0596 -32.87469 0.1718147 0
112.2096 -33.17469 0.07181472 0
112.1596 -33.12469 0.1218147 0
112.2596 -33.12469 0.07181472 0
112.1596 -32.97469 0.1218147 0
112.2096 -32.97469 0.07181472 0
112.2596 -32.92469 0.07181472 0
111.9596 -33.17469 0.5218147 0
112.0096 -33.22469 0.5218147 0
111.9596 -33.22469 0.6218147 0
112.0096 -33.17469 0.5718147 0
112.0096 -33.12469 0.5218147 0
112.0096 -33.07469 0.5218147 0
112.0596 -33.22469 0.5218147 0
112.0596 -33.12469 0.5218147 0
112.1096 -33.12469 0.5218147 0
112.0096 -33.02469 0.5218147 0
112.0096 -32.97469 0.5218147 0
112.0096 -32.97469 0.5718147 0
112.0096 -32.92469 0.5218147 0
112.0096 -32.87469 0.5218147 0
112.0596 -33.02469 0.5218147 0
112.0596 -32.97469 0.5218147 0
112.1096 -33.02469 0.5218147 0
112.0596 -32.87469 0.5218147 0
112.1096 -32.87469 0.5218147 0
112.2096 -33.17469 0.5718147 0
112.1596 -33.12469 0.5218147 0
112.3096 -33.17469 0.5718147 0
112.2596 -33.12469 0.5718147 0
112.1596 -32.97469 0.5218147 0
112.2096 -32.97469 0.5718147 0
112.2596 -32.92469 0.5718147 0
112.3096 -32.87469 0.5718147 0
111.9596 -33.62469 0.9218147 0
112.0096 -33.57469 0.8718147 0
111.9596 -33.47469 0.9218147 0
112.0096 -33.47469 0.8718147 0
111.9596 -33.52469 0.9718148 0
112.0596 -33.57469 0.8718147 0
112.0596 -33.47469 0.8718147 0
112.0596 -33.47469 0.9218147 0
112.1096 -33.52469 0.9218147 0
111.9596 -33.57469 1.071815 0
111.9596 -33.47469 1.121815 0
112.0096 -33.52469 1.221815 0
111.9596 -33.37469 0.9218147 0
112.0096 -33.42469 0.8718147 0
112.0096 -33.32469 0.8718147 0
111.9596 -33.32469 0.9718148 0
112.0596 -33.37469 0.9218147 0
112.1096 -33.37469 0.9218147 0
112.1096 -33.27469 0.9218147 0
111.9596 -33.37469 1.071815 0
112.0096 -33.42469 1.221815 0
112.0096 -33.32469 1.221815 0
112.1596 -33.52469 1.021815 0
112.3096 -33.62469 1.071815 0
112.2596 -33.47469 1.221815 0
112.2096 -33.32469 1.021815 0
112.3096 -33.42469 0.8718147 0
112.3096 -33.42469 1.121815 0
112.2596 -33.32469 1.071815 0
111.9596 -33.62469 1.321815 0
112.0096 -33.57469 1.271815 0
111.9596 -33.47469 1.321815 0
112.0096 -33.47469 1.271815 0
111.9596 -33.52469 1.421815 0
112.0596 -33.57469 1.271815 0
112.0596 -33.47469 1.271815 0
112.1096 -33.52469 1.371815 0
111.9596 -33.57469 1.571815 0
112.0096 -33.52469 1.621815 0
112.0596 -33.57469 1.621815 0
112.0596 -33.47469 1.621815 0
111.9596 -33.37469 1.321815 0
112.0096 -33.32469 1.271815 0
111.9596 -33.32469 1.421815 0
112.1096 -33.37469 1.271815 0
112.1096 -33.37469 1.371815 0
112.0596 -33.32469 1.271815 0
112.1096 -33.27469 1.271815 0
112.1096 -33.27469 1.371815 0
111.9596 -33.37469 1.521815 0
112.0096 -33.42469 1.621815 0
112.0096 -33.32469 1.621815 0
112.0596 -33.32469 1.621815 0
112.1596 -33.52469 1.471815 0
112.3096 -33.62469 1.521815 0
112.3096 -33.47469 1.521815 0
112.1596 -33.32469 1.471815 0
112.2596 -33.37469 1.571815 0
112.0096 -33.22469 0.8718147 0
112.0096 -33.22469 0.9218147 0
112.0096 -33.17469 0.9718148 0
112.0096 -33.17469 1.021815 0
112.0096 -33.12469 0.8718147 0
112.0096 -33.07469 0.8718147 0
112.0096 -33.07469 0.9218147 0
112.0596 -33.22469 0.8718147 0
112.1096 -33.22469 0.9718148 0
112.0596 -33.12469 0.8718147 0
112.1096 -33.12469 0.9218147 0
111.9596 -33.22469 1.121815 0
112.0096 -33.22469 1.221815 0
112.0596 -33.07469 1.221815 0
112.0096 -32.97469 0.8718147 0
112.0096 -33.02469 0.9718148 0
112.0096 -32.97469 1.021815 0
112.0096 -32.92469 0.9218147 0
112.0096 -32.87469 0.8718147 0
112.0596 -33.02469 0.8718147 0
112.0596 -32.97469 0.8718147 0
112.1096 -33.02469 0.9218147 0
112.0596 -32.87469 0.8718147 0
112.1096 -32.87469 0.8718147 0
112.1096 -32.87469 0.9218147 0
112.0096 -32.97469 1.121815 0
112.0596 -32.97469 1.221815 0
112.0596 -32.87469 1.221815 0
112.1596 -33.17469 1.021815 0
112.1596 -33.12469 0.9718148 0
112.3096 -33.07469 0.8718147 0
112.3096 -33.17469 1.121815 0
112.2596 -33.17469 1.221815 0
112.2596 -33.12469 1.071815 0
112.1596 -32.97469 0.9718148 0
112.2096 -32.97469 1.021815 0
112.2596 -32.92469 1.071815 0
112.3096 -32.92469 1.171815 0
112.0096 -33.22469 1.271815 0
112.0096 -33.22469 1.321815 0
112.0096 -33.17469 1.421815 0
112.0096 -33.07469 1.271815 0
112.0096 -33.07469 1.321815 0
112.0596 -33.22469 1.271815 0
112.0596 -33.12469 1.271815 0
112.1096 -33.12469 1.271815 0
111.9596 -33.17469 1.521815 0
112.0096 -33.22469 1.621815 0
112.0096 -33.07469 1.621815 0
112.0596 -33.22469 1.621815 0
112.0596 -33.12469 1.621815 0
112.0096 -32.97469 1.271815 0
111.9596 -33.02469 1.371815 0
112.0096 -32.92469 1.321815 0
112.0096 -32.87469 1.271815 0
112.0596 -33.02469 1.271815 0
112.1096 -33.02469 1.271815 0
112.0596 -32.87469 1.271815 0
112.1096 -32.87469 1.321815 0
112.0096 -32.97469 1.521815 0
112.0096 -32.97469 1.621815 0
112.0096 -32.92469 1.621815 0
112.0096 -32.87469 1.621815 0
112.0596 -33.02469 1.621815 0
112.0596 -32.97469 1.621815 0
112.0596 -32.87469 1.621815 0
112.1596 -33.12469 1.371815 0
112.2096 -33.17469 1.471815 0
112.2596 -33.12469 1.571815 0
112.3096 -33.12469 1.571815 0
112.1596 -32.97469 1.371815 0
112.2096 -32.97469 1.471815 0
112.2596 -32.92469 1.571815 0
112.0096 -32.82469 0.1218147 0
112.0096 -32.77469 0.1218147 0
112.0096 -32.72469 0.07181472 0
112.0096 -32.67469 0.1218147 0
112.1096 -32.77469 0.1218147 0
112.0596 -32.77469 0.1718147 0
112.0596 -32.72469 0.1218147 0
112.0596 -32.67469 0.1718147 0
112.1096 -32.67469 0.1718147 0
112.0096 -32.57469 0.1218147 0
112.0096 -32.52469 0.1218147 0
112.0096 -32.47469 0.07181472 0
112.0596 -32.62469 0.1218147 0
112.1096 -32.62469 0.1218147 0
112.1096 -32.57469 0.1718147 0
112.0596 -32.52469 0.1218147 0
112.1096 -32.52469 0.1218147 0
112.0596 -32.52469 0.1718147 0
112.1596 -32.82469 0.1218147 0
112.2096 -32.82469 0.07181472 0
112.1596 -32.67469 0.1218147 0
112.2596 -32.72469 0.07181472 0
112.2096 -32.62469 0.07181472 0
112.1596 -32.52469 0.1218147 0
112.3096 -32.47469 0.07181472 0
112.0096 -32.82469 0.5218147 0
112.0096 -32.77469 0.5218147 0
112.0096 -32.77469 0.5718147 0
112.0096 -32.67469 0.5218147 0
112.0096 -32.72469 0.5718147 0
112.0596 -32.77469 0.5218147 0
112.1096 -32.77469 0.5218147 0
112.0596 -32.72469 0.5218147 0
112.0596 -32.67469 0.5218147 0
112.1096 -32.67469 0.5218147 0
112.0096 -32.62469 0.5218147 0
112.0096 -32.57469 0.5718147 0
112.0096 -32.52469 0.5218147 0
112.0096 -32.47469 0.5718147 0
112.1096 -32.62469 0.5218147 0
112.1096 -32.57469 0.5218147 0
112.0596 -32.52469 0.5218147 0
112.1096 -32.52469 0.5218147 0
112.1596 -32.82469 0.5218147 0
112.2096 -32.82469 0.5718147 0
112.1596 -32.67469 0.5218147 0
112.2596 -32.82469 0.6218147 0
112.2596 -32.72469 0.5718147 0
112.2096 -32.62469 0.5718147 0
112.2096 -32.52469 0.5218147 0
112.2096 -32.47469 0.5718147 0
112.3096 -32.52469 0.5718147 0
112.3096 -32.47469 0.6218147 0
112.0096 -32.37469 0.1218147 0
112.0596 -32.37469 0.1218147 0
112.0596 -32.42469 0.1718147 0
112.1096 -32.42469 0.1718147 0
112.0596 -32.27469 0.1218147 0
112.1096 -32.32469 0.1718147 0
112.0096 -32.22469 0.07181472 0
112.0096 -32.22469 0.1218147 0
112.0096 -32.17469 0.1218147 0
112.0096 -32.07469 0.1218147 0
112.0596 -32.17469 0.1218147 0
112.0596 -32.22469 0.1718147 0
112.1096 -32.22469 0.1718147 0
112.0596 -32.12469 0.1218147 0
112.1096 -32.12469 0.1718147 0
112.1096 -32.07469 0.1718147 0
112.1596 -32.37469 0.1218147 0
112.2096 -32.42469 0.07181472 0
112.1596 -32.27469 0.1218147 0
112.2596 -32.27469 0.07181472 0
112.2096 -32.22469 0.1218147 0
112.1596 -32.12469 0.1218147 0
112.2096 -32.07469 0.1218147 0
112.2596 -32.07469 0.07181472 0
112.0096 -32.37469 0.5218147 0
112.0096 -32.37469 0.5718147 0
112.0096 -32.27469 0.5218147 0
112.0596 -32.42469 0.5218147 0
112.0596 -32.37469 0.5218147 0
112.1096 -32.42469 0.5218147 0
112.1096 -32.37469 0.5218147 0
112.0596 -32.32469 0.5218147 0
112.0596 -32.27469 0.5218147 0
112.1096 -32.32469 0.5218147 0
112.0096 -32.22469 0.5718147 0
112.0596 -32.22469 0.5218147 0
112.0596 -32.17469 0.5218147 0
112.1096 -32.22469 0.5218147 0
112.0596 -32.17469 0.5718147 0
112.0596 -32.12469 0.5218147 0
112.0596 -32.07469 0.5218147 0
112.1096 -32.07469 0.5218147 0
112.1596 -32.37469 0.5218147 0
112.1596 -32.27469 0.5218147 0
112.2596 -32.27469 0.5718147 0
112.3096 -32.27469 0.5718147 0
112.2096 -32.22469 0.5218147 0
112.1596 -32.12469 0.5218147 0
112.2096 -32.07469 0.5218147 0
112.2596 -32.07469 0.5718147 0
112.3096 -32.12469 0.6218147 0
112.0096 -32.77469 0.9218147 0
112.0096 -32.82469 0.9718148 0
112.0096 -32.77469 1.021815 0
112.0096 -32.72469 0.8718147 0
112.0096 -32.67469 0.9218147 0
112.0096 -32.67469 0.9718148 0
112.0596 -32.77469 0.8718147 0
112.1096 -32.77469 0.9218147 0
112.0596 -32.67469 0.8718147 0
112.1096 -32.67469 0.8718147 0
112.0096 -32.67469 1.121815 0
112.0596 -32.77469 1.221815 0
112.0596 -32.67469 1.221815 0
112.0096 -32.62469 0.8718147 0
112.0096 -32.57469 1.021815 0
112.0096 -32.52469 0.9218147 0
112.1096 -32.62469 0.9218147 0
112.1096 -32.57469 0.8718147 0
112.0596 -32.52469 0.8718147 0
112.0096 -32.47469 1.071815 0
112.0596 -32.52469 1.221815 0
112.1596 -32.82469 0.9718148 0
112.2096 -32.82469 1.021815 0
112.1596 -32.67469 0.9718148 0
112.2596 -32.82469 1.221815 0
112.2596 -32.72469 1.071815 0
112.2096 -32.62469 1.021815 0
112.1596 -32.52469 0.9218147 0
112.1596 -32.52469 0.9718148 0
112.2096 -32.47469 1.021815 0
112.3096 -32.52469 1.071815 0
112.3096 -32.47469 1.221815 0
112.0096 -32.82469 1.321815 0
112.0096 -32.82469 1.371815 0
112.0096 -32.67469 1.271815 0
112.0096 -32.67469 1.371815 0
112.0596 -32.77469 1.271815 0
112.1096 -32.77469 1.321815 0
112.0596 -32.72469 1.271815 0
112.1096 -32.67469 1.271815 0
112.0096 -32.77469 1.471815 0
112.0096 -32.72469 1.621815 0
112.0596 -32.77469 1.621815 0
112.0596 -32.72469 1.621815 0
112.0596 -32.67469 1.621815 0
112.1096 -32.67469 1.621815 0
112.0096 -32.62469 1.271815 0
112.0096 -32.52469 1.271815 0
112.0096 -32.52469 1.371815 0
112.1096 -32.62469 1.321815 0
112.0596 -32.52469 1.271815 0
112.1096 -32.52469 1.321815 0
112.0096 -32.57469 1.471815 0
112.0096 -32.62469 1.621815 0
112.0096 -32.47469 1.621815 0
112.1096 -32.57469 1.621815 0
112.0596 -32.52469 1.621815 0
112.1596 -32.82469 1.371815 0
112.1596 -32.67469 1.371815 0
112.2096 -32.82469 1.471815 0
112.2596 -32.72469 1.621815 0
112.1596 -32.52469 1.371815 0
112.2096 -32.62469 1.521815 0
112.2096 -32.47469 1.521815 0
112.3096 -32.47469 1.621815 0
112.0096 -32.42469 0.8718147 0
112.0096 -32.37469 0.9218147 0
112.0596 -32.42469 0.8718147 0
112.0596 -32.37469 0.8718147 0
112.1096 -32.42469 0.8718147 0
112.0596 -32.37469 1.021815 0
112.0596 -32.32469 0.8718147 0
112.0596 -32.27469 0.8718147 0
112.1096 -32.32469 0.8718147 0
112.0096 -32.37469 1.221815 0
112.0596 -32.42469 1.221815 0
112.0596 -32.32469 1.221815 0
112.0596 -32.27469 1.221815 0
112.0096 -32.22469 1.021815 0
112.0596 -32.22469 0.8718147 0
112.0596 -32.22469 0.9218147 0
112.0596 -32.17469 0.8718147 0
112.1096 -32.22469 0.8718147 0
112.0596 -32.12469 0.8718147 0
112.0596 -32.07469 0.9218147 0
112.1096 -32.07469 0.8718147 0
112.0096 -32.22469 1.071815 0
112.0596 -32.22469 1.221815 0
112.0596 -32.17469 1.221815 0
112.0596 -32.07469 1.221815 0
112.1596 -32.37469 0.9218147 0
112.1596 -32.37469 0.9718148 0
112.1596 -32.27469 0.9218147 0
112.2596 -32.27469 1.021815 0
112.3096 -32.27469 1.121815 0
112.1596 -32.22469 0.9718148 0
112.1596 -32.12469 0.9218147 0
112.2096 -32.07469 0.9718148 0
112.2596 -32.07469 1.021815 0
112.0096 -32.37469 1.271815 0
112.0096 -32.37469 1.371815 0
112.1096 -32.42469 1.271815 0
112.0596 -32.27469 1.271815 0
112.1096 -32.32469 1.271815 0
112.0096 -32.37469 1.471815 0
112.0596 -32.42469 1.571815 0
112.0596 -32.37469 1.621815 0
112.1096 -32.42469 1.621815 0
112.0596 -32.32469 1.571815 0
112.0596 -32.27469 1.621815 0
112.1096 -32.32469 1.621815 0
112.0096 -32.07469 1.321815 0
112.1096 -32.22469 1.271815 0
112.0596 -32.22469 1.371815 0
112.0596 -32.12469 1.271815 0
112.1096 -32.07469 1.271815 0
112.0096 -32.17469 1.471815 0
112.0596 -32.22469 1.571815 0
112.0596 -32.17469 1.621815 0
112.1096 -32.22469 1.621815 0
112.0596 -32.07469 1.571815 0
112.1096 -32.07469 1.621815 0
112.1596 -32.37469 1.321815 0
112.1596 -32.37469 1.421815 0
112.2596 -32.27469 1.521815 0
112.3096 -32.27469 1.621815 0
112.1596 -32.22469 1.321815 0
112.2096 -32.22469 1.421815 0
112.1596 -32.12469 1.321815 0
112.2096 -32.07469 1.421815 0
112.3096 -32.12469 1.271815 0
112.2596 -32.07469 1.521815 0
112.3596 -33.12469 0.8218147 0
112.3596 -33.12469 1.471815 0
112.3596 -32.72469 0.8218147 0
112.3596 -32.62469 0.5718147 0
112.3596 -32.52469 0.8218147 0
112.3596 -32.37469 0.6218147 0
112.4096 -32.37469 0.8218147 0
112.3596 -32.07469 0.6218147 0
112.4096 -32.12469 0.8218147 0
112.3596 -32.62469 1.171815 0
112.3596 -32.72469 1.471815 0
112.3596 -32.52469 1.471815 0
112.3596 -32.37469 1.171815 0
112.3596 -32.07469 1.171815 0
112.4096 -32.37469 1.471815 0
112.4096 -32.07469 1.471815 0
111.9596 -33.62469 1.721815 0
111.9596 -33.57469 1.671815 0
111.9596 -33.47469 1.671815 0
111.9596 -33.47469 1.721815 0
112.0096 -33.47469 1.671815 0
112.0596 -33.47469 1.671815 0
112.1096 -33.52469 1.771815 0
111.9596 -33.57469 2.021815 0
112.0096 -33.57469 2.021815 0
111.9596 -33.52469 1.871815 0
112.0096 -33.52469 1.971815 0
112.0096 -33.47469 2.021815 0
112.0596 -33.57469 1.971815 0
112.0596 -33.47469 1.971815 0
112.0096 -33.32469 1.721815 0
112.0596 -33.37469 1.671815 0
112.1096 -33.37469 1.771815 0
112.1096 -33.27469 1.671815 0
111.9596 -33.37469 2.021815 0
112.0096 -33.42469 1.971815 0
111.9596 -33.32469 1.871815 0
112.0096 -33.32469 1.971815 0
112.0096 -33.32469 2.021815 0
112.0596 -33.32469 1.971815 0
112.1596 -33.62469 1.671815 0
112.2596 -33.47469 1.821815 0
112.1596 -33.62469 2.021815 0
112.1596 -33.52469 1.921815 0
112.3096 -33.62469 2.021815 0
112.1596 -33.27469 1.771815 0
112.3096 -33.42469 1.671815 0
112.1596 -33.32469 1.921815 0
111.9596 -33.62469 2.171815 0
112.0096 -33.47469 2.121815 0
111.9596 -33.47469 2.221815 0
112.0596 -33.47469 2.071815 0
112.1096 -33.52469 2.171815 0
112.0096 -33.57469 2.421815 0
111.9596 -33.52469 2.321815 0
111.9596 -33.47469 2.421815 0
112.0096 -33.52469 2.371815 0
112.0596 -33.57469 2.371815 0
112.0596 -33.47469 2.371815 0
111.9596 -33.32469 2.121815 0
112.1096 -33.37469 2.071815 0
112.1096 -33.37469 2.221815 0
112.0596 -33.27469 2.071815 0
112.1096 -33.27469 2.221815 0
111.9596 -33.32469 2.271815 0
112.0096 -33.32469 2.371815 0
112.0096 -33.32469 2.421815 0
112.0596 -33.42469 2.371815 0
112.0596 -33.32469 2.371815 0
112.1596 -33.62469 2.421815 0
112.1596 -33.52469 2.371815 0
112.2096 -33.32469 2.071815 0
112.3096 -33.42469 2.221815 0
112.2096 -33.32469 2.371815 0
112.0096 -33.22469 1.671815 0
112.0096 -33.22469 1.721815 0
112.0096 -33.17469 1.821815 0
112.0096 -33.07469 1.721815 0
112.1096 -33.12469 1.671815 0
111.9596 -33.17469 2.021815 0
112.0096 -33.22469 2.021815 0
112.0096 -33.07469 2.021815 0
112.0596 -33.22469 1.971815 0
112.0596 -33.12469 2.021815 0
112.0596 -33.07469 1.971815 0
111.9596 -33.02469 1.821815 0
112.0096 -32.92469 1.721815 0
112.1096 -33.02469 1.671815 0
112.1096 -32.87469 1.671815 0
112.0096 -32.97469 1.971815 0
112.0096 -32.97469 2.021815 0
112.0596 -33.02469 2.021815 0
112.0596 -32.97469 1.971815 0
112.0596 -32.87469 1.971815 0
112.0596 -32.87469 2.021815 0
112.1096 -32.87469 1.971815 0
112.1596 -33.12469 1.771815 0
112.3096 -33.17469 1.721815 0
112.2596 -33.17469 1.821815 0
112.2096 -33.17469 1.921815 0
112.1596 -32.97469 1.821815 0
112.3096 -32.92469 1.721815 0
112.2096 -32.97469 1.971815 0
112.0096 -33.22469 2.121815 0
111.9596 -33.22469 2.171815 0
111.9596 -33.07469 2.121815 0
112.1096 -33.12469 2.071815 0
112.1096 -33.12469 2.221815 0
112.0096 -33.17469 2.271815 0
112.0096 -33.22469 2.371815 0
112.0096 -33.22469 2.421815 0
112.0096 -33.07469 2.421815 0
112.0596 -33.22469 2.371815 0
112.0596 -33.07469 2.321815 0
112.0596 -33.12469 2.371815 0
112.0096 -32.97469 2.171815 0
112.0096 -32.92469 2.121815 0
112.1096 -33.02469 2.071815 0
112.1096 -32.87469 2.071815 0
112.0096 -33.02469 2.271815 0
112.0096 -32.97469 2.371815 0
112.0096 -32.87469 2.371815 0
112.0596 -33.02469 2.371815 0
112.0596 -32.87469 2.321815 0
112.0596 -32.87469 2.371815 0
112.2596 -33.12469 2.071815 0
112.3096 -33.12469 2.221815 0
112.2096 -33.17469 2.421815 0
112.3096 -33.17469 2.271815 0
112.1596 -32.97469 2.221815 0
112.2596 -32.92469 2.121815 0
112.2096 -32.97469 2.421815 0
112.3096 -32.87469 2.271815 0
111.9596 -33.57469 2.521815 0
111.9596 -33.62469 2.571815 0
112.0096 -33.47469 2.571815 0
112.0596 -33.47469 2.471815 0
112.1096 -33.52469 2.621815 0
111.9596 -33.57469 2.821815 0
112.0096 -33.52469 2.721815 0
111.9596 -33.52469 2.771815 0
111.9596 -33.47469 2.771815 0
112.0596 -33.57469 2.771815 0
112.0596 -33.47469 2.771815 0
111.9596 -33.37469 2.521815 0
112.1096 -33.37469 2.471815 0
112.1096 -33.37469 2.621815 0
112.0596 -33.27469 2.471815 0
112.0096 -33.42469 2.721815 0
112.0096 -33.42469 2.821815 0
111.9596 -33.32469 2.721815 0
112.0096 -33.32469 2.721815 0
112.0096 -33.32469 2.821815 0
112.0596 -33.32469 2.771815 0
112.1596 -33.62469 2.821815 0
112.1596 -33.52469 2.821815 0
112.1596 -33.27469 2.621815 0
112.2096 -33.32469 2.571815 0
111.9596 -33.62469 2.971815 0
111.9596 -33.57469 3.021815 0
111.9596 -33.47469 2.971815 0
112.0596 -33.47469 2.871815 0
112.0096 -33.57469 3.121815 0
112.0096 -33.57469 3.221815 0
112.0096 -33.52469 3.121815 0
111.9596 -33.52469 3.221815 0
112.0096 -33.47469 3.221815 0
112.1096 -33.52469 3.071815 0
111.9596 -33.37469 2.971815 0
112.0596 -33.37469 2.871815 0
112.0596 -33.27469 2.871815 0
112.0096 -33.42469 3.121815 0
112.0096 -33.32469 3.121815 0
111.9596 -33.32469 3.221815 0
112.0096 -33.32469 3.221815 0
112.1096 -33.37469 3.071815 0
112.0596 -33.32469 3.121815 0
112.1596 -33.62469 3.221815 0
112.2096 -33.32469 2.871815 0
111.9596 -33.22469 2.521815 0
111.9596 -33.17469 2.471815 0
112.0096 -33.07469 2.521815 0
112.1096 -33.12469 2.471815 0
111.9596 -33.22469 2.721815 0
112.0096 -33.22469 2.721815 0
112.0096 -33.17469 2.721815 0
112.0096 -33.22469 2.771815 0
112.0096 -33.07469 2.721815 0
112.0096 -33.07469 2.771815 0
112.0596 -33.22469 2.771815 0
112.0596 -33.12469 2.771815 0
112.0096 -32.97469 2.471815 0
112.0096 -32.92469 2.521815 0
112.1096 -33.02469 2.471815 0
112.1096 -32.87469 2.471815 0
112.0096 -33.02469 2.721815 0
112.0096 -32.97469 2.671815 0
112.0096 -32.97469 2.771815 0
112.0096 -32.87469 2.771815 0
112.0596 -32.97469 2.721815 0
112.0596 -33.02469 2.771815 0
112.0596 -32.87469 2.721815 0
112.0596 -32.87469 2.771815 0
112.2596 -33.12469 2.621815 0
112.1596 -33.12469 2.671815 0
112.3096 -33.17469 2.821815 0
112.2596 -32.92469 2.621815 0
112.1596 -32.97469 2.671815 0
112.0096 -33.17469 2.921815 0
111.9596 -33.17469 2.971815 0
112.0096 -33.07469 2.921815 0
112.1096 -33.12469 2.871815 0
112.0096 -33.22469 3.121815 0
112.0096 -33.22469 3.171815 0
112.0096 -33.17469 3.171815 0
112.0096 -33.07469 3.121815 0
112.0096 -33.07469 3.171815 0
112.0596 -33.22469 3.121815 0
112.1096 -33.22469 3.071815 0
112.0596 -33.12469 3.121815 0
112.0096 -32.97469 2.921815 0
112.0096 -32.92469 2.921815 0
112.1096 -33.02469 2.871815 0
112.1096 -32.87469 2.871815 0
112.0096 -32.97469 3.121815 0
112.0096 -33.02469 3.171815 0
112.0096 -32.97469 3.171815 0
112.0096 -32.92469 3.221815 0
112.0096 -32.87469 3.171815 0
112.0596 -32.97469 3.171815 0
112.0596 -32.87469 3.121815 0
112.0596 -32.87469 3.171815 0
112.1596 -33.17469 2.871815 0
112.1596 -33.12469 3.071815 0
112.2096 -32.97469 2.921815 0
112.1596 -32.97469 3.121815 0
112.0096 -32.77469 1.671815 0
112.0096 -32.82469 1.821815 0
112.0096 -32.67469 1.671815 0
112.0096 -32.67469 1.821815 0
112.1096 -32.77469 1.721815 0
112.0096 -32.77469 1.971815 0
112.0596 -32.77469 1.971815 0
112.0596 -32.77469 2.021815 0
112.0596 -32.72469 1.971815 0
112.0596 -32.67469 1.971815 0
112.1096 -32.67469 2.021815 0
112.0096 -32.52469 1.671815 0
112.0096 -32.52469 1.771815 0
112.1096 -32.52469 1.721815 0
112.0096 -32.57469 1.921815 0
