# .PCD v0.7 - Point Cloud Data file format
VERSION 0.7
FIELDS x y z intensity
SIZE 4 4 4 4
TYPE F F F F
COUNT 1 1 1 1
WIDTH 1585
HEIGHT 1
VIEWPOINT 0 0 0 1 0 0 0
POINTS 1585
DATA ascii
102.9096 -58.17469 1.221815 0
102.8596 -58.12469 1.221815 0
102.9596 -58.17469 0.8718147 0
102.9596 -58.17469 0.9218147 0
103.0096 -58.17469 0.8718147 0
103.0096 -58.17469 0.9718148 0
103.0096 -58.12469 0.8718147 0
103.0096 -58.12469 0.9218147 0
103.0596 -58.17469 0.8718147 0
103.1096 -58.17469 0.8718147 0
103.1096 -58.17469 0.9218147 0
103.0596 -58.17469 1.021815 0
102.9596 -58.17469 1.121815 0
103.0096 -58.17469 1.071815 0
103.0096 -58.17469 1.121815 0
102.9596 -58.17469 1.171815 0
102.9596 -58.17469 1.221815 0
103.0096 -58.17469 1.221815 0
102.9596 -58.12469 1.121815 0
103.0096 -58.12469 1.221815 0
103.0596 -58.17469 1.121815 0
103.1096 -58.17469 1.121815 0
103.0596 -58.17469 1.171815 0
103.0596 -58.17469 1.221815 0
103.1096 -58.17469 1.221815 0
102.7596 -58.17469 1.271815 0
102.8096 -58.17469 1.271815 0
102.7596 -58.17469 1.421815 0
102.8096 -58.17469 1.421815 0
102.8096 -58.12469 1.371815 0
102.8596 -58.17469 1.371815 0
102.8596 -58.17469 1.421815 0
102.9096 -58.17469 1.421815 0
102.8096 -58.17469 1.471815 0
102.8096 -58.17469 1.521815 0
102.7596 -58.17469 1.571815 0
102.7596 -58.17469 1.621815 0
102.8096 -58.17469 1.571815 0
102.8596 -58.17469 1.471815 0
102.8596 -58.17469 1.571815 0
102.9096 -58.17469 1.571815 0
102.9096 -58.07469 1.521815 0
102.8596 -58.12469 1.621815 0
102.9596 -58.17469 1.271815 0
103.0096 -58.17469 1.321815 0
102.9596 -58.17469 1.371815 0
102.9596 -58.17469 1.421815 0
103.0096 -58.17469 1.421815 0
103.0096 -58.12469 1.371815 0
103.1096 -58.17469 1.321815 0
103.0596 -58.17469 1.421815 0
103.1096 -58.17469 1.421815 0
102.9596 -58.17469 1.471815 0
102.9596 -58.17469 1.571815 0
103.0096 -58.17469 1.571815 0
103.0096 -58.17469 1.621815 0
103.0096 -58.12469 1.621815 0
103.0596 -58.17469 1.471815 0
103.0596 -58.17469 1.571815 0
103.1096 -58.17469 1.571815 0
103.1096 -58.17469 1.621815 0
102.9096 -57.97469 1.121815 0
102.9596 -57.92469 1.271815 0
103.1596 -58.17469 0.8718147 0
103.2096 -58.17469 0.8718147 0
103.2096 -58.17469 0.9218147 0
103.1596 -58.17469 0.9718148 0
103.1596 -58.12469 0.9218147 0
103.1596 -58.07469 1.021815 0
103.2596 -58.17469 0.8718147 0
103.3096 -58.17469 0.9218147 0
103.2596 -58.17469 1.021815 0
103.3096 -58.17469 0.9718148 0
103.3096 -58.12469 0.9218147 0
103.1596 -58.17469 1.121815 0
103.2096 -58.17469 1.121815 0
103.1596 -58.17469 1.171815 0
103.1596 -58.17469 1.221815 0
103.2096 -58.17469 1.221815 0
103.2596 -58.17469 1.121815 0
103.3096 -58.17469 1.121815 0
103.2596 -58.22469 1.171815 0
103.2596 -58.17469 1.221815 0
103.3596 -58.22469 0.9218147 0
103.3596 -58.17469 0.8718147 0
103.3596 -58.07469 1.021815 0
103.5096 -58.22469 0.8718147 0
103.5096 -58.22469 0.9218147 0
103.5096 -58.17469 0.8718147 0
103.5096 -58.17469 0.9218147 0
103.4596 -58.22469 0.9718148 0
103.4596 -58.22469 1.021815 0
103.5096 -58.12469 0.9218147 0
103.3596 -58.17469 1.121815 0
103.4096 -58.17469 1.121815 0
103.3596 -58.22469 1.171815 0
103.3596 -58.22469 1.221815 0
103.3596 -58.17469 1.221815 0
103.4096 -58.17469 1.221815 0
103.4596 -58.17469 1.121815 0
103.5096 -58.22469 1.121815 0
103.5096 -58.17469 1.121815 0
103.4596 -58.17469 1.171815 0
103.5096 -58.22469 1.171815 0
103.5096 -58.22469 1.221815 0
103.5096 -58.17469 1.221815 0
103.1596 -58.17469 1.321815 0
103.2096 -58.22469 1.321815 0
103.1596 -58.17469 1.371815 0
103.1596 -58.17469 1.421815 0
103.2096 -58.17469 1.421815 0
103.1596 -58.12469 1.321815 0
103.3096 -58.17469 1.321815 0
103.2596 -58.17469 1.421815 0
103.3096 -58.17469 1.371815 0
103.3096 -58.17469 1.421815 0
103.1596 -58.22469 1.521815 0
103.1596 -58.17469 1.471815 0
103.1596 -58.17469 1.571815 0
103.1596 -58.17469 1.621815 0
103.2096 -58.17469 1.571815 0
103.2096 -58.17469 1.621815 0
103.1596 -58.07469 1.471815 0
103.1596 -58.12469 1.621815 0
103.2596 -58.17469 1.471815 0
103.2596 -58.17469 1.521815 0
103.2596 -58.17469 1.571815 0
103.2596 -58.17469 1.621815 0
103.3596 -58.17469 1.321815 0
103.3596 -58.17469 1.421815 0
103.4096 -58.17469 1.421815 0
103.3596 -58.12469 1.321815 0
103.4596 -58.17469 1.321815 0
103.5096 -58.22469 1.321815 0
103.5096 -58.17469 1.321815 0
103.4596 -58.17469 1.371815 0
103.4596 -58.17469 1.421815 0
103.5096 -58.22469 1.421815 0
103.5096 -58.12469 1.321815 0
103.3596 -58.17469 1.521815 0
103.4096 -58.17469 1.471815 0
103.3596 -58.17469 1.571815 0
103.3596 -58.17469 1.621815 0
103.4096 -58.17469 1.571815 0
103.3596 -58.07469 1.471815 0
103.4596 -58.17469 1.521815 0
103.5096 -58.22469 1.521815 0
103.5096 -58.17469 1.471815 0
103.4596 -58.17469 1.571815 0
103.5096 -58.22469 1.621815 0
103.5096 -58.17469 1.571815 0
102.0096 -58.17469 1.771815 0
102.0096 -58.07469 1.671815 0
101.9596 -58.12469 1.821815 0
102.0096 -58.12469 1.771815 0
102.0596 -58.12469 1.721815 0
102.0596 -58.12469 1.821815 0
102.1096 -58.12469 1.771815 0
101.9596 -58.17469 1.871815 0
102.0096 -58.12469 1.921815 0
101.9596 -58.12469 2.021815 0
102.0596 -58.17469 2.021815 0
102.0596 -58.12469 1.871815 0
102.0596 -58.07469 1.871815 0
102.1096 -58.12469 1.871815 0
102.1096 -58.12469 1.921815 0
102.0596 -58.12469 2.021815 0
102.2096 -58.17469 1.821815 0
102.1596 -58.07469 1.671815 0
102.2096 -58.12469 1.671815 0
102.1596 -58.12469 1.771815 0
102.2096 -58.12469 1.771815 0
102.3096 -58.17469 1.821815 0
102.2596 -58.12469 1.671815 0
102.3096 -58.12469 1.671815 0
102.3096 -58.12469 1.721815 0
102.2596 -58.12469 1.771815 0
102.2596 -58.12469 1.821815 0
102.2596 -58.07469 1.821815 0
102.3096 -58.12469 1.771815 0
102.1596 -58.17469 1.921815 0
102.2096 -58.17469 1.921815 0
102.2096 -58.12469 1.921815 0
102.2096 -58.12469 2.021815 0
102.3096 -58.17469 1.921815 0
102.2596 -58.12469 1.871815 0
102.2596 -58.12469 1.921815 0
102.3096 -58.12469 2.021815 0
101.9596 -58.12469 2.121815 0
101.9596 -58.07469 2.071815 0
102.0096 -58.12469 2.071815 0
101.9596 -58.12469 2.171815 0
102.0596 -58.12469 2.071815 0
102.0596 -58.12469 2.121815 0
102.1096 -58.12469 2.071815 0
102.1096 -58.12469 2.121815 0
102.0596 -58.12469 2.171815 0
101.9596 -58.17469 2.271815 0
102.0096 -58.12469 2.271815 0
101.9596 -58.12469 2.421815 0
102.0096 -58.12469 2.421815 0
102.1096 -58.17469 2.271815 0
102.0596 -58.12469 2.271815 0
102.1096 -58.12469 2.271815 0
102.1096 -58.07469 2.321815 0
102.0596 -58.12469 2.421815 0
102.1096 -58.12469 2.371815 0
102.1096 -58.12469 2.421815 0
102.2096 -58.17469 2.071815 0
102.2096 -58.17469 2.121815 0
102.1596 -58.12469 2.121815 0
102.2096 -58.12469 2.071815 0
102.2096 -58.12469 2.171815 0
102.3096 -58.17469 2.071815 0
102.3096 -58.17469 2.121815 0
102.2596 -58.12469 2.071815 0
102.2596 -58.12469 2.121815 0
102.1596 -58.17469 2.321815 0
102.2096 -58.17469 2.271815 0
102.2096 -58.17469 2.421815 0
102.2096 -58.12469 2.271815 0
102.2596 -58.17469 2.271815 0
102.2596 -58.12469 2.271815 0
102.2596 -58.12469 2.321815 0
102.2596 -58.07469 2.271815 0
102.3096 -58.12469 2.271815 0
102.3096 -58.12469 2.371815 0
102.3096 -58.12469 2.421815 0
102.0096 -57.97469 1.721815 0
102.2096 -57.87469 1.921815 0
101.9596 -58.02469 2.071815 0
102.0096 -57.97469 2.321815 0
102.2096 -58.02469 2.071815 0
102.3096 -57.97469 2.271815 0
102.3596 -58.17469 1.671815 0
102.3596 -58.17469 1.771815 0
102.4096 -58.17469 1.771815 0
102.4096 -58.12469 1.671815 0
102.4096 -58.12469 1.821815 0
102.4596 -58.17469 1.671815 0
102.5096 -58.17469 1.671815 0
102.5096 -58.17469 1.771815 0
102.5096 -58.17469 1.821815 0
102.4596 -58.12469 1.771815 0
102.4596 -58.12469 1.821815 0
102.4596 -58.07469 1.821815 0
102.5096 -58.12469 1.771815 0
102.3596 -58.17469 1.921815 0
102.4096 -58.17469 1.921815 0
102.3596 -58.12469 1.871815 0
102.4096 -58.12469 1.921815 0
102.4096 -58.12469 2.021815 0
102.4596 -58.17469 1.921815 0
102.5096 -58.17469 1.921815 0
102.4596 -58.12469 1.871815 0
102.4596 -58.12469 2.021815 0
102.5596 -58.17469 1.671815 0
102.5596 -58.17469 1.771815 0
102.6096 -58.17469 1.821815 0
102.6596 -58.17469 1.671815 0
102.7096 -58.17469 1.671815 0
102.6596 -58.17469 1.771815 0
102.7096 -58.17469 1.821815 0
102.6596 -58.12469 1.771815 0
102.6596 -58.07469 1.821815 0
102.5596 -58.17469 1.921815 0
102.6096 -58.17469 1.921815 0
102.6096 -58.12469 1.871815 0
102.5596 -58.12469 2.021815 0
102.6596 -58.17469 1.871815 0
102.6596 -58.17469 1.921815 0
102.7096 -58.17469 1.921815 0
102.7096 -58.12469 1.871815 0
102.7096 -58.12469 2.021815 0
102.3596 -58.17469 2.071815 0
102.4096 -58.17469 2.071815 0
102.3596 -58.17469 2.171815 0
102.4096 -58.17469 2.171815 0
102.3596 -58.12469 2.121815 0
102.3596 -58.12469 2.221815 0
102.5096 -58.17469 2.071815 0
102.5096 -58.17469 2.121815 0
102.5096 -58.17469 2.171815 0
102.4596 -58.12469 2.121815 0
102.4596 -58.12469 2.221815 0
102.3596 -58.17469 2.271815 0
102.3596 -58.17469 2.321815 0
102.4096 -58.17469 2.421815 0
102.4096 -58.12469 2.271815 0
102.4596 -58.17469 2.321815 0
102.5096 -58.17469 2.271815 0
102.4596 -58.17469 2.371815 0
102.4596 -58.17469 2.421815 0
102.5096 -58.17469 2.421815 0
102.4596 -58.07469 2.271815 0
102.5596 -58.17469 2.071815 0
102.6096 -58.17469 2.171815 0
102.5596 -58.12469 2.121815 0
102.6096 -58.12469 2.221815 0
102.6596 -58.17469 2.071815 0
102.7096 -58.17469 2.071815 0
102.6596 -58.17469 2.221815 0
102.7096 -58.17469 2.171815 0
102.7096 -58.17469 2.221815 0
102.6596 -58.12469 2.121815 0
102.5596 -58.17469 2.321815 0
102.6096 -58.17469 2.271815 0
102.5596 -58.17469 2.421815 0
102.6096 -58.17469 2.371815 0
102.5596 -58.12469 2.421815 0
102.6596 -58.17469 2.321815 0
102.7096 -58.17469 2.321815 0
102.6596 -58.17469 2.421815 0
102.6596 -58.07469 2.271815 0
102.7096 -58.12469 2.421815 0
102.3596 -57.97469 1.721815 0
102.4596 -58.02469 2.021815 0
102.6096 -57.97469 1.671815 0
102.6096 -57.92469 1.921815 0
102.7096 -58.02469 2.021815 0
102.6596 -57.97469 2.221815 0
101.9596 -58.12469 2.471815 0
101.9596 -58.07469 2.521815 0
101.9596 -58.12469 2.621815 0
102.0096 -58.12469 2.621815 0
102.1096 -58.17469 2.471815 0
102.1096 -58.17469 2.621815 0
102.0596 -58.12469 2.471815 0
102.0596 -58.12469 2.521815 0
102.0596 -58.12469 2.571815 0
102.1096 -58.12469 2.621815 0
102.0096 -58.12469 2.671815 0
102.2096 -58.17469 2.471815 0
102.2096 -58.17469 2.571815 0
102.1596 -58.12469 2.471815 0
102.1596 -58.07469 2.471815 0
102.2096 -58.12469 2.471815 0
102.2096 -58.12469 2.621815 0
102.3096 -58.17469 2.471815 0
102.2596 -58.12469 2.471815 0
102.3096 -58.12469 2.471815 0
102.2596 -58.12469 2.621815 0
102.3096 -58.12469 2.621815 0
102.1596 -58.17469 2.671815 0
102.2096 -58.17469 2.671815 0
102.2596 -58.17469 2.671815 0
102.3096 -58.12469 2.671815 0
101.9596 -58.02469 2.571815 0
101.9596 -57.82469 2.671815 0
101.9596 -57.72469 2.721815 0
102.0096 -57.72469 2.721815 0
102.0096 -57.67469 2.821815 0
102.0596 -57.82469 2.671815 0
102.0596 -57.72469 2.671815 0
102.0596 -57.72469 2.721815 0
102.0596 -57.67469 2.721815 0
102.1096 -57.72469 2.721815 0
102.0596 -57.72469 2.771815 0
102.1096 -57.72469 2.771815 0
102.1096 -57.72469 2.821815 0
102.2096 -58.02469 2.571815 0
102.2096 -57.87469 2.571815 0
102.1596 -57.82469 2.671815 0
102.1596 -57.72469 2.721815 0
102.1596 -57.67469 2.821815 0
102.2096 -57.72469 2.771815 0
102.2596 -57.82469 2.671815 0
102.2596 -57.72469 2.671815 0
102.2596 -57.72469 2.721815 0
102.3096 -57.72469 2.721815 0
102.3096 -57.67469 2.671815 0
102.3096 -57.72469 2.771815 0
102.3096 -57.67469 2.771815 0
101.9596 -57.72469 2.921815 0
102.0096 -57.72469 2.921815 0
102.0096 -57.67469 2.921815 0
102.0596 -57.72469 2.921815 0
102.1096 -57.72469 2.921815 0
101.9596 -57.72469 3.171815 0
102.0096 -57.67469 3.221815 0
102.0596 -57.72469 3.071815 0
102.0596 -57.72469 3.121815 0
102.1096 -57.72469 3.121815 0
102.0596 -57.72469 3.171815 0
102.1096 -57.72469 3.221815 0
102.1096 -57.67469 3.171815 0
102.1596 -57.72469 2.871815 0
102.1596 -57.72469 2.921815 0
102.2096 -57.72469 2.921815 0
102.2596 -57.77469 2.921815 0
102.2596 -57.72469 2.871815 0
102.2596 -57.72469 2.921815 0
102.3096 -57.72469 2.921815 0
102.1596 -57.72469 3.071815 0
102.1596 -57.67469 3.221815 0
102.2096 -57.72469 3.171815 0
102.2596 -57.72469 3.121815 0
102.3096 -57.72469 3.071815 0
102.3096 -57.72469 3.121815 0
102.3096 -57.67469 3.121815 0
102.3096 -57.67469 3.221815 0
102.3596 -58.17469 2.471815 0
102.4096 -58.17469 2.471815 0
102.4096 -58.17469 2.571815 0
102.4096 -58.17469 2.621815 0
102.3596 -58.12469 2.471815 0
102.4096 -58.12469 2.471815 0
102.3596 -58.12469 2.621815 0
102.4596 -58.17469 2.471815 0
102.5096 -58.17469 2.471815 0
102.5096 -58.17469 2.521815 0
102.5096 -58.17469 2.621815 0
102.4596 -58.12469 2.621815 0
102.5096 -58.12469 2.621815 0
102.3596 -58.17469 2.671815 0
102.4096 -58.07469 2.671815 0
102.5096 -58.17469 2.671815 0
102.4596 -58.12469 2.671815 0
102.5596 -58.17469 2.471815 0
102.6096 -58.17469 2.521815 0
102.6096 -58.17469 2.621815 0
102.6096 -58.12469 2.571815 0
102.6596 -58.17469 2.471815 0
102.6596 -58.17469 2.521815 0
102.7096 -58.17469 2.521815 0
102.6596 -58.17469 2.621815 0
102.6596 -58.07469 2.521815 0
102.7096 -58.12469 2.571815 0
102.5596 -58.12469 2.671815 0
102.5596 -58.07469 2.671815 0
102.6596 -58.07469 2.671815 0
102.7096 -58.12469 2.671815 0
102.7096 -58.07469 2.671815 0
102.4596 -58.02469 2.521815 0
102.5096 -58.02469 2.671815 0
102.4096 -57.82469 2.671815 0
102.3596 -57.72469 2.671815 0
102.4096 -57.72469 2.721815 0
102.3596 -57.72469 2.821815 0
102.5096 -57.82469 2.671815 0
102.5096 -57.77469 2.721815 0
102.4596 -57.72469 2.671815 0
102.5096 -57.67469 2.671815 0
102.4596 -57.72469 2.821815 0
102.4596 -57.67469 2.771815 0
102.5096 -57.72469 2.821815 0
102.6096 -57.92469 2.521815 0
102.6096 -57.97469 2.671815 0
102.7096 -57.92469 2.671815 0
102.6096 -57.82469 2.671815 0
102.6096 -57.77469 2.771815 0
102.5596 -57.72469 2.671815 0
102.5596 -57.72469 2.721815 0
102.6096 -57.72469 2.771815 0
102.7096 -57.82469 2.671815 0
102.6596 -57.72469 2.671815 0
102.6596 -57.72469 2.771815 0
102.6596 -57.72469 2.821815 0
102.7096 -57.72469 2.771815 0
102.3596 -57.72469 2.871815 0
102.3596 -57.72469 2.921815 0
102.4096 -57.72469 2.921815 0
102.4096 -57.72469 2.971815 0
102.5096 -57.77469 2.971815 0
102.4596 -57.72469 2.871815 0
102.5096 -57.72469 2.921815 0
102.4096 -57.72469 3.121815 0
102.3596 -57.72469 3.221815 0
102.5096 -57.72469 3.121815 0
102.5096 -57.67469 3.121815 0
102.4596 -57.72469 3.171815 0
102.4596 -57.67469 3.171815 0
102.5096 -57.72469 3.221815 0
102.5596 -57.72469 2.871815 0
102.5596 -57.72469 2.971815 0
102.6096 -57.72469 2.971815 0
102.6596 -57.72469 2.871815 0
102.6596 -57.72469 2.921815 0
102.6596 -57.72469 2.971815 0
102.7096 -57.72469 2.971815 0
102.7096 -57.72469 3.021815 0
102.6096 -57.72469 3.171815 0
102.6596 -57.72469 3.121815 0
102.7096 -57.67469 3.071815 0
102.8096 -58.17469 1.671815 0
102.8096 -58.17469 1.721815 0
102.7596 -58.17469 1.771815 0
102.8096 -58.17469 1.771815 0
102.8096 -58.17469 1.821815 0
102.8096 -58.07469 1.771815 0
102.8596 -58.17469 1.771815 0
102.9096 -58.17469 1.771815 0
102.7596 -58.17469 1.921815 0
102.8096 -58.17469 1.871815 0
102.8096 -58.17469 1.971815 0
102.8596 -58.17469 1.921815 0
102.9096 -58.17469 1.921815 0
102.8596 -58.17469 1.971815 0
102.9096 -58.17469 1.971815 0
102.8596 -58.12469 2.021815 0
102.9096 -58.07469 1.971815 0
102.9596 -58.17469 1.671815 0
103.0096 -58.17469 1.721815 0
102.9596 -58.17469 1.771815 0
102.9596 -58.17469 1.821815 0
103.0096 -58.17469 1.771815 0
103.0096 -58.17469 1.821815 0
103.0096 -58.12469 1.771815 0
103.0596 -58.17469 1.671815 0
103.0596 -58.17469 1.771815 0
103.0596 -58.17469 1.821815 0
103.1096 -58.17469 1.771815 0
102.9596 -58.17469 1.921815 0
103.0096 -58.17469 1.921815 0
102.9596 -58.17469 1.971815 0
103.0096 -58.17469 1.971815 0
103.0096 -58.12469 1.971815 0
103.0596 -58.17469 1.921815 0
103.1096 -58.17469 1.921815 0
103.0596 -58.17469 1.971815 0
103.1096 -58.17469 1.971815 0
102.7596 -58.17469 2.121815 0
102.8096 -58.17469 2.071815 0
102.8096 -58.17469 2.121815 0
102.8096 -58.17469 2.171815 0
102.8096 -58.17469 2.221815 0
102.8096 -58.12469 2.221815 0
102.8596 -58.17469 2.121815 0
102.9096 -58.17469 2.071815 0
102.9096 -58.17469 2.171815 0
102.7596 -58.17469 2.271815 0
102.7596 -58.17469 2.321815 0
102.8096 -58.17469 2.321815 0
102.7596 -58.17469 2.421815 0
102.8096 -58.17469 2.421815 0
102.8596 -58.17469 2.271815 0
102.8596 -58.17469 2.321815 0
102.9096 -58.17469 2.321815 0
102.8596 -58.17469 2.421815 0
102.9096 -58.17469 2.371815 0
102.9096 -58.17469 2.421815 0
102.8596 -58.12469 2.421815 0
102.9596 -58.17469 2.071815 0
102.9596 -58.17469 2.121815 0
103.0096 -58.17469 2.071815 0
103.0096 -58.17469 2.121815 0
102.9596 -58.17469 2.221815 0
103.0096 -58.17469 2.171815 0
103.0096 -58.12469 2.221815 0
103.0596 -58.17469 2.071815 0
103.1096 -58.17469 2.071815 0
103.0596 -58.17469 2.171815 0
102.9596 -58.17469 2.271815 0
102.9596 -58.17469 2.321815 0
103.0096 -58.17469 2.271815 0
103.0096 -58.17469 2.321815 0
102.9596 -58.17469 2.421815 0
103.0096 -58.17469 2.421815 0
103.0096 -58.12469 2.371815 0
103.0596 -58.17469 2.271815 0
103.1096 -58.17469 2.271815 0
103.0596 -58.17469 2.421815 0
103.1096 -58.17469 2.371815 0
103.1096 -58.17469 2.421815 0
102.9096 -58.02469 1.671815 0
102.9596 -57.92469 1.871815 0
102.9096 -58.02469 2.221815 0
103.1596 -58.17469 1.721815 0
103.2096 -58.17469 1.671815 0
103.1596 -58.17469 1.771815 0
103.1596 -58.17469 1.821815 0
103.2096 -58.17469 1.771815 0
103.1596 -58.12469 1.771815 0
103.3096 -58.17469 1.721815 0
103.2596 -58.17469 1.771815 0
103.2596 -58.17469 1.821815 0
103.3096 -58.17469 1.771815 0
103.3096 -58.17469 1.821815 0
103.1596 -58.17469 1.921815 0
103.2096 -58.17469 1.921815 0
103.1596 -58.17469 1.971815 0
103.1596 -58.12469 1.971815 0
103.1596 -58.07469 1.971815 0
103.2596 -58.17469 1.871815 0
103.2596 -58.17469 1.921815 0
103.3096 -58.17469 1.921815 0
103.2596 -58.22469 1.971815 0
103.2596 -58.17469 1.971815 0
103.2596 -58.12469 1.971815 0
103.3596 -58.17469 1.721815 0
103.3596 -58.17469 1.771815 0
103.4096 -58.22469 1.771815 0
103.4096 -58.17469 1.821815 0
103.3596 -58.12469 1.771815 0
103.5096 -58.17469 1.671815 0
103.5096 -58.17469 1.721815 0
103.4596 -58.22469 1.771815 0
103.4596 -58.17469 1.821815 0
103.5096 -58.22469 1.771815 0
103.5096 -58.17469 1.771815 0
103.5096 -58.17469 1.821815 0
103.5096 -58.12469 1.721815 0
103.3596 -58.22469 1.871815 0
103.3596 -58.17469 1.921815 0
103.3596 -58.22469 2.021815 0
103.3596 -58.17469 1.971815 0
103.4096 -58.17469 1.971815 0
103.3596 -58.07469 1.921815 0
103.4596 -58.17469 1.921815 0
103.5096 -58.22469 1.871815 0
103.5096 -58.17469 1.921815 0
103.4596 -58.17469 2.021815 0
103.5096 -58.22469 2.021815 0
103.5096 -58.17469 1.971815 0
103.1596 -58.17469 2.121815 0
103.2096 -58.17469 2.071815 0
103.1596 -58.17469 2.171815 0
103.1596 -58.12469 2.171815 0
103.2596 -58.17469 2.071815 0
103.3096 -58.17469 2.071815 0
103.2596 -58.22469 2.221815 0
103.2596 -58.17469 2.171815 0
103.3096 -58.17469 2.171815 0
103.3096 -58.12469 2.171815 0
103.1596 -58.17469 2.271815 0
103.1596 -58.17469 2.321815 0
103.2096 -58.17469 2.271815 0
103.1596 -58.17469 2.421815 0
103.2096 -58.17469 2.421815 0
103.1596 -58.12469 2.371815 0
103.2596 -58.17469 2.271815 0
103.2596 -58.17469 2.321815 0
103.3096 -58.17469 2.271815 0
103.2596 -58.22469 2.371815 0
103.2596 -58.17469 2.371815 0
103.2596 -58.17469 2.421815 0
103.3096 -58.17469 2.421815 0
103.3596 -58.22469 2.121815 0
103.3596 -58.17469 2.071815 0
103.4096 -58.22469 2.121815 0
103.3596 -58.22469 2.221815 0
103.3596 -58.17469 2.171815 0
103.4596 -58.22469 2.071815 0
103.5096 -58.22469 2.121815 0
103.5096 -58.17469 2.121815 0
103.5096 -58.22469 2.171815 0
103.5096 -58.22469 2.221815 0
103.5096 -58.17469 2.171815 0
103.5096 -58.17469 2.221815 0
103.5096 -58.12469 2.171815 0
103.3596 -58.17469 2.271815 0
103.3596 -58.22469 2.371815 0
103.3596 -58.17469 2.371815 0
103.3596 -58.17469 2.421815 0
103.4096 -58.22469 2.421815 0
103.4096 -58.12469 2.321815 0
103.3596 -58.07469 2.421815 0
103.4596 -58.22469 2.271815 0
103.4596 -58.17469 2.271815 0
103.5096 -58.17469 2.271815 0
103.4596 -58.22469 2.421815 0
103.5096 -58.22469 2.421815 0
103.5096 -58.17469 2.371815 0
102.8096 -58.17469 2.471815 0
102.8096 -58.17469 2.521815 0
102.7596 -58.17469 2.621815 0
102.8096 -58.17469 2.571815 0
102.9096 -58.17469 2.521815 0
102.8596 -58.17469 2.621815 0
102.9096 -58.07469 2.471815 0
102.8096 -58.17469 2.671815 0
102.8096 -58.12469 2.671815 0
102.9096 -58.12469 2.671815 0
102.9596 -58.17469 2.471815 0
102.9596 -58.17469 2.571815 0
102.9596 -58.17469 2.621815 0
103.0096 -58.17469 2.571815 0
103.0596 -58.17469 2.471815 0
103.0596 -58.17469 2.521815 0
103.1096 -58.17469 2.471815 0
103.0596 -58.17469 2.621815 0
103.1096 -58.17469 2.621815 0
103.0096 -58.17469 2.671815 0
102.9596 -58.12469 2.671815 0
103.0096 -58.12469 2.671815 0
103.0096 -58.07469 2.671815 0
103.1096 -58.17469 2.671815 0
103.0596 -58.07469 2.671815 0
103.1096 -58.07469 2.671815 0
102.8096 -57.92469 2.621815 0
102.7596 -57.97469 2.671815 0
102.8096 -57.87469 2.671815 0
102.9096 -58.02469 2.671815 0
102.7596 -57.82469 2.671815 0
102.8096 -57.82469 2.671815 0
102.8096 -57.77469 2.671815 0
102.7596 -57.72469 2.721815 0
102.7596 -57.72469 2.771815 0
102.8096 -57.72469 2.771815 0
102.8096 -57.72469 2.821815 0
102.8596 -57.82469 2.671815 0
102.9096 -57.82469 2.671815 0
102.9096 -57.77469 2.771815 0
102.9096 -57.72469 2.721815 0
102.9096 -57.72469 2.771815 0
102.9096 -57.72469 2.821815 0
102.9596 -57.92469 2.471815 0
103.0096 -57.82469 2.671815 0
103.0096 -57.77469 2.671815 0
103.0096 -57.77469 2.721815 0
103.0096 -57.77469 2.771815 0
102.9596 -57.72469 2.671815 0
103.0096 -57.72469 2.671815 0
103.0096 -57.72469 2.721815 0
103.0096 -57.72469 2.821815 0
103.0596 -57.82469 2.671815 0
103.0596 -57.77469 2.671815 0
103.1096 -57.77469 2.671815 0
103.0596 -57.77469 2.771815 0
103.1096 -57.77469 2.821815 0
103.1096 -57.72469 2.821815 0
102.8096 -57.77469 2.871815 0
102.7596 -57.77469 2.971815 0
102.7596 -57.72469 2.871815 0
102.8096 -57.72469 2.921815 0
102.8096 -57.72469 2.971815 0
102.8596 -57.77469 3.021815 0
102.8596 -57.72469 2.871815 0
102.9096 -57.72469 2.921815 0
102.8596 -57.72469 3.021815 0
102.8596 -57.67469 3.021815 0
102.7596 -57.72469 3.121815 0
102.7596 -57.72469 3.171815 0
102.9096 -57.72469 3.121815 0
102.8596 -57.72469 3.221815 0
102.9096 -57.72469 3.171815 0
102.9596 -57.77469 2.871815 0
103.0096 -57.77469 2.921815 0
102.9596 -57.77469 2.971815 0
103.0096 -57.77469 3.021815 0
102.9596 -57.72469 2.871815 0
102.9596 -57.72469 2.921815 0
103.0596 -57.77469 2.871815 0
103.1096 -57.77469 2.921815 0
103.0596 -57.77469 2.971815 0
103.0596 -57.67469 3.021815 0
103.0096 -57.77469 3.171815 0
103.0096 -57.72469 3.071815 0
103.0096 -57.72469 3.221815 0
103.1096 -57.77469 3.071815 0
103.1596 -58.17469 2.521815 0
103.2096 -58.17469 2.471815 0
103.1596 -58.17469 2.571815 0
103.1596 -58.17469 2.621815 0
103.1596 -58.07469 2.471815 0
103.1596 -58.12469 2.621815 0
103.2596 -58.17469 2.471815 0
103.2596 -58.17469 2.521815 0
103.2596 -58.22469 2.571815 0
103.2596 -58.17469 2.621815 0
103.3096 -58.17469 2.571815 0
103.2096 -58.17469 2.671815 0
103.3596 -58.17469 2.521815 0
103.4096 -58.17469 2.521815 0
103.3596 -58.17469 2.571815 0
103.3596 -58.17469 2.621815 0
103.3596 -58.12469 2.621815 0
103.4596 -58.17469 2.471815 0
103.5096 -58.22469 2.521815 0
103.5096 -58.17469 2.521815 0
103.4596 -58.17469 2.621815 0
103.5096 -58.22469 2.571815 0
103.5096 -58.22469 2.621815 0
103.5096 -58.12469 2.571815 0
103.3596 -58.17469 2.671815 0
103.4596 -58.17469 2.671815 0
103.4596 -58.12469 2.671815 0
103.1596 -57.97469 2.671815 0
103.2096 -58.02469 2.671815 0
103.3096 -57.92469 2.671815 0
103.1596 -57.77469 2.671815 0
103.2096 -57.77469 2.671815 0
103.1596 -57.77469 2.821815 0
103.2096 -57.77469 2.821815 0
103.1596 -57.72469 2.671815 0
103.2596 -57.77469 2.671815 0
103.3096 -57.82469 2.671815 0
103.3096 -57.77469 2.821815 0
103.3096 -57.72469 2.671815 0
103.2596 -57.72469 2.771815 0
103.3596 -58.02469 2.671815 0
103.4096 -57.87469 2.671815 0
103.4596 -58.02469 2.671815 0
103.3596 -57.77469 2.671815 0
103.4096 -57.82469 2.671815 0
103.4096 -57.77469 2.721815 0
103.3596 -57.77469 2.821815 0
103.4096 -57.77469 2.821815 0
103.4096 -57.72469 2.671815 0
103.3596 -57.72469 2.771815 0
103.4596 -57.77469 2.671815 0
103.5096 -57.82469 2.671815 0
103.5096 -57.77469 2.671815 0
103.5096 -57.77469 2.721815 0
103.4596 -57.77469 2.771815 0
103.4596 -57.77469 2.821815 0
103.1596 -57.77469 2.871815 0
103.1596 -57.77469 2.921815 0
103.2096 -57.77469 2.921815 0
103.1596 -57.77469 2.971815 0
103.2096 -57.67469 2.871815 0
103.2096 -57.72469 2.971815 0
103.2596 -57.77469 2.871815 0
103.2596 -57.77469 2.921815 0
103.3096 -57.77469 2.921815 0
103.2596 -57.77469 2.971815 0
103.3096 -57.77469 2.971815 0
103.1596 -57.77469 3.071815 0
103.1596 -57.77469 3.221815 0
103.1596 -57.72469 3.071815 0
103.2596 -57.77469 3.071815 0
103.2596 -57.77469 3.221815 0
103.3096 -57.77469 3.221815 0
103.3096 -57.72469 3.071815 0
103.3596 -57.77469 2.871815 0
103.4096 -57.77469 2.921815 0
103.3596 -57.77469 3.021815 0
103.4096 -57.67469 2.871815 0
103.4096 -57.72469 2.971815 0
103.4096 -57.72469 3.021815 0
103.4596 -57.77469 2.871815 0
103.4596 -57.77469 2.921815 0
103.5096 -57.77469 2.921815 0
103.4596 -57.77469 2.971815 0
103.5096 -57.77469 3.021815 0
103.3596 -57.77469 3.071815 0
103.4096 -57.77469 3.221815 0
103.5096 -57.77469 3.121815 0
101.9596 -57.62469 2.721815 0
102.1596 -57.62469 2.721815 0
102.0596 -57.52469 2.871815 0
101.9596 -57.62469 3.221815 0
102.0596 -57.57469 3.071815 0
102.2596 -57.62469 3.021815 0
102.2096 -57.47469 3.171815 0
102.4096 -57.52469 2.821815 0
102.6596 -57.57469 2.771815 0
102.5096 -57.62469 2.971815 0
102.5596 -57.47469 3.121815 0
102.9096 -57.57469 2.771815 0
102.7596 -57.42469 2.771815 0
103.0096 -57.57469 2.721815 0
102.7596 -57.62469 2.971815 0
103.0096 -57.62469 2.921815 0
102.9596 -57.52469 3.071815 0
103.2596 -57.57469 2.671815 0
103.5096 -57.62469 2.671815 0
103.2596 -57.57469 3.221815 0
103.3596 -57.52469 3.021815 0
100.3596 -57.67469 3.271815 0
100.5596 -57.67469 3.271815 0
100.6096 -57.67469 3.321815 0
100.7096 -57.67469 3.321815 0
100.6596 -57.67469 3.471815 0
100.5096 -57.67469 3.721815 0
100.6096 -57.67469 3.821815 0
100.5596 -57.67469 3.871815 0
100.8096 -57.67469 3.371815 0
100.8596 -57.67469 3.321815 0
100.9096 -57.67469 3.271815 0
100.7596 -57.67469 3.471815 0
100.7596 -57.67469 3.571815 0
101.0096 -57.67469 3.371815 0
101.0096 -57.67469 3.421815 0
100.9596 -57.67469 3.521815 0
101.1096 -57.67469 3.521815 0
101.0596 -57.67469 3.621815 0
100.7596 -57.67469 3.771815 0
100.4596 -57.67469 4.721815 0
100.5596 -57.67469 4.571815 0
101.1596 -57.67469 3.371815 0
101.2096 -57.67469 3.421815 0
101.2596 -57.67469 3.271815 0
101.3096 -57.72469 3.321815 0
101.2596 -57.67469 3.521815 0
101.3596 -57.67469 3.421815 0
101.5096 -57.67469 3.321815 0
101.4096 -57.67469 3.471815 0
101.4096 -57.67469 3.571815 0
101.5096 -57.67469 3.471815 0
101.4096 -57.67469 3.671815 0
101.5596 -57.67469 3.271815 0
101.7096 -57.67469 3.271815 0
101.6096 -57.67469 3.521815 0
101.6096 -57.67469 3.621815 0
101.7096 -57.72469 3.471815 0
101.8096 -57.72469 3.371815 0
101.8596 -57.72469 3.321815 0
101.8596 -57.67469 3.271815 0
101.7596 -57.72469 3.621815 0
101.8596 -57.72469 3.521815 0
101.7596 -57.67469 3.721815 0
101.8096 -57.67469 4.021815 0
100.5596 -57.67469 5.221815 0
100.4096 -57.62469 3.321815 0
100.3596 -57.52469 3.321815 0
100.4596 -57.62469 3.421815 0
100.3596 -57.57469 3.521815 0
100.4596 -57.62469 3.521815 0
100.4596 -57.57469 3.471815 0
100.6596 -57.57469 3.421815 0
100.7096 -57.52469 3.271815 0
100.5596 -57.57469 3.521815 0
100.7096 -57.62469 3.471815 0
100.4096 -57.62469 3.771815 0
100.3596 -57.52469 3.871815 0
100.4596 -57.57469 3.971815 0
100.7096 -57.47469 3.671815 0
100.9096 -57.62469 3.421815 0
100.9096 -57.57469 3.371815 0
101.1096 -57.62469 3.321815 0
101.0596 -57.62469 3.421815 0
101.0596 -57.47469 3.621815 0
100.9596 -57.37469 3.371815 0
100.7596 -57.62469 3.821815 0
100.7596 -57.47469 3.821815 0
100.7596 -57.52469 3.921815 0
100.8596 -57.62469 3.921815 0
100.9596 -57.62469 3.771815 0
101.0096 -57.52469 3.771815 0
100.9596 -57.62469 3.871815 0
100.9596 -57.52469 3.871815 0
101.0596 -57.32469 4.021815 0
100.4596 -57.62469 4.121815 0
100.5096 -57.62469 4.271815 0
100.7096 -57.57469 4.171815 0
100.7096 -57.62469 4.271815 0
100.4096 -57.52469 4.471815 0
100.7096 -57.57469 4.771815 0
100.7596 -57.47469 4.371815 0
100.8096 -57.42469 4.271815 0
101.0096 -57.62469 4.221815 0
100.9596 -57.62469 4.321815 0
101.0596 -57.47469 4.321815 0
100.8596 -57.62469 4.621815 0
101.0096 -57.62469 4.821815 0
101.0596 -57.37469 4.721815 0
101.2096 -57.62469 3.371815 0
101.3596 -57.62469 3.321815 0
101.4096 -57.62469 3.371815 0
101.4096 -57.52469 3.521815 0
101.4096 -57.42469 3.321815 0
101.1596 -57.57469 3.821815 0
101.2096 -57.62469 3.821815 0
101.2596 -57.57469 3.721815 0
101.1596 -57.62469 3.921815 0
101.2096 -57.62469 3.971815 0
101.4096 -57.57469 3.771815 0
101.5096 -57.57469 3.671815 0
101.3596 -57.62469 3.971815 0
101.4596 -57.62469 3.871815 0
101.5096 -57.37469 3.971815 0
101.5596 -57.62469 3.271815 0
101.5596 -57.62469 3.321815 0
101.7596 -57.57469 3.621815 0
101.7596 -57.52469 3.471815 0
101.5596 -57.62469 3.721815 0
101.5596 -57.62469 4.021815 0
101.7096 -57.62469 3.921815 0
101.7596 -57.62469 3.721815 0
101.9096 -57.37469 3.871815 0
101.2096 -57.62469 4.371815 0
101.3096 -57.52469 4.271815 0
101.1596 -57.42469 4.171815 0
101.5096 -57.47469 4.121815 0
101.3596 -57.62469 4.271815 0
101.5096 -57.62469 4.421815 0
101.2096 -57.62469 4.671815 0
101.1596 -57.42469 4.821815 0
101.5096 -57.47469 4.721815 0
101.5096 -57.37469 4.621815 0
101.6096 -57.52469 4.221815 0
101.6596 -57.62469 4.321815 0
101.8596 -57.52469 4.121815 0
101.8596 -57.47469 4.071815 0
101.7596 -57.62469 4.521815 0
101.8096 -57.47469 4.671815 0
101.9096 -57.37469 4.521815 0
100.8096 -57.42469 4.921815 0
100.8096 -57.62469 5.271815 0
101.0596 -57.37469 5.421815 0
101.3596 -57.62469 4.921815 0
101.5096 -57.37469 5.321815 0
101.7096 -57.62469 4.971815 0
101.9096 -57.42469 5.221815 0
101.9596 -57.72469 3.321815 0
102.1096 -57.72469 3.321815 0
102.0596 -57.72469 3.421815 0
102.0596 -57.72469 3.571815 0
102.1096 -57.67469 3.621815 0
102.3096 -57.72469 3.271815 0
102.2596 -57.72469 3.371815 0
102.2596 -57.72469 3.571815 0
102.3096 -57.72469 3.621815 0
102.3096 -57.67469 3.571815 0
101.9596 -57.72469 3.671815 0
102.1096 -57.72469 3.671815 0
102.1096 -57.72469 3.771815 0
102.0096 -57.67469 3.971815 0
102.3096 -57.72469 3.721815 0
102.3096 -57.67469 4.021815 0
102.4096 -57.72469 3.371815 0
102.4596 -57.72469 3.271815 0
102.3596 -57.72469 3.471815 0
102.5096 -57.67469 3.571815 0
102.5596 -57.77469 3.421815 0
102.6596 -57.72469 3.271815 0
102.6596 -57.72469 3.321815 0
102.7096 -57.72469 3.421815 0
102.6596 -57.72469 3.521815 0
102.7096 -57.67469 3.521815 0
102.4096 -57.67469 3.821815 0
102.5096 -57.72469 3.671815 0
102.5096 -57.72469 3.771815 0
102.6596 -57.72469 3.771815 0
102.0096 -57.67469 4.071815 0
102.0096 -57.67469 4.421815 0
102.2096 -57.67469 4.121815 0
102.0096 -57.67469 4.571815 0
102.3096 -57.67469 4.621815 0
102.4596 -57.67469 4.171815 0
102.6596 -57.72469 4.071815 0
102.4096 -57.67469 4.471815 0
102.6596 -57.72469 4.721815 0
102.8096 -57.77469 3.271815 0
102.8596 -57.72469 3.321815 0
102.8596 -57.72469 3.471815 0
102.8596 -57.67469 3.471815 0
102.9596 -57.77469 3.321815 0
103.0596 -57.77469 3.371815 0
103.0096 -57.77469 3.471815 0
103.0096 -57.77469 3.571815 0
103.0596 -57.67469 3.471815 0
102.7596 -57.72469 3.671815 0
102.8596 -57.77469 3.821815 0
102.8596 -57.72469 3.921815 0
103.0096 -57.77469 3.721815 0
102.9596 -57.67469 3.921815 0
103.0596 -57.77469 3.871815 0
103.1596 -57.77469 3.321815 0
103.2096 -57.77469 3.271815 0
103.2096 -57.72469 3.421815 0
103.2096 -57.67469 3.371815 0
103.2596 -57.77469 3.421815 0
103.3096 -57.77469 3.371815 0
103.1596 -57.77469 3.521815 0
103.3096 -57.77469 3.621815 0
103.4096 -57.67469 3.321815 0
103.4096 -57.72469 3.421815 0
103.5096 -57.77469 3.271815 0
103.4596 -57.77469 3.421815 0
103.5096 -57.77469 3.421815 0
103.3596 -57.77469 3.521815 0
103.5096 -57.77469 3.571815 0
103.2596 -57.77469 3.771815 0
103.2096 -57.67469 3.871815 0
103.2596 -57.77469 3.871815 0
103.2596 -57.77469 3.971815 0
103.5096 -57.77469 3.821815 0
103.4596 -57.67469 3.821815 0
103.4596 -57.77469 3.921815 0
102.7596 -57.72469 4.221815 0
102.9596 -57.77469 4.171815 0
103.0096 -57.77469 4.271815 0
102.8596 -57.72469 4.571815 0
102.9596 -57.72469 4.771815 0
103.3096 -57.77469 4.221815 0
103.2596 -57.77469 4.321815 0
103.5096 -57.77469 4.421815 0
103.2596 -57.77469 4.621815 0
103.3096 -57.77469 4.821815 0
102.0096 -57.67469 5.071815 0
102.4096 -57.67469 5.121815 0
102.8596 -57.72469 5.271815 0
103.4596 -58.27469 5.471815 0
103.2096 -57.77469 5.321815 0
103.5096 -58.02469 5.421815 0
103.4596 -57.67469 5.371815 0
102.0596 -57.52469 3.421815 0
102.0096 -57.62469 3.571815 0
102.2596 -57.62469 3.521815 0
101.9596 -57.62469 3.671815 0
102.2096 -57.47469 3.821815 0
102.1596 -57.47469 4.021815 0
102.3596 -57.57469 3.371815 0
102.5096 -57.62469 3.521815 0
102.6596 -57.57469 3.321815 0
102.3596 -57.57469 3.971815 0
102.3596 -57.57469 4.021815 0
102.5096 -57.62469 4.021815 0
102.6096 -57.47469 3.771815 0
102.6596 -57.57469 3.921815 0
102.1096 -57.57469 4.071815 0
102.1596 -57.47469 4.571815 0
102.3096 -57.42469 4.471815 0
102.6096 -57.47469 4.421815 0
102.4096 -57.52469 4.521815 0
102.6596 -57.57469 4.471815 0
102.7596 -57.62469 3.471815 0
102.9596 -57.57469 3.271815 0
103.0096 -57.62469 3.421815 0
102.7596 -57.62469 3.971815 0
102.9596 -57.57469 3.821815 0
102.9596 -57.52469 3.671815 0
103.2096 -57.47469 3.371815 0
103.3096 -57.52469 3.621815 0
103.2596 -57.62469 3.771815 0
103.5096 -57.62469 3.721815 0
102.9596 -57.57469 4.421815 0
102.9596 -57.52469 4.321815 0
103.2096 -57.47469 4.071815 0
103.2596 -57.62469 4.371815 0
103.3096 -57.52469 4.271815 0
103.2096 -57.47469 4.771815 0
102.3096 -57.42469 5.121815 0
102.6096 -57.47469 5.071815 0
102.9596 -57.52469 4.971815 0
103.3096 -57.52469 4.871815 0
104.9596 -61.87469 1.471815 0
104.9596 -61.87469 1.971815 0
104.8596 -61.87469 2.371815 0
104.7596 -61.72469 2.121815 0
104.9096 -61.77469 2.121815 0
104.8596 -61.87469 2.821815 0
104.8096 -61.82469 2.471815 0
104.7596 -61.77469 2.671815 0
104.9096 -61.77469 2.671815 0
104.9596 -61.87469 2.471815 0
104.9596 -61.82469 2.471815 0
104.8096 -61.82469 3.021815 0
104.7596 -61.77469 3.221815 0
104.9096 -61.77469 3.221815 0
104.9596 -61.82469 2.971815 0
104.7596 -61.47469 2.121815 0
104.8096 -61.57469 2.321815 0
104.8096 -61.17469 2.071815 0
104.8096 -61.17469 2.421815 0
104.7596 -61.07469 2.271815 0
104.8096 -60.87469 2.071815 0
104.8596 -60.87469 2.371815 0
104.8096 -61.52469 2.471815 0
104.7596 -61.47469 2.621815 0
104.8096 -61.57469 2.821815 0
104.8096 -61.52469 2.971815 0
104.7596 -61.47469 3.171815 0
104.7596 -61.37469 2.871815 0
104.7596 -61.17469 2.621815 0
104.7596 -61.07469 2.821815 0
104.8096 -60.92469 2.571815 0
104.8096 -60.87469 2.821815 0
104.8096 -61.17469 2.921815 0
104.7596 -61.17469 3.121815 0
104.8096 -60.92469 3.071815 0
104.9096 -60.22469 0.6718147 0
104.9096 -60.07469 1.221815 0
104.9596 -59.32469 0.8218147 0
104.8096 -59.32469 1.221815 0
104.8596 -59.37469 1.071815 0
104.9596 -59.32469 1.171815 0
104.8096 -59.32469 1.321815 0
104.8596 -59.37469 1.571815 0
104.9596 -59.32469 1.571815 0
104.8096 -60.82469 2.221815 0
104.8096 -60.57469 2.221815 0
104.8096 -60.32469 2.171815 0
104.7596 -60.27469 2.421815 0
104.7596 -60.77469 2.471815 0
104.8096 -60.82469 2.821815 0
104.8096 -60.62469 2.521815 0
104.7596 -60.52469 2.471815 0
104.7596 -60.57469 2.721815 0
104.8096 -60.57469 2.771815 0
104.7596 -60.77469 3.071815 0
104.8096 -60.62469 3.071815 0
104.7596 -60.52469 3.071815 0
104.7596 -60.32469 2.671815 0
104.9096 -60.07469 2.821815 0
104.7596 -60.27469 3.021815 0
104.8096 -60.02469 2.421815 0
104.8596 -59.32469 1.771815 0
104.9096 -59.27469 1.971815 0
104.9596 -59.32469 1.921815 0
104.8596 -59.42469 2.121815 0
104.8596 -59.32469 2.371815 0
104.9596 -59.32469 2.271815 0
104.8096 -60.02469 3.021815 0
104.8096 -59.32469 2.621815 0
104.8596 -59.42469 2.671815 0
104.9596 -59.32469 2.671815 0
104.8596 -59.32469 2.971815 0
104.9596 -59.32469 3.071815 0
103.9596 -61.17469 4.771815 0
104.2096 -61.22469 4.521815 0
104.3096 -60.87469 4.471815 0
104.8596 -61.87469 3.321815 0
104.8096 -61.57469 3.271815 0
104.8596 -61.47469 3.421815 0
104.8596 -61.52469 3.471815 0
104.7596 -61.37469 3.471815 0
104.9596 -61.52469 3.421815 0
104.8096 -61.17469 3.371815 0
104.7596 -61.07469 3.421815 0
103.6096 -62.27469 5.021815 0
103.7596 -61.87469 4.921815 0
103.8596 -61.52469 4.871815 0
104.0596 -60.82469 4.671815 0
104.2096 -60.47469 4.571815 0
104.3096 -60.12469 4.521815 0
104.1096 -59.52469 4.771815 0
104.2096 -59.27469 4.721815 0
104.8096 -60.82469 3.371815 0
104.8596 -60.82469 3.321815 0
104.8096 -60.57469 3.321815 0
104.7596 -60.57469 3.371815 0
104.7596 -60.32469 3.371815 0
104.4096 -60.57469 4.421815 0
104.4596 -60.27469 4.371815 0
104.8096 -59.32469 3.271815 0
104.8596 -59.42469 3.371815 0
104.4096 -59.82469 4.421815 0
104.5596 -59.97469 4.271815 0
104.6096 -59.72469 4.221815 0
104.5096 -59.52469 4.371815 0
104.7096 -59.42469 4.171815 0
103.6096 -60.22469 5.171815 0
103.7096 -59.92469 5.121815 0
103.8096 -59.62469 5.021815 0
103.8596 -59.37469 4.971815 0
103.5596 -58.17469 0.1218147 0
103.6096 -58.22469 0.1218147 0
103.6096 -58.17469 0.1218147 0
103.6096 -58.22469 0.1718147 0
103.6596 -58.22469 0.07181472 0
103.6596 -58.22469 0.1218147 0
103.6596 -58.17469 0.07181472 0
103.6596 -58.17469 0.1218147 0
103.7096 -58.22469 0.1218147 0
103.7096 -58.17469 0.1218147 0
103.7096 -58.22469 0.1718147 0
103.7096 -58.17469 0.1718147 0
103.7596 -58.22469 0.1218147 0
103.7596 -58.17469 0.1218147 0
103.8096 -58.22469 0.07181472 0
103.8096 -58.22469 0.1218147 0
103.8096 -58.17469 0.1218147 0
103.8096 -58.22469 0.1718147 0
103.8596 -58.22469 0.1218147 0
103.8596 -58.17469 0.1218147 0
103.9096 -58.22469 0.1218147 0
103.9096 -58.22469 0.1718147 0
103.5596 -58.17469 0.4718147 0
103.6096 -58.22469 0.4718147 0
103.6096 -58.22469 0.5218147 0
103.6096 -58.17469 0.4718147 0
103.6096 -58.17469 0.5218147 0
103.5596 -58.17469 0.6218147 0
103.6596 -58.22469 0.4718147 0
103.6596 -58.22469 0.5218147 0
103.6596 -58.17469 0.4718147 0
103.7096 -58.22469 0.4718147 0
103.7096 -58.22469 0.5218147 0
103.7096 -58.17469 0.4718147 0
103.5596 -58.17469 0.7718147 0
103.5596 -58.17469 0.8218147 0
103.6096 -58.22469 0.7718147 0
103.6096 -58.22469 0.8218147 0
103.6096 -58.17469 0.7718147 0
103.6596 -58.17469 0.7718147 0
103.6596 -58.17469 0.8218147 0
103.7096 -58.22469 0.7718147 0
103.7096 -58.22469 0.8218147 0
103.7096 -58.17469 0.7718147 0
103.7596 -58.22469 0.5218147 0
103.7596 -58.17469 0.4718147 0
103.8096 -58.22469 0.4718147 0
103.8096 -58.22469 0.5218147 0
103.8096 -58.17469 0.4718147 0
103.7596 -58.22469 0.5718147 0
103.8596 -58.22469 0.4718147 0
103.8596 -58.22469 0.5218147 0
103.8596 -58.17469 0.4718147 0
103.9096 -58.22469 0.4718147 0
103.9096 -58.22469 0.5218147 0
103.9096 -58.22469 0.6218147 0
103.7596 -58.17469 0.7718147 0
103.7596 -58.17469 0.8218147 0
103.8096 -58.22469 0.8218147 0
103.8096 -58.17469 0.7718147 0
103.9096 -58.22469 0.6718147 0
103.8596 -58.22469 0.7718147 0
103.8596 -58.17469 0.8218147 0
103.9096 -58.22469 0.8218147 0
103.9096 -58.17469 0.7718147 0
103.9596 -58.22469 0.07181472 0
103.9596 -58.22469 0.1218147 0
104.0096 -58.22469 0.07181472 0
104.0096 -58.22469 0.1218147 0
104.0096 -58.22469 0.1718147 0
104.0596 -58.22469 0.1218147 0
104.0596 -58.17469 0.1218147 0
104.1096 -58.12469 0.07181472 0
104.1596 -58.17469 0.07181472 0
104.1596 -58.12469 0.1218147 0
103.9596 -58.22469 0.4718147 0
103.9596 -58.22469 0.5218147 0
104.0096 -58.22469 0.4718147 0
104.0096 -58.22469 0.5218147 0
104.0596 -58.22469 0.4718147 0
104.0596 -58.22469 0.5218147 0
104.0596 -58.17469 0.4718147 0
104.1096 -58.22469 0.5218147 0
104.0596 -58.22469 0.5718147 0
104.1096 -58.12469 0.4718147 0
104.1096 -58.12469 0.5218147 0
104.1096 -58.12469 0.6218147 0
104.1096 -58.07469 0.5718147 0
103.9596 -58.22469 0.7718147 0
103.9596 -58.22469 0.8218147 0
104.0096 -58.22469 0.8218147 0
104.0596 -58.22469 0.7718147 0
104.0596 -58.22469 0.8218147 0
104.1096 -58.07469 0.6718147 0
104.1596 -58.17469 0.5218147 0
104.0596 -58.02469 0.1218147 0
104.1096 -58.02469 0.1218147 0
104.1096 -57.97469 0.1718147 0
104.0596 -57.92469 0.1218147 0
104.1096 -57.92469 0.07181472 0
104.0596 -57.92469 0.1718147 0
104.1096 -57.82469 0.1218147 0
104.1096 -57.72469 0.07181472 0
104.1096 -57.67469 0.1218147 0
104.0596 -57.72469 0.1718147 0
104.1096 -57.67469 0.1718147 0
104.1096 -57.67469 0.4218147 0
104.1596 -57.97469 0.07181472 0
104.1596 -57.87469 0.1218147 0
104.1596 -57.77469 0.07181472 0
104.1596 -57.72469 0.1218147 0
104.1596 -57.67469 0.1218147 0
104.2096 -57.72469 0.1218147 0
104.2096 -57.67469 0.07181472 0
104.2096 -57.67469 0.1218147 0
104.1596 -57.72469 0.1718147 0
104.1596 -57.67469 0.1718147 0
104.2096 -57.72469 0.1718147 0
104.2096 -57.67469 0.1718147 0
104.2596 -57.72469 0.07181472 0
104.2596 -57.67469 0.07181472 0
104.2596 -57.67469 0.1218147 0
104.3096 -57.72469 0.1218147 0
104.3096 -57.67469 0.1218147 0
104.2596 -57.72469 0.1718147 0
104.2596 -57.67469 0.1718147 0
104.3096 -57.72469 0.1718147 0
104.3096 -57.67469 0.1718147 0
104.2096 -57.67469 0.4218147 0
104.3096 -57.67469 0.4218147 0
104.0596 -57.97469 0.4718147 0
104.1096 -58.02469 0.5218147 0
104.1096 -57.97469 0.4718147 0
104.0596 -57.92469 0.4718147 0
104.1096 -57.92469 0.4718147 0
104.1096 -57.92469 0.6218147 0
104.0596 -58.02469 0.7718147 0
104.0596 -57.97469 0.8218147 0
104.0596 -57.82469 0.4718147 0
104.0596 -57.72469 0.4718147 0
104.1096 -57.72469 0.4718147 0
104.1096 -57.67469 0.4718147 0
104.1096 -57.82469 0.6718147 0
104.0596 -57.77469 0.8218147 0
104.1096 -57.82469 0.8218147 0
104.1596 -58.02469 0.5218147 0
104.1596 -57.97469 0.5218147 0
104.1596 -57.87469 0.5218147 0
104.1596 -57.87469 0.5718147 0
104.1596 -57.82469 0.5218147 0
104.1596 -57.77469 0.5218147 0
104.1596 -57.72469 0.4718147 0
104.1596 -57.72469 0.5218147 0
104.2096 -57.72469 0.4718147 0
104.2096 -57.72469 0.5218147 0
104.2096 -57.67469 0.4718147 0
104.2096 -57.67469 0.5218147 0
104.1596 -57.67469 0.6218147 0
104.2096 -57.72469 0.5718147 0
104.2596 -57.72469 0.4718147 0
104.2596 -57.72469 0.5218147 0
104.2596 -57.67469 0.4718147 0
104.3096 -57.72469 0.4718147 0
104.3096 -57.72469 0.5218147 0
104.1596 -57.82469 0.7718147 0
104.1596 -57.77469 0.7718147 0
104.1596 -57.77469 0.8218147 0
104.2096 -57.82469 0.8218147 0
104.2096 -57.77469 0.7718147 0
104.2596 -57.77469 0.7718147 0
104.2596 -57.77469 0.8218147 0
104.3096 -57.82469 0.7718147 0
104.3096 -57.77469 0.8218147 0
104.3096 -57.72469 0.6718147 0
103.6096 -58.22469 0.8718147 0
103.6096 -58.22469 0.9218147 0
103.6096 -58.17469 0.8718147 0
103.6596 -58.22469 0.8718147 0
103.6596 -58.22469 0.9218147 0
103.7096 -58.22469 0.8718147 0
103.6596 -58.22469 0.9718148 0
103.6596 -58.22469 1.021815 0
103.6596 -58.12469 0.9218147 0
103.5596 -58.17469 1.121815 0
103.6096 -58.22469 1.121815 0
103.6096 -58.17469 1.121815 0
103.5596 -58.17469 1.171815 0
103.5596 -58.17469 1.221815 0
103.6096 -58.22469 1.171815 0
103.6096 -58.22469 1.221815 0
103.6096 -58.17469 1.221815 0
103.6596 -58.17469 1.121815 0
103.7096 -58.22469 1.121815 0
103.7096 -58.17469 1.121815 0
103.6596 -58.17469 1.171815 0
103.6596 -58.17469 1.221815 0
103.7096 -58.22469 1.171815 0
103.7096 -58.22469 1.221815 0
103.7596 -58.22469 0.8718147 0
103.7596 -58.22469 0.9218147 0
103.8096 -58.22469 0.8718147 0
103.8096 -58.17469 0.9218147 0
103.8096 -58.22469 0.9718148 0
103.8596 -58.22469 0.8718147 0
103.9096 -58.22469 0.8718147 0
103.9096 -58.22469 0.9218147 0
103.8596 -58.22469 1.021815 0
103.7596 -58.22469 1.121815 0
103.8096 -58.22469 1.121815 0
103.8096 -58.17469 1.121815 0
103.7596 -58.22469 1.171815 0
103.8096 -58.22469 1.221815 0
103.8596 -58.22469 1.121815 0
103.9096 -58.22469 1.121815 0
103.8596 -58.22469 1.171815 0
103.9096 -58.22469 1.221815 0
103.6096 -58.22469 1.321815 0
103.5596 -58.17469 1.421815 0
103.6096 -58.22469 1.421815 0
103.6596 -58.22469 1.271815 0
103.6596 -58.22469 1.321815 0
103.6596 -58.22469 1.421815 0
103.6596 -58.17469 1.421815 0
103.6596 -58.12469 1.321815 0
103.6096 -58.22469 1.521815 0
103.6096 -58.17469 1.471815 0
103.5596 -58.22469 1.571815 0
103.6096 -58.22469 1.571815 0
103.6096 -58.22469 1.621815 0
103.6596 -58.22469 1.521815 0
103.7096 -58.22469 1.471815 0
103.7096 -58.22469 1.521815 0
103.7096 -58.17469 1.471815 0
103.6596 -58.22469 1.571815 0
103.6596 -58.22469 1.621815 0
103.6596 -58.17469 1.571815 0
103.7096 -58.17469 1.571815 0
103.7096 -58.17469 1.621815 0
103.7596 -58.22469 1.321815 0
103.8096 -58.22469 1.271815 0
103.8096 -58.22469 1.321815 0
103.7596 -58.22469 1.421815 0
103.8096 -58.22469 1.421815 0
103.8596 -58.22469 1.271815 0
103.9096 -58.22469 1.271815 0
103.9096 -58.22469 1.321815 0
103.8596 -58.22469 1.421815 0
103.7596 -58.17469 1.521815 0
103.8096 -58.22469 1.471815 0
103.8096 -58.17469 1.471815 0
103.8096 -58.22469 1.571815 0
103.8096 -58.22469 1.621815 0
103.8596 -58.22469 1.521815 0
103.9096 -58.22469 1.471815 0
103.9096 -58.17469 1.471815 0
103.8596 -58.22469 1.571815 0
103.8596 -58.22469 1.621815 0
103.9096 -58.22469 1.571815 0
103.9596 -58.22469 0.8718147 0
104.0096 -58.22469 0.8718147 0
104.0096 -58.22469 0.9218147 0
104.0096 -58.22469 0.9718148 0
104.0596 -58.22469 0.8718147 0
104.0596 -58.22469 0.9218147 0
104.1096 -58.17469 0.8718147 0
104.1096 -58.22469 1.021815 0
104.1096 -58.12469 0.9218147 0
103.9596 -58.22469 1.121815 0
104.0096 -58.22469 1.121815 0
103.9596 -58.22469 1.171815 0
104.0096 -58.22469 1.171815 0
104.0096 -58.22469 1.221815 0
104.0596 -58.22469 1.121815 0
104.0596 -58.22469 1.171815 0
104.1596 -58.17469 0.9218147 0
104.1596 -58.22469 0.9718148 0
104.1596 -58.07469 0.8718147 0
104.1596 -58.07469 1.021815 0
104.1596 -58.17469 1.221815 0
104.1596 -58.12469 1.121815 0
104.1596 -58.07469 1.221815 0
103.9596 -58.17469 1.271815 0
103.9596 -58.17469 1.421815 0
104.0096 -58.22469 1.371815 0
104.0096 -58.22469 1.421815 0
104.0596 -58.22469 1.271815 0
104.0596 -58.22469 1.321815 0
104.0596 -58.22469 1.421815 0
104.1096 -58.12469 1.371815 0
103.9596 -58.22469 1.521815 0
104.0096 -58.22469 1.471815 0
104.0096 -58.22469 1.521815 0
103.9596 -58.22469 1.621815 0
104.0096 -58.22469 1.571815 0
104.0596 -58.22469 1.521815 0
104.0596 -58.22469 1.621815 0
104.1096 -58.22469 1.571815 0
104.1096 -58.17469 1.571815 0
104.1596 -58.17469 1.321815 0
104.1596 -58.22469 1.421815 0
104.1596 -58.07469 1.321815 0
104.1596 -58.07469 1.521815 0
104.1596 -58.07469 1.621815 0
104.1096 -58.02469 0.8718147 0
104.1096 -57.92469 0.9218147 0
104.1096 -57.87469 0.8718147 0
104.0596 -58.02469 1.121815 0
104.0596 -57.97469 1.171815 0
104.0596 -57.67469 0.9718148 0
104.1096 -57.77469 1.071815 0
104.0596 -57.77469 1.171815 0
104.1096 -57.82469 1.171815 0
104.1096 -57.82469 1.221815 0
104.1596 -58.02469 0.9718148 0
104.1596 -57.92469 0.9218147 0
104.1596 -57.87469 1.021815 0
104.1596 -57.87469 1.121815 0
104.1596 -57.92469 1.221815 0
104.1596 -57.82469 0.9218147 0
104.1596 -57.77469 0.8718147 0
104.2096 -57.82469 0.8718147 0
104.1596 -57.77469 0.9718148 0
104.2096 -57.72469 0.8718147 0
104.2596 -57.82469 0.9218147 0
104.3096 -57.82469 0.8718147 0
104.3096 -57.82469 1.021815 0
104.2596 -57.72469 0.9718148 0
104.1596 -57.77469 1.071815 0
104.2096 -57.82469 1.071815 0
104.1596 -57.77469 1.171815 0
104.1596 -57.77469 1.221815 0
104.2096 -57.77469 1.171815 0
104.2596 -57.77469 1.071815 0
104.3096 -57.82469 1.121815 0
104.3096 -57.77469 1.121815 0
104.2596 -57.82469 1.171815 0
104.2596 -57.77469 1.171815 0
104.3096 -57.82469 1.171815 0
104.3096 -57.82469 1.221815 0
104.3096 -57.67469 1.071815 0
104.1096 -58.02469 1.271815 0
104.0596 -58.02469 1.421815 0
104.1096 -57.92469 1.321815 0
104.0596 -57.97469 1.521815 0
104.1096 -57.77469 1.421815 0
104.0596 -57.67469 1.421815 0
104.0596 -57.77469 1.521815 0
