# .PCD v0.7 - Point Cloud Data file format
VERSION 0.7
FIELDS x y z intensity
SIZE 4 4 4 4
TYPE F F F F
COUNT 1 1 1 1
WIDTH 1547
HEIGHT 1
VIEWPOINT 0 0 0 1 0 0 0
POINTS 1547
DATA ascii
54.15961 -43.37469 0.1218147 0
54.35961 -43.57469 0.07181472 0
54.35961 -43.57469 0.1218147 0
54.40961 -43.57469 0.1218147 0
54.45961 -43.57469 0.07181472 0
54.45961 -43.57469 0.1218147 0
54.50961 -43.57469 0.07181472 0
54.45961 -43.52469 0.1218147 0
54.45961 -43.47469 0.07181472 0
54.50961 -43.52469 0.1218147 0
54.35961 -43.27469 0.1218147 0
54.50961 -43.37469 0.1218147 0
54.45961 -43.32469 0.1218147 0
54.55961 -43.52469 0.1218147 0
54.55961 -43.47469 0.1218147 0
54.60961 -43.52469 0.07181472 0
54.60961 -43.47469 0.07181472 0
54.60961 -43.47469 0.1218147 0
54.65961 -43.47469 0.07181472 0
54.65961 -43.47469 0.1218147 0
54.55961 -43.42469 0.1218147 0
54.65961 -43.42469 0.1218147 0
54.65961 -43.37469 0.07181472 0
54.70961 -43.42469 0.07181472 0
54.70961 -43.42469 0.1218147 0
54.70961 -43.37469 0.1218147 0
54.65961 -43.32469 0.1218147 0
54.65961 -43.27469 0.1218147 0
54.70961 -43.32469 0.1218147 0
54.70961 -43.57469 1.221815 0
54.50961 -43.57469 1.421815 0
54.50961 -43.57469 1.571815 0
54.50961 -43.57469 1.621815 0
54.60961 -43.62469 1.271815 0
54.55961 -43.62469 1.421815 0
54.60961 -43.62469 1.371815 0
54.60961 -43.57469 1.371815 0
54.60961 -43.57469 1.421815 0
54.65961 -43.62469 1.271815 0
54.70961 -43.62469 1.371815 0
54.70961 -43.57469 1.371815 0
54.60961 -43.62469 1.521815 0
54.55961 -43.62469 1.621815 0
54.60961 -43.57469 1.571815 0
54.60961 -43.57469 1.621815 0
54.65961 -43.57469 1.521815 0
54.70961 -43.62469 1.471815 0
54.70961 -43.57469 1.571815 0
54.80961 -43.67469 0.2218147 0
54.80961 -43.67469 0.4218147 0
54.80961 -43.67469 0.6218147 0
54.80961 -43.67469 0.6718147 0
54.80961 -43.67469 0.8218147 0
54.75961 -43.62469 0.07181472 0
54.80961 -43.62469 0.1218147 0
54.75961 -43.62469 0.2218147 0
54.75961 -43.57469 0.2218147 0
54.80961 -43.62469 0.1718147 0
54.85961 -43.62469 0.07181472 0
54.85961 -43.62469 0.1218147 0
54.85961 -43.62469 0.2218147 0
54.75961 -43.62469 0.2718147 0
54.80961 -43.62469 0.2718147 0
54.80961 -43.62469 0.3218147 0
54.75961 -43.62469 0.4218147 0
54.80961 -43.62469 0.4218147 0
54.85961 -43.62469 0.3218147 0
54.85961 -43.62469 0.4218147 0
54.75961 -43.37469 0.07181472 0
54.75961 -43.37469 0.1218147 0
54.75961 -43.32469 0.07181472 0
54.75961 -43.27469 0.1218147 0
54.80961 -43.32469 0.07181472 0
54.80961 -43.27469 0.07181472 0
54.75961 -43.57469 0.4718147 0
54.80961 -43.62469 0.5218147 0
54.75961 -43.62469 0.5718147 0
54.80961 -43.62469 0.5718147 0
54.85961 -43.62469 0.5218147 0
54.85961 -43.62469 0.5718147 0
54.85961 -43.62469 0.6218147 0
54.75961 -43.62469 0.7218148 0
54.75961 -43.57469 0.6718147 0
54.80961 -43.62469 0.6718147 0
54.80961 -43.62469 0.7718147 0
54.80961 -43.62469 0.8218147 0
54.85961 -43.62469 0.6718147 0
54.85961 -43.62469 0.7218148 0
54.85961 -43.62469 0.7718147 0
54.85961 -43.62469 0.8218147 0
54.80961 -43.67469 0.9718148 0
54.80961 -43.67469 1.071815 0
54.80961 -43.67469 1.471815 0
54.75961 -43.62469 0.8718147 0
54.75961 -43.62469 0.9218147 0
54.80961 -43.62469 0.8718147 0
54.75961 -43.62469 1.021815 0
54.80961 -43.62469 0.9718148 0
54.85961 -43.62469 0.8718147 0
54.85961 -43.62469 0.9718148 0
54.75961 -43.57469 1.121815 0
54.80961 -43.62469 1.071815 0
54.75961 -43.62469 1.171815 0
54.75961 -43.62469 1.221815 0
54.75961 -43.57469 1.221815 0
54.85961 -43.62469 1.071815 0
54.85961 -43.62469 1.121815 0
54.85961 -43.62469 1.171815 0
54.85961 -43.57469 1.171815 0
54.75961 -43.62469 1.271815 0
54.75961 -43.62469 1.321815 0
54.80961 -43.62469 1.271815 0
54.80961 -43.62469 1.371815 0
54.80961 -43.62469 1.421815 0
54.80961 -43.57469 1.371815 0
54.85961 -43.62469 1.271815 0
54.85961 -43.62469 1.321815 0
54.90961 -43.62469 1.421815 0
54.90961 -43.57469 1.371815 0
54.75961 -43.62469 1.521815 0
54.80961 -43.57469 1.521815 0
54.75961 -43.57469 1.621815 0
54.85961 -43.62469 1.471815 0
54.90961 -43.62469 1.521815 0
54.90961 -43.62469 1.571815 0
54.90961 -43.57469 1.571815 0
54.95961 -43.62469 1.271815 0
54.95961 -43.62469 1.321815 0
55.00961 -43.62469 1.271815 0
55.00961 -43.62469 1.321815 0
55.00961 -43.62469 1.421815 0
54.95961 -43.62469 1.471815 0
55.00961 -43.62469 1.471815 0
55.00961 -43.62469 1.521815 0
55.00961 -43.62469 1.621815 0
55.00961 -43.57469 1.571815 0
55.05961 -43.62469 1.621815 0
54.50961 -43.57469 1.671815 0
54.60961 -43.57469 1.721815 0
54.65961 -43.57469 1.671815 0
54.70961 -43.62469 1.671815 0
54.80961 -43.57469 1.671815 0
54.85961 -43.62469 1.671815 0
55.00961 -43.62469 1.721815 0
49.20961 -43.17469 0.1218147 0
49.15961 -43.22469 0.1718147 0
49.25961 -43.07469 0.1218147 0
49.25961 -43.12469 0.1718147 0
49.30961 -43.07469 0.1718147 0
49.25961 -42.92469 0.1218147 0
49.50961 -43.17469 0.1218147 0
49.45961 -43.07469 0.1218147 0
49.35961 -43.02469 0.1718147 0
49.40961 -42.97469 0.1718147 0
49.45961 -42.97469 0.1718147 0
49.45961 -42.92469 0.1218147 0
49.15961 -42.52469 0.1218147 0
49.25961 -42.57469 0.1218147 0
49.30961 -42.47469 0.1218147 0
49.35961 -42.82469 0.1218147 0
49.40961 -42.82469 0.1218147 0
49.35961 -42.72469 0.1218147 0
49.40961 -42.72469 0.1218147 0
49.45961 -42.77469 0.1218147 0
49.45961 -42.72469 0.1218147 0
49.35961 -42.62469 0.1218147 0
49.35961 -42.57469 0.1218147 0
49.40961 -42.57469 0.1218147 0
49.45961 -42.47469 0.1218147 0
49.70961 -43.07469 0.1218147 0
49.60961 -42.97469 0.1218147 0
49.55961 -42.87469 0.1218147 0
49.55961 -42.92469 0.1718147 0
49.65961 -42.87469 0.1218147 0
49.70961 -42.92469 0.1218147 0
49.80961 -43.17469 0.1218147 0
49.90961 -43.12469 0.1218147 0
49.75961 -42.97469 0.1218147 0
49.80961 -43.02469 0.1218147 0
49.85961 -43.02469 0.1218147 0
49.55961 -42.77469 0.1218147 0
49.60961 -42.82469 0.1218147 0
49.65961 -42.82469 0.1718147 0
49.75961 -42.77469 0.1718147 0
49.85961 -42.72469 0.1718147 0
49.90961 -42.72469 0.1718147 0
49.25961 -42.32469 0.1218147 0
49.20961 -42.22469 0.1218147 0
49.20961 -42.12469 0.1218147 0
49.15961 -42.12469 0.1718147 0
49.25961 -42.12469 0.1718147 0
49.30961 -42.12469 0.1718147 0
49.50961 -42.37469 0.1218147 0
49.40961 -42.12469 0.1718147 0
49.15961 -42.02469 0.1218147 0
49.55961 -42.27469 0.1218147 0
49.60961 -42.12469 0.1218147 0
49.55961 -42.12469 0.1718147 0
49.65961 -42.12469 0.1718147 0
49.70961 -42.12469 0.1718147 0
49.75961 -42.12469 0.1718147 0
49.80961 -42.12469 0.1718147 0
49.90961 -42.17469 0.1718147 0
49.70961 -42.02469 0.1218147 0
49.75961 -41.92469 0.1218147 0
49.80961 -41.82469 0.1218147 0
49.85961 -41.67469 0.1218147 0
50.00961 -43.17469 0.1218147 0
49.95961 -42.62469 0.1718147 0
50.05961 -42.62469 0.1718147 0
50.10961 -42.57469 0.1718147 0
50.15961 -42.57469 0.1718147 0
50.25961 -42.52469 0.1718147 0
50.30961 -42.52469 0.1718147 0
50.40961 -42.47469 0.1718147 0
50.45961 -42.47469 0.1718147 0
50.05961 -42.17469 0.1718147 0
50.15961 -42.17469 0.1718147 0
50.25961 -42.17469 0.1718147 0
50.50961 -42.42469 0.1718147 0
50.50961 -42.27469 0.1718147 0
50.35961 -42.22469 0.1718147 0
50.45961 -42.22469 0.1718147 0
50.60961 -42.42469 0.1718147 0
50.60961 -42.27469 0.1718147 0
50.70961 -42.37469 0.1718147 0
50.70961 -42.32469 0.1718147 0
49.90961 -41.57469 0.1218147 0
49.30961 -40.42469 0.07181472 0
49.50961 -40.42469 0.07181472 0
49.70961 -40.42469 0.07181472 0
49.85961 -40.42469 0.07181472 0
49.95961 -41.47469 0.1718147 0
50.00961 -41.37469 0.1718147 0
50.10961 -41.27469 0.1718147 0
50.15961 -41.12469 0.1718147 0
50.25961 -41.02469 0.1718147 0
50.25961 -40.92469 0.07181472 0
50.30961 -40.92469 0.1718147 0
50.60961 -41.27469 0.07181472 0
50.70961 -41.32469 0.07181472 0
50.50961 -41.17469 0.07181472 0
50.45961 -41.07469 0.07181472 0
50.35961 -41.02469 0.07181472 0
50.35961 -40.82469 0.1718147 0
50.40961 -40.72469 0.1718147 0
50.55961 -40.52469 0.1718147 0
50.70961 -40.32469 0.1218147 0
51.10961 -42.47469 0.1218147 0
51.35961 -43.22469 0.1218147 0
51.40961 -43.12469 0.1218147 0
51.50961 -43.22469 0.1718147 0
51.45961 -43.02469 0.1218147 0
51.50961 -42.87469 0.1218147 0
51.15961 -42.52469 0.1218147 0
51.20961 -42.52469 0.1218147 0
51.30961 -42.57469 0.1218147 0
51.50961 -42.72469 0.1218147 0
51.50961 -42.67469 0.1218147 0
51.35961 -42.62469 0.1218147 0
51.40961 -42.62469 0.1218147 0
50.80961 -42.37469 0.1718147 0
50.80961 -42.32469 0.1718147 0
50.90961 -42.32469 0.1718147 0
51.00961 -42.42469 0.1218147 0
50.95961 -42.42469 0.1718147 0
51.00961 -42.32469 0.1718147 0
51.05961 -42.27469 0.1718147 0
51.10961 -42.27469 0.1718147 0
51.20961 -42.27469 0.1718147 0
51.30961 -42.27469 0.1718147 0
51.40961 -42.22469 0.1718147 0
51.50961 -42.22469 0.1718147 0
51.50961 -42.02469 0.1218147 0
51.45961 -41.87469 0.1218147 0
51.40961 -41.67469 0.1218147 0
51.45961 -41.77469 0.1218147 0
51.60961 -43.17469 0.1718147 0
51.65961 -43.07469 0.1718147 0
51.70961 -43.02469 0.1718147 0
51.70961 -42.87469 0.1218147 0
51.85961 -43.17469 0.1218147 0
51.85961 -43.07469 0.1218147 0
51.80961 -42.97469 0.1218147 0
51.80961 -43.02469 0.1718147 0
51.80961 -42.87469 0.1218147 0
51.90961 -42.97469 0.1218147 0
51.85961 -42.97469 0.1718147 0
51.90961 -42.92469 0.1718147 0
51.55961 -42.77469 0.1218147 0
51.60961 -42.72469 0.1218147 0
51.60961 -42.67469 0.1218147 0
51.70961 -42.82469 0.1218147 0
51.70961 -42.57469 0.1218147 0
51.65961 -42.52469 0.1218147 0
51.65961 -42.47469 0.1218147 0
51.80961 -42.82469 0.1218147 0
51.75961 -42.72469 0.1218147 0
52.00961 -43.07469 0.1218147 0
52.10961 -43.17469 0.1218147 0
52.05961 -43.12469 0.1218147 0
52.00961 -43.02469 0.1218147 0
52.00961 -42.87469 0.1718147 0
52.20961 -43.22469 0.1218147 0
52.10961 -42.82469 0.1718147 0
52.15961 -42.77469 0.1718147 0
52.20961 -42.72469 0.1718147 0
52.30961 -42.67469 0.1718147 0
51.65961 -42.37469 0.1218147 0
51.70961 -42.42469 0.1218147 0
51.60961 -42.22469 0.1218147 0
51.60961 -42.22469 0.1718147 0
51.55961 -42.12469 0.1218147 0
51.70961 -42.22469 0.1718147 0
51.75961 -42.32469 0.1218147 0
51.80961 -42.17469 0.1218147 0
51.80961 -42.22469 0.1718147 0
51.90961 -42.22469 0.1718147 0
51.85961 -42.07469 0.1218147 0
51.90961 -41.97469 0.1218147 0
52.00961 -42.22469 0.1718147 0
52.05961 -42.22469 0.1718147 0
52.20961 -42.27469 0.1718147 0
52.30961 -42.27469 0.1718147 0
51.95961 -41.87469 0.1218147 0
52.05961 -41.77469 0.1218147 0
50.80961 -41.42469 0.07181472 0
51.00961 -40.87469 0.1218147 0
51.05961 -40.97469 0.1218147 0
51.25961 -41.42469 0.1218147 0
51.25961 -41.32469 0.1218147 0
51.35961 -41.52469 0.1218147 0
51.20961 -41.17469 0.1218147 0
51.15961 -41.07469 0.1218147 0
50.90961 -40.62469 0.1218147 0
50.85961 -40.52469 0.1218147 0
50.95961 -40.77469 0.1218147 0
50.80961 -40.42469 0.1218147 0
52.10961 -41.62469 0.1218147 0
52.15961 -41.52469 0.1218147 0
52.20961 -41.42469 0.1218147 0
52.30961 -41.32469 0.1218147 0
51.90961 -39.57469 0.1218147 0
51.90961 -39.42469 0.1218147 0
52.30961 -39.32469 0.1218147 0
51.90961 -39.22469 0.1218147 0
51.90961 -39.07469 0.1218147 0
51.90961 -38.92469 0.1218147 0
51.90961 -38.72469 0.1218147 0
51.90961 -38.57469 0.1218147 0
51.95961 -38.87469 0.1218147 0
52.10961 -39.02469 0.1218147 0
52.05961 -38.92469 0.1218147 0
52.15961 -39.17469 0.1218147 0
52.25961 -39.22469 0.1218147 0
52.00961 -38.77469 0.1718147 0
51.95961 -38.57469 0.1218147 0
52.15961 -38.72469 0.1718147 0
52.20961 -38.62469 0.1718147 0
52.30961 -38.52469 0.1718147 0
51.90961 -38.42469 0.1218147 0
51.90961 -38.32469 0.07181472 0
51.90961 -38.22469 0.1218147 0
51.90961 -38.12469 0.07181472 0
51.90961 -38.07469 0.07181472 0
51.90961 -37.92469 0.07181472 0
51.90961 -37.77469 0.07181472 0
51.95961 -38.37469 0.1218147 0
51.95961 -38.07469 0.1218147 0
51.95961 -37.87469 0.07181472 0
51.95961 -37.87469 0.1218147 0
51.95961 -37.72469 0.1218147 0
51.95961 -37.67469 0.07181472 0
51.90961 -37.57469 0.07181472 0
51.95961 -37.52469 0.07181472 0
51.95961 -37.52469 0.1218147 0
51.95961 -37.37469 0.07181472 0
51.95961 -37.37469 0.1218147 0
51.95961 -37.32469 0.07181472 0
51.95961 -37.17469 0.1218147 0
51.95961 -37.12469 0.07181472 0
51.95961 -36.97469 0.1218147 0
51.95961 -36.92469 0.07181472 0
52.25961 -36.92469 0.1218147 0
52.40961 -42.67469 0.1718147 0
52.50961 -42.62469 0.1718147 0
52.65961 -42.57469 0.1718147 0
52.75961 -42.52469 0.1718147 0
52.80961 -42.47469 0.1718147 0
52.95961 -42.47469 0.1718147 0
53.00961 -42.47469 0.1718147 0
53.05961 -42.47469 0.1718147 0
52.40961 -42.27469 0.1718147 0
52.50961 -42.27469 0.1718147 0
52.60961 -42.32469 0.1718147 0
52.70961 -42.32469 0.1718147 0
52.75961 -42.37469 0.1718147 0
52.80961 -42.37469 0.1718147 0
52.85961 -42.37469 0.1718147 0
52.95961 -42.42469 0.1718147 0
53.05961 -42.42469 0.1718147 0
53.15961 -42.47469 0.1718147 0
53.25961 -42.52469 0.1718147 0
53.35961 -42.57469 0.1718147 0
53.40961 -42.57469 0.1718147 0
53.45961 -42.62469 0.1718147 0
53.60961 -43.17469 0.1218147 0
53.65961 -43.02469 0.1218147 0
53.70961 -42.92469 0.1718147 0
53.85961 -43.22469 0.1718147 0
53.90961 -43.22469 0.1718147 0
53.55961 -42.67469 0.1718147 0
53.65961 -42.72469 0.1718147 0
53.75961 -42.82469 0.1718147 0
53.75961 -42.77469 0.1718147 0
53.75961 -42.67469 0.1718147 0
53.85961 -42.82469 0.1218147 0
53.85961 -42.57469 0.1718147 0
53.90961 -42.52469 0.1218147 0
53.85961 -42.47469 0.1718147 0
53.15961 -42.42469 0.1718147 0
53.25961 -42.37469 0.1718147 0
53.30961 -42.37469 0.1718147 0
53.35961 -42.37469 0.1718147 0
53.45961 -42.37469 0.1718147 0
53.55961 -42.32469 0.1718147 0
53.65961 -42.32469 0.1718147 0
53.75961 -42.32469 0.1718147 0
53.90961 -42.42469 0.1218147 0
53.85961 -42.32469 0.1218147 0
53.85961 -42.32469 0.1718147 0
53.90961 -42.32469 0.1718147 0
53.80961 -42.17469 0.1218147 0
53.75961 -42.07469 0.1218147 0
53.70961 -41.97469 0.1218147 0
53.60961 -41.72469 0.1218147 0
53.65961 -41.82469 0.1218147 0
52.35961 -41.22469 0.1218147 0
52.40961 -41.07469 0.1218147 0
52.50961 -40.97469 0.1218147 0
52.55961 -40.87469 0.1718147 0
52.65961 -40.77469 0.1718147 0
52.70961 -40.67469 0.1718147 0
52.75961 -40.57469 0.1718147 0
52.85961 -40.47469 0.1718147 0
53.10961 -40.62469 0.1218147 0
53.05961 -40.52469 0.1218147 0
52.90961 -40.27469 0.1218147 0
52.75961 -40.07469 0.1218147 0
52.85961 -40.17469 0.1218147 0
52.95961 -40.37469 0.1218147 0
52.95961 -40.37469 0.1718147 0
53.00961 -40.27469 0.1718147 0
53.05961 -40.17469 0.1718147 0
53.50961 -41.47469 0.1218147 0
53.50961 -41.37469 0.1218147 0
53.45961 -41.27469 0.1218147 0
53.30961 -40.92469 0.1218147 0
53.35961 -41.17469 0.1218147 0
53.35961 -41.02469 0.1218147 0
53.55961 -41.62469 0.1218147 0
53.20961 -40.82469 0.1218147 0
53.15961 -40.72469 0.1218147 0
53.15961 -40.07469 0.1718147 0
53.95961 -43.17469 0.1718147 0
54.00961 -43.12469 0.1718147 0
54.10961 -43.12469 0.1218147 0
54.05961 -43.07469 0.1718147 0
53.95961 -42.92469 0.1218147 0
54.00961 -42.92469 0.1218147 0
54.05961 -43.02469 0.1218147 0
54.05961 -42.97469 0.1218147 0
54.05961 -42.92469 0.1218147 0
54.15961 -43.07469 0.1218147 0
54.20961 -43.12469 0.1218147 0
54.25961 -43.17469 0.1218147 0
54.30961 -43.22469 0.1218147 0
54.15961 -43.02469 0.1718147 0
54.25961 -42.97469 0.1718147 0
54.30961 -42.92469 0.1718147 0
54.00961 -42.77469 0.1218147 0
53.95961 -42.67469 0.1218147 0
54.35961 -42.87469 0.1718147 0
54.65961 -43.17469 0.1218147 0
54.65961 -43.02469 0.1218147 0
54.70961 -42.97469 0.1218147 0
54.70961 -42.87469 0.1218147 0
54.50961 -42.82469 0.1718147 0
54.60961 -42.77469 0.1718147 0
54.70961 -42.77469 0.1218147 0
54.65961 -42.77469 0.1718147 0
54.70961 -42.72469 0.1218147 0
53.95961 -42.32469 0.1718147 0
54.05961 -42.32469 0.1718147 0
54.00961 -42.22469 0.1718147 0
54.05961 -42.12469 0.1718147 0
54.15961 -42.32469 0.1718147 0
54.25961 -42.32469 0.1718147 0
54.30961 -42.32469 0.1718147 0
54.10961 -42.02469 0.1718147 0
54.15961 -41.87469 0.1718147 0
54.20961 -41.77469 0.1718147 0
54.25961 -41.67469 0.1718147 0
54.45961 -42.37469 0.1718147 0
54.55961 -42.37469 0.1718147 0
54.65961 -42.37469 0.1718147 0
54.70961 -41.67469 0.1218147 0
54.75961 -43.22469 0.07181472 0
54.75961 -43.22469 0.1218147 0
54.75961 -43.17469 0.1218147 0
54.80961 -43.22469 0.07181472 0
54.80961 -43.12469 0.07181472 0
54.80961 -43.07469 0.07181472 0
54.80961 -43.07469 0.1218147 0
54.85961 -43.17469 0.07181472 0
54.85961 -43.12469 0.07181472 0
54.80961 -43.02469 0.1218147 0
54.80961 -42.92469 0.07181472 0
54.80961 -42.92469 0.1218147 0
54.85961 -43.02469 0.07181472 0
54.80961 -42.82469 0.1218147 0
54.80961 -42.77469 0.07181472 0
54.80961 -42.77469 0.1218147 0
54.75961 -42.67469 0.1218147 0
54.80961 -42.72469 0.1218147 0
54.80961 -42.67469 0.1218147 0
54.75961 -42.72469 0.1718147 0
54.85961 -42.67469 0.1718147 0
54.80961 -42.62469 0.1218147 0
54.80961 -42.57469 0.07181472 0
54.75961 -42.52469 0.1218147 0
54.80961 -42.52469 0.07181472 0
54.80961 -42.52469 0.1218147 0
54.80961 -42.47469 0.1218147 0
54.85961 -42.62469 0.1718147 0
54.85961 -42.47469 0.07181472 0
54.85961 -42.52469 0.1718147 0
54.75961 -42.42469 0.1218147 0
54.80961 -42.42469 0.07181472 0
54.80961 -42.42469 0.1218147 0
54.80961 -42.37469 0.07181472 0
54.80961 -42.37469 0.1218147 0
54.75961 -42.42469 0.1718147 0
54.80961 -42.42469 0.1718147 0
54.80961 -42.32469 0.07181472 0
54.80961 -42.32469 0.1218147 0
54.80961 -42.27469 0.1218147 0
54.85961 -42.37469 0.07181472 0
54.90961 -42.42469 0.1718147 0
54.85961 -42.32469 0.07181472 0
54.85961 -42.32469 0.1218147 0
54.90961 -42.27469 0.1218147 0
54.80961 -42.22469 0.07181472 0
54.80961 -42.17469 0.07181472 0
54.80961 -42.17469 0.1218147 0
54.80961 -42.12469 0.1218147 0
54.80961 -42.07469 0.07181472 0
54.80961 -42.07469 0.1218147 0
54.85961 -42.22469 0.07181472 0
54.85961 -42.22469 0.1218147 0
54.85961 -42.17469 0.07181472 0
54.85961 -42.17469 0.1218147 0
54.85961 -42.12469 0.07181472 0
54.85961 -42.07469 0.07181472 0
54.90961 -42.12469 0.1218147 0
54.80961 -42.02469 0.1218147 0
54.80961 -41.92469 0.1218147 0
54.85961 -42.02469 0.07181472 0
54.85961 -42.02469 0.1218147 0
54.90961 -42.02469 0.1218147 0
54.85961 -41.92469 0.07181472 0
54.85961 -41.92469 0.1218147 0
54.85961 -41.87469 0.07181472 0
54.85961 -41.87469 0.1218147 0
54.90961 -41.87469 0.1218147 0
54.75961 -41.82469 0.1218147 0
54.80961 -41.77469 0.07181472 0
54.75961 -41.72469 0.1218147 0
54.85961 -41.82469 0.07181472 0
54.85961 -41.77469 0.07181472 0
54.85961 -41.77469 0.1218147 0
54.85961 -41.72469 0.07181472 0
54.85961 -41.72469 0.1218147 0
54.85961 -41.67469 0.07181472 0
54.85961 -41.67469 0.1218147 0
54.90961 -41.72469 0.1218147 0
54.90961 -41.67469 0.07181472 0
54.35961 -41.57469 0.1718147 0
54.40961 -41.42469 0.1718147 0
54.45961 -41.32469 0.1718147 0
54.70961 -41.52469 0.1218147 0
54.70961 -41.42469 0.1218147 0
54.70961 -41.32469 0.1218147 0
54.50961 -41.22469 0.1718147 0
54.60961 -41.12469 0.1718147 0
54.70961 -41.22469 0.1218147 0
54.70961 -41.12469 0.1218147 0
54.70961 -41.02469 0.1218147 0
54.65961 -41.02469 0.1718147 0
54.70961 -40.92469 0.1218147 0
54.70961 -40.92469 0.1718147 0
54.70961 -40.82469 0.1218147 0
54.70961 -40.77469 0.1218147 0
54.70961 -40.67469 0.1218147 0
54.70961 -40.62469 0.1218147 0
54.70961 -40.52469 0.1218147 0
54.75961 -41.62469 0.1218147 0
54.85961 -41.62469 0.07181472 0
54.85961 -41.57469 0.07181472 0
54.85961 -41.57469 0.1218147 0
54.90961 -41.57469 0.07181472 0
54.90961 -41.57469 0.1218147 0
54.85961 -41.52469 0.07181472 0
54.85961 -41.47469 0.1218147 0
54.90961 -41.47469 0.07181472 0
54.85961 -41.42469 0.07181472 0
54.85961 -41.42469 0.1218147 0
54.85961 -41.37469 0.07181472 0
54.85961 -41.37469 0.1218147 0
54.90961 -41.37469 0.1218147 0
54.85961 -41.32469 0.07181472 0
54.85961 -41.27469 0.07181472 0
54.85961 -41.27469 0.1218147 0
54.85961 -41.22469 0.07181472 0
54.85961 -41.17469 0.07181472 0
54.85961 -41.17469 0.1218147 0
54.85961 -41.12469 0.07181472 0
54.85961 -41.07469 0.07181472 0
54.85961 -41.07469 0.1218147 0
54.85961 -41.02469 0.07181472 0
54.90961 -41.02469 0.1218147 0
54.85961 -40.92469 0.1218147 0
54.90961 -40.92469 0.1218147 0
54.95961 -41.17469 0.07181472 0
54.95961 -40.97469 0.07181472 0
54.80961 -40.77469 0.1718147 0
54.85961 -40.82469 0.1218147 0
54.90961 -40.82469 0.07181472 0
54.90961 -40.82469 0.1218147 0
54.90961 -40.77469 0.1218147 0
54.85961 -40.72469 0.1218147 0
54.85961 -40.67469 0.1218147 0
54.85961 -40.67469 0.1718147 0
54.75961 -40.52469 0.1218147 0
54.90961 -40.62469 0.07181472 0
54.90961 -40.62469 0.1218147 0
54.90961 -40.57469 0.1718147 0
54.85961 -40.52469 0.07181472 0
54.90961 -40.52469 0.1218147 0
54.90961 -40.47469 0.07181472 0
54.95961 -40.77469 0.07181472 0
54.95961 -40.57469 0.07181472 0
54.75961 -40.42469 0.1218147 0
54.75961 -40.32469 0.1218147 0
54.90961 -40.42469 0.07181472 0
54.90961 -40.42469 0.1218147 0
54.90961 -40.37469 0.1718147 0
54.90961 -40.32469 0.07181472 0
54.90961 -40.32469 0.1218147 0
54.90961 -40.27469 0.07181472 0
54.90961 -40.27469 0.1218147 0
54.80961 -40.22469 0.1218147 0
54.80961 -40.12469 0.1218147 0
54.85961 -40.22469 0.1218147 0
54.90961 -40.22469 0.07181472 0
54.90961 -40.22469 0.1718147 0
54.90961 -40.12469 0.07181472 0
54.90961 -40.07469 0.07181472 0
54.90961 -40.07469 0.1218147 0
54.90961 -40.07469 0.1718147 0
54.95961 -40.27469 0.07181472 0
54.95961 -40.07469 0.07181472 0
52.50961 -39.67469 0.1218147 0
52.70961 -39.97469 0.1218147 0
52.65961 -39.87469 0.1218147 0
52.60961 -39.77469 0.1218147 0
52.45961 -39.52469 0.1218147 0
52.40961 -39.42469 0.1218147 0
52.40961 -38.47469 0.1718147 0
53.20961 -39.97469 0.1718147 0
53.30961 -39.87469 0.1718147 0
53.40961 -39.77469 0.1718147 0
53.45961 -39.67469 0.1718147 0
53.55961 -39.57469 0.1718147 0
53.65961 -39.47469 0.1718147 0
53.75961 -39.42469 0.1718147 0
53.80961 -39.32469 0.1718147 0
53.90961 -39.22469 0.1718147 0
52.50961 -38.37469 0.1718147 0
52.60961 -38.27469 0.1718147 0
52.70961 -38.22469 0.1718147 0
52.80961 -38.12469 0.1718147 0
52.90961 -38.07469 0.1718147 0
52.85961 -37.97469 0.1718147 0
52.95961 -37.97469 0.1718147 0
52.95961 -37.87469 0.1718147 0
53.05961 -37.87469 0.1718147 0
53.05961 -37.82469 0.1718147 0
52.45961 -37.07469 0.1218147 0
52.35961 -36.97469 0.1218147 0
52.55961 -37.17469 0.1218147 0
52.65961 -37.22469 0.1218147 0
52.90961 -37.47469 0.1218147 0
52.75961 -37.32469 0.1218147 0
52.85961 -37.37469 0.1218147 0
53.00961 -37.57469 0.1218147 0
53.10961 -37.62469 0.1218147 0
53.15961 -37.82469 0.1718147 0
53.20961 -37.72469 0.1218147 0
53.15961 -37.72469 0.1718147 0
53.30961 -37.82469 0.1218147 0
53.30961 -37.77469 0.1718147 0
53.25961 -37.67469 0.1718147 0
53.35961 -37.92469 0.1218147 0
53.45961 -37.97469 0.1218147 0
53.40961 -37.67469 0.1718147 0
53.70961 -38.27469 0.1218147 0
53.60961 -38.12469 0.1218147 0
53.80961 -38.37469 0.1218147 0
53.85961 -38.42469 0.1218147 0
53.30961 -37.57469 0.1718147 0
53.40961 -37.47469 0.1718147 0
53.50961 -37.62469 0.1718147 0
53.50961 -37.42469 0.1718147 0
53.60961 -37.52469 0.1718147 0
53.70961 -37.47469 0.1718147 0
53.80961 -37.42469 0.1718147 0
54.70961 -39.52469 0.1218147 0
54.55961 -39.32469 0.1218147 0
54.65961 -39.42469 0.1218147 0
54.00961 -39.12469 0.1718147 0
54.05961 -39.02469 0.1718147 0
54.15961 -38.97469 0.1718147 0
54.25961 -38.92469 0.1218147 0
54.25961 -38.87469 0.1718147 0
54.10961 -38.72469 0.1218147 0
53.95961 -38.52469 0.1218147 0
54.05961 -38.62469 0.1218147 0
54.20961 -38.82469 0.1218147 0
54.40961 -39.12469 0.1218147 0
54.50961 -39.22469 0.1218147 0
54.35961 -39.02469 0.1218147 0
54.35961 -38.77469 0.1718147 0
54.45961 -38.67469 0.1718147 0
54.80961 -40.02469 0.1218147 0
54.75961 -39.92469 0.1218147 0
54.85961 -40.02469 0.1218147 0
54.90961 -40.02469 0.07181472 0
54.90961 -39.92469 0.07181472 0
54.90961 -39.92469 0.1218147 0
54.90961 -39.87469 0.07181472 0
54.90961 -39.87469 0.1218147 0
54.90961 -39.92469 0.1718147 0
54.90961 -39.82469 0.07181472 0
54.90961 -39.82469 0.1218147 0
54.90961 -39.77469 0.1218147 0
54.90961 -39.77469 0.1718147 0
54.85961 -39.72469 0.1218147 0
54.90961 -39.72469 0.07181472 0
54.90961 -39.72469 0.1218147 0
54.95961 -39.92469 0.07181472 0
54.95961 -39.72469 0.07181472 0
54.95961 -39.67469 0.07181472 0
54.75961 -39.62469 0.1218147 0
54.90961 -39.62469 0.07181472 0
54.90961 -39.62469 0.1218147 0
54.90961 -39.57469 0.1218147 0
54.90961 -39.57469 0.1718147 0
54.90961 -39.52469 0.07181472 0
54.90961 -39.52469 0.1218147 0
54.90961 -39.42469 0.07181472 0
54.90961 -39.37469 0.07181472 0
54.90961 -39.42469 0.1718147 0
54.95961 -39.62469 0.1218147 0
54.95961 -39.57469 0.1218147 0
54.95961 -39.47469 0.07181472 0
54.95961 -39.42469 0.1218147 0
54.95961 -39.37469 0.1218147 0
54.95961 -39.32469 0.1218147 0
54.95961 -39.27469 0.07181472 0
55.00961 -39.27469 0.2218147 0
55.05961 -39.32469 0.2218147 0
55.05961 -39.27469 0.2218147 0
55.10961 -39.32469 0.2218147 0
55.00961 -39.32469 0.2718147 0
55.00961 -39.27469 0.2718147 0
54.95961 -39.32469 0.4218147 0
55.05961 -39.27469 0.2718147 0
55.10961 -39.32469 0.2718147 0
55.10961 -39.27469 0.2718147 0
55.05961 -39.32469 0.4218147 0
55.10961 -39.32469 0.4218147 0
55.00961 -39.32469 0.4718147 0
55.00961 -39.32469 0.5218147 0
55.00961 -39.32469 0.5718147 0
55.00961 -39.32469 0.6218147 0
55.05961 -39.37469 0.4718147 0
55.05961 -39.37469 0.5218147 0
55.05961 -39.32469 0.5218147 0
55.10961 -39.32469 0.4718147 0
55.10961 -39.32469 0.5218147 0
55.10961 -39.27469 0.5218147 0
55.10961 -39.27469 0.7218148 0
55.10961 -39.27469 0.7718147 0
55.50961 -39.67469 0.8218147 0
55.15961 -39.27469 0.1718147 0
55.15961 -39.27469 0.2218147 0
55.20961 -39.27469 0.1718147 0
55.20961 -39.27469 0.2218147 0
55.25961 -39.32469 0.2218147 0
55.25961 -39.27469 0.2218147 0
55.30961 -39.27469 0.1718147 0
55.15961 -39.27469 0.2718147 0
55.20961 -39.32469 0.2718147 0
55.20961 -39.27469 0.2718147 0
55.20961 -39.32469 0.3718147 0
55.20961 -39.32469 0.4218147 0
55.25961 -39.27469 0.2718147 0
55.30961 -39.32469 0.2718147 0
55.30961 -39.27469 0.2718147 0
55.25961 -39.32469 0.3718147 0
55.30961 -39.32469 0.4218147 0
55.30961 -39.27469 0.3718147 0
55.35961 -39.32469 0.2218147 0
55.35961 -39.27469 0.2218147 0
55.35961 -39.27469 0.2718147 0
55.40961 -39.32469 0.2718147 0
55.15961 -39.37469 0.4718147 0
55.20961 -39.37469 0.4718147 0
55.20961 -39.37469 0.5218147 0
55.15961 -39.32469 0.5218147 0
55.20961 -39.32469 0.5218147 0
55.15961 -39.32469 0.5718147 0
55.15961 -39.27469 0.6218147 0
55.25961 -39.37469 0.4718147 0
55.25961 -39.37469 0.5218147 0
55.30961 -39.37469 0.4718147 0
55.25961 -39.32469 0.5218147 0
55.30961 -39.32469 0.5218147 0
55.25961 -39.32469 0.5718147 0
55.30961 -39.32469 0.5718147 0
55.20961 -39.27469 0.7218148 0
55.15961 -39.27469 0.7718147 0
55.20961 -39.27469 0.7718147 0
55.30961 -39.27469 0.7218148 0
55.40961 -39.47469 0.6218147 0
55.45961 -39.57469 0.6218147 0
55.50961 -39.52469 0.6218147 0
55.40961 -39.57469 0.7218148 0
55.35961 -39.62469 0.7718147 0
55.40961 -39.62469 0.7718147 0
55.40961 -39.62469 0.8218147 0
55.40961 -39.57469 0.7718147 0
55.40961 -39.57469 0.8218147 0
55.40961 -39.52469 0.7218148 0
55.45961 -39.62469 0.7218148 0
55.50961 -39.62469 0.7218148 0
55.45961 -39.62469 0.7718147 0
55.50961 -39.62469 0.7718147 0
55.50961 -39.62469 0.8218147 0
55.35961 -39.37469 0.4718147 0
55.35961 -39.37469 0.5218147 0
55.35961 -39.32469 0.5218147 0
55.35961 -39.27469 0.5218147 0
55.35961 -39.27469 0.6218147 0
55.40961 -39.32469 0.5718147 0
55.45961 -39.42469 0.5218147 0
55.45961 -39.37469 0.5218147 0
55.50961 -39.42469 0.5218147 0
55.50961 -39.37469 0.5218147 0
55.50961 -39.32469 0.5218147 0
55.35961 -39.37469 0.6718147 0
55.40961 -39.42469 0.6718147 0
55.40961 -39.27469 0.7218148 0
55.35961 -39.27469 0.7718147 0
55.50961 -39.42469 0.6718147 0
55.10961 -39.47469 0.9718148 0
55.10961 -39.47469 1.171815 0
55.10961 -39.47469 1.221815 0
55.00961 -39.32469 1.021815 0
55.05961 -39.42469 0.9718148 0
55.00961 -39.27469 1.171815 0
55.10961 -39.37469 1.121815 0
55.05961 -39.42469 1.171815 0
55.05961 -39.42469 1.221815 0
55.10961 -39.32469 1.221815 0
55.10961 -39.42469 1.271815 0
55.10961 -39.27469 1.271815 0
55.20961 -39.57469 0.9218147 0
55.15961 -39.57469 0.9718148 0
55.20961 -39.57469 0.9718148 0
55.20961 -39.57469 1.021815 0
55.15961 -39.52469 0.8718147 0
55.15961 -39.52469 0.9218147 0
55.15961 -39.52469 0.9718148 0
55.15961 -39.52469 1.021815 0
55.20961 -39.52469 0.9718148 0
55.25961 -39.62469 0.8718147 0
55.25961 -39.57469 0.9718148 0
55.30961 -39.57469 0.9718148 0
55.30961 -39.57469 1.021815 0
55.15961 -39.47469 1.121815 0
55.15961 -39.47469 1.221815 0
55.20961 -39.52469 1.221815 0
55.20961 -39.47469 1.221815 0
55.25961 -39.57469 1.121815 0
55.25961 -39.52469 1.071815 0
55.30961 -39.52469 1.121815 0
55.25961 -39.52469 1.171815 0
55.25961 -39.52469 1.221815 0
55.25961 -39.47469 1.221815 0
55.30961 -39.47469 1.171815 0
55.20961 -39.42469 1.071815 0
55.20961 -39.37469 1.171815 0
55.35961 -39.57469 0.9218147 0
55.40961 -39.62469 0.8718147 0
55.40961 -39.57469 0.8718147 0
55.40961 -39.57469 0.9218147 0
55.35961 -39.62469 0.9718148 0
55.35961 -39.62469 1.021815 0
55.35961 -39.57469 0.9718148 0
55.40961 -39.57469 0.9718148 0
55.40961 -39.57469 1.021815 0
55.40961 -39.52469 0.9718148 0
55.45961 -39.62469 0.9718148 0
55.45961 -39.62469 1.021815 0
55.50961 -39.62469 0.9718148 0
55.50961 -39.57469 0.9718148 0
55.40961 -39.47469 1.121815 0
55.35961 -39.52469 1.221815 0
55.35961 -39.47469 1.171815 0
55.40961 -39.52469 1.221815 0
55.50961 -39.52469 1.121815 0
55.50961 -39.47469 1.121815 0
55.45961 -39.52469 1.221815 0
55.50961 -39.52469 1.171815 0
55.50961 -39.52469 1.221815 0
55.50961 -39.42469 1.071815 0
55.20961 -39.47469 1.271815 0
55.25961 -39.52469 1.321815 0
55.25961 -39.47469 1.271815 0
55.30961 -39.47469 1.271815 0
55.20961 -39.32469 1.371815 0
55.35961 -39.57469 1.271815 0
55.35961 -39.47469 1.321815 0
55.45961 -39.52469 1.271815 0
55.50961 -39.52469 1.271815 0
55.35961 -39.42469 1.321815 0
55.40961 -39.32469 1.271815 0
54.90961 -39.22469 0.1718147 0
54.95961 -39.22469 0.1218147 0
54.95961 -39.17469 0.07181472 0
54.95961 -39.17469 0.1218147 0
55.00961 -39.22469 0.1718147 0
54.95961 -39.07469 0.07181472 0
55.00961 -39.12469 0.07181472 0
55.05961 -39.22469 0.1218147 0
55.05961 -39.22469 0.1718147 0
55.05961 -39.17469 0.1718147 0
55.05961 -39.17469 0.2218147 0
55.10961 -39.22469 0.1718147 0
55.10961 -39.22469 0.2218147 0
55.10961 -39.12469 0.07181472 0
55.05961 -39.07469 0.1718147 0
55.05961 -38.97469 0.1718147 0
55.05961 -38.97469 0.2218147 0
55.05961 -38.92469 0.1718147 0
54.95961 -39.22469 0.5218147 0
55.00961 -39.17469 0.5718147 0
54.95961 -39.07469 0.6218147 0
55.05961 -39.22469 0.5218147 0
55.05961 -39.17469 0.4718147 0
55.05961 -39.17469 0.5218147 0
55.05961 -39.07469 0.5218147 0
54.95961 -39.07469 0.6718147 0
55.00961 -39.07469 0.6718147 0
55.05961 -39.22469 0.7718147 0
55.05961 -39.17469 0.7718147 0
55.05961 -39.17469 0.8218147 0
55.00961 -39.02469 0.5218147 0
54.95961 -39.02469 0.5718147 0
55.00961 -38.87469 0.5218147 0
54.95961 -38.92469 0.6218147 0
55.05961 -38.97469 0.5218147 0
55.05961 -38.92469 0.5218147 0
54.95961 -38.92469 0.6718147 0
54.95961 -38.87469 0.6718147 0
55.05961 -38.97469 0.7718147 0
55.05961 -38.97469 0.8218147 0
55.05961 -38.82469 0.1718147 0
55.05961 -38.77469 0.1718147 0
55.05961 -38.67469 0.1718147 0
55.10961 -38.72469 0.2218147 0
54.95961 -38.62469 0.07181472 0
54.95961 -38.52469 0.1218147 0
54.95961 -38.47469 0.07181472 0
55.00961 -38.52469 0.07181472 0
55.05961 -38.57469 0.07181472 0
55.05961 -38.57469 0.1718147 0
55.05961 -38.52469 0.1218147 0
55.05961 -38.47469 0.2718147 0
54.95961 -38.82469 0.5718147 0
55.00961 -38.72469 0.5218147 0
54.95961 -38.72469 0.6218147 0
54.95961 -38.67469 0.5718147 0
55.05961 -38.82469 0.5218147 0
55.05961 -38.77469 0.5218147 0
55.10961 -38.72469 0.5218147 0
55.10961 -38.67469 0.5218147 0
54.95961 -38.67469 0.6718147 0
55.05961 -38.82469 0.7718147 0
55.05961 -38.82469 0.8218147 0
55.10961 -38.72469 0.7718147 0
55.00961 -38.52469 0.5218147 0
54.95961 -38.52469 0.6218147 0
54.95961 -38.47469 0.5718147 0
55.05961 -38.62469 0.5218147 0
55.10961 -38.47469 0.5218147 0
54.95961 -38.47469 0.6718147 0
55.10961 -38.62469 0.8218147 0
55.15961 -39.22469 0.1218147 0
55.20961 -39.17469 0.1218147 0
55.20961 -39.12469 0.07181472 0
55.25961 -39.22469 0.1218147 0
55.30961 -39.22469 0.1218147 0
55.25961 -39.22469 0.1718147 0
55.30961 -39.22469 0.1718147 0
55.30961 -39.22469 0.2218147 0
55.30961 -39.17469 0.1718147 0
55.30961 -39.12469 0.07181472 0
55.30961 -39.12469 0.1218147 0
55.30961 -39.07469 0.07181472 0
55.30961 -39.07469 0.1718147 0
55.30961 -39.07469 0.2218147 0
55.30961 -39.22469 0.2718147 0
55.30961 -39.22469 0.3718147 0
55.30961 -39.22469 0.4218147 0
55.30961 -39.12469 0.2718147 0
55.30961 -39.12469 0.4218147 0
55.30961 -39.02469 0.07181472 0
55.30961 -38.92469 0.07181472 0
55.30961 -38.87469 0.1718147 0
55.30961 -38.87469 0.2218147 0
55.30961 -39.02469 0.2718147 0
55.30961 -39.02469 0.4218147 0
55.35961 -39.22469 0.1218147 0
55.35961 -39.12469 0.1218147 0
55.35961 -39.12469 0.2218147 0
55.40961 -39.12469 0.2218147 0
55.35961 -39.22469 0.2718147 0
55.35961 -39.12469 0.2718147 0
55.35961 -39.12469 0.4218147 0
55.35961 -39.02469 0.1218147 0
55.35961 -39.02469 0.2218147 0
55.35961 -38.97469 0.1718147 0
55.40961 -38.97469 0.1718147 0
55.35961 -38.92469 0.07181472 0
55.35961 -38.92469 0.1218147 0
55.35961 -38.92469 0.2218147 0
55.35961 -39.02469 0.2718147 0
55.40961 -38.97469 0.2718147 0
55.35961 -39.02469 0.4218147 0
55.35961 -38.92469 0.2718147 0
55.35961 -38.92469 0.4218147 0
55.40961 -38.92469 0.4218147 0
55.40961 -38.87469 0.4218147 0
55.45961 -38.92469 0.4218147 0
55.50961 -38.92469 0.4218147 0
55.50961 -38.87469 0.3718147 0
55.30961 -39.22469 0.4718147 0
55.30961 -39.22469 0.5218147 0
55.25961 -39.17469 0.5718147 0
55.30961 -39.07469 0.4718147 0
55.15961 -39.22469 0.7718147 0
55.15961 -39.22469 0.8218147 0
55.25961 -39.22469 0.8218147 0
55.35961 -39.12469 0.5218147 0
55.40961 -39.12469 0.5218147 0
55.40961 -39.22469 0.8218147 0
55.40961 -38.97469 0.5218147 0
55.35961 -38.92469 0.5218147 0
55.40961 -38.92469 0.5218147 0
55.45961 -38.97469 0.5218147 0
55.45961 -38.92469 0.5218147 0
55.50961 -38.92469 0.5218147 0
55.30961 -38.72469 0.07181472 0
55.15961 -38.57469 0.07181472 0
55.20961 -38.57469 0.07181472 0
55.20961 -38.52469 0.1218147 0
55.30961 -38.57469 0.07181472 0
55.30961 -38.52469 0.1218147 0
55.15961 -38.47469 0.2718147 0
55.25961 -38.47469 0.2718147 0
55.35961 -38.82469 0.07181472 0
55.35961 -38.82469 0.1218147 0
55.35961 -38.77469 0.1218147 0
55.35961 -38.82469 0.1718147 0
55.35961 -38.82469 0.2218147 0
55.40961 -38.77469 0.1718147 0
55.35961 -38.72469 0.07181472 0
55.35961 -38.72469 0.1218147 0
55.35961 -38.67469 0.1218147 0
55.35961 -38.72469 0.2218147 0
55.35961 -38.67469 0.1718147 0
55.35961 -38.67469 0.2218147 0
55.40961 -38.72469 0.2218147 0
55.35961 -38.82469 0.2718147 0
55.35961 -38.82469 0.4218147 0
55.35961 -38.72469 0.2718147 0
55.35961 -38.67469 0.2718147 0
55.35961 -38.72469 0.4218147 0
55.35961 -38.67469 0.3718147 0
55.35961 -38.62469 0.1218147 0
55.35961 -38.57469 0.1218147 0
55.35961 -38.62469 0.1718147 0
55.40961 -38.62469 0.1718147 0
55.35961 -38.52469 0.1718147 0
55.35961 -38.52469 0.2218147 0
55.40961 -38.52469 0.2218147 0
55.35961 -38.62469 0.2718147 0
55.35961 -38.57469 0.2718147 0
55.35961 -38.62469 0.3718147 0
55.35961 -38.57469 0.3718147 0
55.35961 -38.52469 0.2718147 0
55.35961 -38.47469 0.2718147 0
55.35961 -38.52469 0.3718147 0
55.35961 -38.52469 0.4218147 0
55.35961 -38.47469 0.3718147 0
55.35961 -38.72469 0.5218147 0
55.35961 -38.67469 0.5718147 0
55.35961 -38.57469 0.5718147 0
55.35961 -38.47469 0.5718147 0
55.00961 -39.07469 0.8718147 0
55.05961 -39.07469 0.8718147 0
55.00961 -39.17469 1.071815 0
55.00961 -39.07469 1.171815 0
55.10961 -39.17469 1.221815 0
55.05961 -38.92469 0.8718147 0
55.00961 -38.87469 1.171815 0
55.00961 -39.07469 1.271815 0
55.10961 -39.22469 1.321815 0
55.00961 -38.87469 1.271815 0
55.00961 -38.87469 1.371815 0
55.10961 -39.02469 1.271815 0
55.10961 -38.87469 1.271815 0
55.00961 -38.67469 1.171815 0
55.00961 -38.47469 1.171815 0
55.10961 -38.52469 1.071815 0
55.00961 -38.67469 1.271815 0
55.05961 -38.82469 1.421815 0
55.10961 -38.72469 1.271815 0
55.05961 -38.67469 1.421815 0
55.00961 -38.62469 1.371815 0
55.10961 -38.52469 1.271815 0
55.10961 -38.47469 1.421815 0
55.25961 -39.02469 0.8718147 0
55.40961 -39.07469 0.9718148 0
55.50961 -39.12469 0.8718147 0
55.40961 -39.02469 0.8718147 0
55.40961 -38.92469 0.9718148 0
55.20961 -39.17469 1.371815 0
55.20961 -39.07469 1.371815 0
55.25961 -39.07469 1.471815 0
55.15961 -39.02469 1.321815 0
55.15961 -38.97469 1.271815 0
55.15961 -39.02469 1.371815 0
55.15961 -38.92469 1.421815 0
55.20961 -38.97469 1.471815 0
55.35961 -39.07469 1.471815 0
55.20961 -38.67469 1.171815 0
55.30961 -38.72469 1.171815 0
55.15961 -38.47469 0.9218147 0
55.15961 -38.57469 1.071815 0
55.15961 -38.57469 1.171815 0
55.20961 -38.52469 1.071815 0
55.25961 -38.57469 1.071815 0
55.35961 -38.77469 0.9718148 0
55.35961 -38.82469 1.071815 0
55.35961 -38.77469 1.171815 0
55.45961 -38.77469 1.071815 0
55.45961 -38.82469 1.171815 0
55.40961 -38.62469 0.9718148 0
55.35961 -38.52469 0.9218147 0
55.35961 -38.47469 0.9718148 0
55.35961 -38.62469 1.071815 0
55.35961 -38.57469 1.071815 0
55.35961 -38.47469 1.071815 0
55.45961 -38.57469 1.071815 0
55.15961 -38.77469 1.371815 0
55.20961 -38.82469 1.471815 0
55.20961 -38.67469 1.471815 0
55.15961 -38.57469 1.371815 0
55.20961 -38.52469 1.521815 0
55.20961 -38.52469 1.621815 0
55.25961 -38.62469 1.571815 0
55.30961 -38.62469 1.571815 0
55.30961 -38.62469 1.621815 0
55.30961 -38.52469 1.621815 0
55.35961 -38.62469 1.571815 0
55.35961 -38.62469 1.621815 0
55.45961 -38.52469 1.621815 0
54.70961 -37.67469 0.1218147 0
54.70961 -37.62469 0.1218147 0
54.70961 -37.52469 0.1218147 0
54.70961 -37.42469 0.1218147 0
54.70961 -37.32469 0.1218147 0
54.70961 -37.22469 0.1218147 0
54.70961 -37.12469 0.1218147 0
54.60961 -36.97469 0.1218147 0
54.55961 -36.87469 0.1218147 0
54.55961 -36.92469 0.1718147 0
54.65961 -37.02469 0.1218147 0
54.70961 -36.92469 0.1218147 0
54.65961 -36.87469 0.1718147 0
54.90961 -38.42469 0.1218147 0
54.85961 -38.32469 0.1218147 0
54.80961 -38.12469 0.1218147 0
54.85961 -38.22469 0.1218147 0
55.00961 -38.37469 0.07181472 0
55.00961 -38.32469 0.07181472 0
55.05961 -38.42469 0.2718147 0
55.05961 -38.42469 0.4218147 0
55.00961 -38.22469 0.07181472 0
55.00961 -38.22469 0.1218147 0
55.00961 -38.17469 0.07181472 0
54.95961 -38.12469 0.1218147 0
55.00961 -38.12469 0.07181472 0
55.00961 -38.07469 0.07181472 0
55.00961 -38.37469 0.5718147 0
54.95961 -38.32469 0.6218147 0
55.00961 -38.32469 0.5718147 0
54.95961 -38.42469 0.6718147 0
55.00961 -38.12469 0.6218147 0
55.10961 -38.22469 0.5218147 0
55.05961 -38.17469 0.5718147 0
55.10961 -38.07469 0.5218147 0
55.05961 -38.07469 0.5718147 0
54.80961 -38.02469 0.1218147 0
54.75961 -37.92469 0.1218147 0
54.75961 -37.82469 0.1218147 0
54.75961 -37.72469 0.1218147 0
55.00961 -38.02469 0.07181472 0
55.00961 -38.02469 0.1218147 0
55.00961 -37.97469 0.07181472 0
55.00961 -37.97469 0.1718147 0
54.95961 -37.92469 0.1218147 0
55.00961 -37.92469 0.07181472 0
55.05961 -38.02469 0.1718147 0
55.00961 -37.82469 0.07181472 0
55.00961 -37.82469 0.1218147 0
55.00961 -37.77469 0.07181472 0
55.00961 -37.77469 0.1718147 0
54.95961 -37.72469 0.1218147 0
54.95961 -37.67469 0.07181472 0
55.05961 -37.82469 0.1718147 0
55.10961 -37.67469 0.1718147 0
55.10961 -38.02469 0.5218147 0
55.05961 -37.97469 0.5718147 0
55.05961 -37.92469 0.5218147 0
55.10961 -37.87469 0.5218147 0
55.05961 -37.92469 0.5718147 0
55.05961 -37.87469 0.6218147 0
55.00961 -38.02469 0.6718147 0
55.05961 -37.82469 0.5718147 0
55.10961 -37.72469 0.5218147 0
55.05961 -37.72469 0.5718147 0
55.05961 -37.67469 0.6218147 0
55.00961 -37.82469 0.6718147 0
55.15961 -38.42469 0.2718147 0
55.20961 -38.42469 0.2718147 0
55.15961 -38.42469 0.4218147 0
55.25961 -38.42469 0.4218147 0
55.30961 -38.42469 0.3718147 0
55.35961 -38.42469 0.4218147 0
55.20961 -38.32469 0.5218147 0
55.20961 -38.27469 0.5218147 0
55.15961 -38.32469 0.8218147 0
55.15961 -38.17469 0.5218147 0
55.20961 -38.22469 0.5218147 0
55.15961 -38.12469 0.5218147 0
55.20961 -38.12469 0.6718147 0
55.20961 -38.02469 0.8218147 0
55.20961 -37.77469 0.8218147 0
55.10961 -38.37469 0.9218147 0
55.10961 -38.32469 0.9718148 0
55.10961 -38.42469 1.071815 0
55.05961 -38.27469 1.071815 0
55.05961 -38.27469 1.171815 0
55.10961 -38.12469 0.9718148 0
55.05961 -38.07469 1.071815 0
55.05961 -38.07469 1.171815 0
55.00961 -38.42469 1.371815 0
55.05961 -38.42469 1.271815 0
55.10961 -38.37469 1.271815 0
55.10961 -38.32469 1.421815 0
55.05961 -38.22469 1.271815 0
55.10961 -38.17469 1.421815 0
55.00961 -38.07469 1.521815 0
55.05961 -38.07469 1.571815 0
55.10961 -38.07469 1.571815 0
55.10961 -37.97469 1.021815 0
55.05961 -37.92469 1.071815 0
55.05961 -37.87469 1.171815 0
55.10961 -37.77469 1.021815 0
55.05961 -37.72469 1.071815 0
55.05961 -37.67469 1.171815 0
55.00961 -38.02469 1.321815 0
55.10961 -37.97469 1.421815 0
55.05961 -37.92469 1.621815 0
55.05961 -37.77469 1.321815 0
55.10961 -37.77469 1.471815 0
55.10961 -37.67469 1.621815 0
55.15961 -38.37469 0.8718147 0
55.15961 -38.42469 0.9718148 0
55.15961 -38.37469 1.171815 0
55.20961 -38.32469 1.121815 0
55.15961 -38.22469 0.8718147 0
55.15961 -38.22469 0.9218147 0
55.15961 -38.17469 1.221815 0
55.20961 -38.07469 1.121815 0
55.15961 -38.32469 1.421815 0
55.15961 -38.37469 1.521815 0
55.15961 -38.17469 1.321815 0
55.15961 -38.17469 1.371815 0
55.20961 -38.07469 1.421815 0
55.15961 -38.22469 1.521815 0
55.30961 -38.12469 1.621815 0
55.50961 -38.27469 1.621815 0
55.15961 -38.02469 0.8718147 0
55.15961 -38.02469 0.9218147 0
55.20961 -38.02469 1.221815 0
55.15961 -37.82469 0.9218147 0
55.20961 -37.82469 0.8718147 0
55.15961 -37.67469 0.9218147 0
55.20961 -37.82469 1.221815 0
55.20961 -37.77469 1.171815 0
55.15961 -38.02469 1.321815 0
55.15961 -37.82469 1.321815 0
55.15961 -37.67469 1.321815 0
55.20961 -37.77469 1.471815 0
55.00961 -37.62469 0.07181472 0
55.00961 -37.57469 0.1718147 0
55.00961 -37.52469 0.07181472 0
55.00961 -37.52469 0.1218147 0
55.00961 -37.47469 0.1218147 0
55.10961 -37.47469 0.1718147 0
55.00961 -37.42469 0.1218147 0
55.00961 -37.37469 0.07181472 0
55.00961 -37.32469 0.1218147 0
55.00961 -37.27469 0.1218147 0
55.00961 -37.32469 0.1718147 0
55.10961 -37.27469 0.1718147 0
55.05961 -37.62469 0.5718147 0
55.10961 -37.52469 0.5218147 0
55.05961 -37.52469 0.5718147 0
55.05961 -37.47469 0.6218147 0
55.05961 -37.57469 0.6718147 0
55.10961 -37.42469 0.5718147 0
55.05961 -37.32469 0.5718147 0
55.05961 -37.27469 0.6218147 0
55.10961 -37.27469 0.5718147 0
55.05961 -37.37469 0.6718147 0
54.85961 -37.07469 0.1218147 0
54.75961 -37.02469 0.1218147 0
54.95961 -37.17469 0.1218147 0
55.00961 -37.22469 0.1218147 0
55.00961 -37.12469 0.1218147 0
55.00961 -37.12469 0.1718147 0
55.10961 -37.07469 0.1718147 0
55.00961 -36.92469 0.1718147 0
55.05961 -37.02469 0.1218147 0
55.05961 -36.92469 0.1218147 0
55.05961 -37.12469 0.5718147 0
55.05961 -37.07469 0.6218147 0
55.10961 -37.07469 0.5718147 0
55.05961 -37.12469 0.6718147 0
55.05961 -36.92469 0.5718147 0
55.10961 -36.87469 0.5718147 0
55.05961 -36.87469 0.6718147 0
55.15961 -37.32469 0.5218147 0
55.35961 -37.37469 0.5218147 0
55.35961 -37.32469 0.5218147 0
55.40961 -37.27469 0.5218147 0
55.15961 -37.12469 0.5218147 0
55.15961 -36.92469 0.5718147 0
55.40961 -37.22469 0.5218147 0
55.45961 -37.12469 0.5218147 0
55.40961 -36.92469 0.5218147 0
55.45961 -37.02469 0.5218147 0
55.10961 -37.62469 1.021815 0
55.05961 -37.52469 1.121815 0
55.05961 -37.47469 1.221815 0
55.10961 -37.42469 1.021815 0
55.10961 -37.32469 1.121815 0
55.05961 -37.27469 1.221815 0
55.05961 -37.57469 1.321815 0
55.10961 -37.62469 1.471815 0
55.10961 -37.47469 1.621815 0
55.05961 -37.37469 1.321815 0
55.10961 -37.42469 1.471815 0
55.10961 -37.27469 1.621815 0
55.10961 -37.12469 1.121815 0
55.05961 -37.07469 1.221815 0
55.10961 -36.92469 1.121815 0
55.05961 -37.12469 1.321815 0
55.10961 -37.22469 1.471815 0
55.05961 -36.87469 1.321815 0
55.10961 -37.02469 1.521815 0
55.10961 -36.87469 1.521815 0
55.20961 -37.62469 0.8718147 0
55.15961 -37.47469 0.9218147 0
55.20961 -37.47469 0.8718147 0
55.20961 -37.62469 1.221815 0
55.20961 -37.52469 1.171815 0
55.20961 -37.37469 0.9218147 0
55.15961 -37.27469 0.9718148 0
55.15961 -37.47469 1.371815 0
55.20961 -37.47469 1.521815 0
55.25961 -37.52469 1.621815 0
55.20961 -37.37469 1.271815 0
55.15961 -37.27469 1.371815 0
55.25961 -37.32469 1.621815 0
55.20961 -37.17469 0.9218147 0
55.15961 -37.22469 1.021815 0
55.20961 -37.07469 0.9718148 0
55.25961 -37.17469 0.8718147 0
55.20961 -37.17469 1.171815 0
55.25961 -37.17469 1.221815 0
55.15961 -37.02469 1.021815 0
55.20961 -36.92469 0.9218147 0
55.20961 -36.87469 0.9718148 0
55.25961 -36.87469 1.221815 0
55.20961 -37.17469 1.271815 0
55.20961 -37.07469 1.371815 0
55.20961 -37.22469 1.521815 0
55.15961 -37.07469 1.621815 0
55.20961 -36.87469 1.371815 0
55.25961 -36.92469 1.271815 0
55.10961 -38.22469 1.671815 0
55.05961 -37.87469 1.771815 0
55.10961 -37.67469 1.771815 0
55.10961 -37.77469 1.971815 0
55.15961 -38.17469 1.671815 0
55.20961 -38.22469 1.721815 0
55.15961 -38.17469 1.771815 0
55.25961 -38.22469 1.721815 0
55.30961 -38.22469 1.721815 0
55.25961 -38.17469 1.771815 0
55.30961 -38.22469 1.771815 0
55.30961 -38.17469 1.771815 0
55.20961 -38.12469 1.871815 0
55.20961 -38.07469 1.971815 0
55.25961 -38.07469 1.921815 0
55.25961 -38.12469 1.971815 0
55.30961 -38.07469 1.971815 0
55.30961 -38.07469 2.021815 0
55.50961 -38.27469 1.671815 0
55.50961 -38.27469 1.721815 0
55.40961 -38.22469 1.721815 0
55.35961 -38.17469 1.771815 0
55.40961 -38.22469 1.771815 0
55.40961 -38.17469 1.771815 0
55.45961 -38.22469 1.721815 0
55.45961 -38.22469 1.771815 0
55.50961 -38.22469 1.771815 0
55.50961 -38.17469 1.771815 0
55.35961 -38.17469 1.921815 0
55.40961 -38.07469 1.921815 0
55.35961 -38.07469 1.971815 0
55.40961 -38.07469 1.971815 0
55.40961 -38.07469 2.021815 0
55.45961 -38.12469 1.921815 0
55.45961 -38.07469 1.971815 0
55.50961 -38.12469 1.971815 0
55.50961 -38.07469 1.971815 0
55.50961 -38.07469 2.021815 0
55.20961 -37.97469 1.721815 0
55.25961 -37.97469 1.771815 0
55.25961 -37.92469 1.771815 0
55.15961 -37.92469 1.921815 0
55.25961 -38.02469 1.921815 0
55.25961 -38.02469 2.021815 0
55.30961 -37.97469 2.021815 0
55.25961 -37.92469 1.921815 0
55.20961 -37.77469 1.721815 0
55.25961 -37.67469 1.721815 0
55.15961 -37.77469 1.921815 0
55.25961 -37.77469 2.021815 0
55.25961 -37.72469 1.971815 0
55.40961 -38.02469 2.021815 0
55.40961 -37.87469 1.971815 0
55.50961 -38.02469 1.921815 0
55.10961 -37.47469 1.771815 0
55.05961 -37.57469 1.971815 0
55.10961 -37.32469 1.971815 0
55.10961 -37.22469 1.821815 0
55.10961 -37.12469 1.971815 0
55.10961 -37.02469 1.821815 0
55.10961 -36.92469 1.671815 0
55.10961 -36.87469 1.971815 0
55.20961 -37.62469 1.771815 0
55.25961 -37.62469 1.821815 0
55.15961 -37.57469 1.921815 0
55.25961 -37.52469 1.971815 0
55.20961 -37.42469 1.771815 0
55.15961 -37.37469 1.971815 0
55.30961 -37.32469 1.871815 0
55.25961 -37.32469 2.021815 0
55.20961 -37.17469 1.671815 0
55.20961 -37.07469 1.821815 0
55.25961 -37.22469 1.771815 0
55.15961 -37.17469 1.971815 0
55.25961 -37.07469 1.921815 0
55.25961 -37.12469 2.021815 0
55.25961 -36.87469 1.671815 0
55.20961 -36.97469 1.971815 0
55.30961 -36.87469 2.071815 0
45.15961 -27.22469 0.07181472 0
45.35961 -27.17469 0.07181472 0
45.55961 -27.12469 0.07181472 0
45.80961 -27.02469 0.07181472 0
45.15961 -26.02469 0.07181472 0
45.40961 -25.97469 0.07181472 0
45.60961 -25.97469 0.07181472 0
45.80961 -26.02469 0.07181472 0
46.00961 -26.97469 0.07181472 0
46.20961 -26.92469 0.07181472 0
46.40961 -26.87469 0.07181472 0
46.60961 -26.77469 0.07181472 0
46.00961 -26.02469 0.07181472 0
46.25961 -26.02469 0.07181472 0
46.45961 -26.07469 0.07181472 0
46.65961 -26.07469 0.07181472 0
46.80961 -26.77469 0.07181472 0
47.00961 -26.67469 0.07181472 0
47.25961 -26.67469 0.07181472 0
47.45961 -26.57469 0.07181472 0
46.85961 -26.07469 0.07181472 0
47.65961 -26.52469 0.07181472 0
47.85961 -26.52469 0.07181472 0
48.05961 -26.42469 0.07181472 0
48.25961 -26.42469 0.07181472 0
48.50961 -26.37469 0.07181472 0
48.70961 -26.32469 0.07181472 0
48.90961 -26.32469 0.07181472 0
49.10961 -26.27469 0.07181472 0
51.95961 -36.77469 0.1218147 0
