# .PCD v0.7 - Point Cloud Data file format
VERSION 0.7
FIELDS x y z intensity
SIZE 4 4 4 4
TYPE F F F F
COUNT 1 1 1 1
WIDTH 1533
HEIGHT 1
VIEWPOINT 0 0 0 1 0 0 0
POINTS 1533
DATA ascii
137.9096 -29.02469 0.07181472 0
137.8596 -28.87469 0.1218147 0
137.9096 -28.87469 0.07181472 0
137.9596 -30.42469 0.1218147 0
138.0096 -30.37469 0.1218147 0
138.0096 -30.27469 0.1218147 0
138.0596 -30.37469 0.1218147 0
138.0596 -30.32469 0.1218147 0
138.1096 -30.27469 0.1218147 0
137.9596 -30.22469 0.1218147 0
138.1596 -30.22469 0.1218147 0
138.2096 -30.12469 0.1218147 0
138.2096 -30.07469 0.1218147 0
137.9596 -29.77469 0.1218147 0
137.9596 -29.72469 0.1218147 0
138.2596 -30.02469 0.1218147 0
138.3096 -29.92469 0.1218147 0
138.3096 -29.82469 0.1218147 0
138.4096 -30.32469 0.1218147 0
138.5096 -30.32469 0.1218147 0
138.6596 -30.32469 0.1218147 0
138.7096 -30.17469 0.1218147 0
138.6596 -30.07469 0.1218147 0
138.5096 -29.87469 0.1218147 0
138.3596 -29.77469 0.1218147 0
138.4096 -29.77469 0.1218147 0
138.3596 -29.72469 0.1218147 0
138.3596 -29.67469 0.1218147 0
138.5096 -29.82469 0.1218147 0
138.6096 -29.97469 0.1218147 0
138.5596 -29.92469 0.1218147 0
138.6596 -30.02469 0.1218147 0
138.0096 -29.62469 0.1218147 0
137.9596 -29.47469 0.07181472 0
138.0096 -29.52469 0.1218147 0
137.9596 -29.27469 0.07181472 0
138.0596 -29.42469 0.1218147 0
138.0596 -29.32469 0.1218147 0
138.0596 -29.27469 0.1218147 0
138.0096 -29.17469 0.1218147 0
137.9596 -29.07469 0.07181472 0
138.0596 -29.22469 0.1218147 0
138.0596 -29.17469 0.1218147 0
138.0596 -29.12469 0.1218147 0
138.1096 -29.12469 0.1218147 0
138.0096 -29.02469 0.1218147 0
137.9596 -28.92469 0.07181472 0
138.0096 -28.92469 0.1218147 0
138.1596 -29.07469 0.1218147 0
138.2096 -29.07469 0.1218147 0
138.2596 -29.02469 0.1218147 0
138.4096 -29.62469 0.1218147 0
138.4096 -29.52469 0.1218147 0
138.4096 -29.42469 0.1218147 0
138.4096 -29.32469 0.1218147 0
138.4096 -29.22469 0.1218147 0
138.4096 -29.12469 0.1218147 0
138.4096 -29.02469 0.1218147 0
138.4096 -28.92469 0.1218147 0
138.4596 -28.87469 0.1218147 0
137.8096 -28.82469 0.1218147 0
137.8096 -28.72469 0.07181472 0
137.8596 -28.82469 0.1218147 0
137.9096 -28.82469 0.07181472 0
137.9096 -28.77469 0.07181472 0
137.8596 -28.72469 0.1218147 0
137.8596 -28.67469 0.1218147 0
137.9096 -28.72469 0.1218147 0
137.9096 -28.67469 0.07181472 0
137.8096 -28.62469 0.07181472 0
137.8096 -28.52469 0.07181472 0
137.8096 -28.47469 0.07181472 0
137.8596 -28.62469 0.1218147 0
137.9096 -28.62469 0.07181472 0
137.8596 -28.52469 0.1218147 0
137.8596 -28.47469 0.1218147 0
137.9096 -28.52469 0.1218147 0
137.9096 -28.47469 0.07181472 0
137.8096 -28.42469 0.1218147 0
137.9096 -28.42469 0.1218147 0
137.9096 -28.37469 0.07181472 0
137.8596 -28.32469 0.1218147 0
137.8596 -28.27469 0.07181472 0
137.9096 -28.27469 0.07181472 0
137.8096 -28.22469 0.07181472 0
137.8596 -28.17469 0.07181472 0
137.8596 -28.17469 0.1218147 0
137.9096 -28.17469 0.07181472 0
137.8596 -28.12469 0.07181472 0
137.9096 -28.12469 0.07181472 0
137.8596 -27.97469 0.07181472 0
137.8596 -27.97469 0.1218147 0
137.9096 -28.02469 0.07181472 0
137.9096 -28.02469 0.1218147 0
137.9096 -27.87469 0.07181472 0
137.9096 -27.87469 0.1218147 0
137.8596 -27.77469 0.07181472 0
137.9096 -27.82469 0.1218147 0
137.9096 -27.72469 0.07181472 0
137.8596 -27.62469 0.07181472 0
137.9096 -27.62469 0.07181472 0
137.9096 -27.62469 0.1218147 0
137.9096 -27.52469 0.07181472 0
137.9096 -27.47469 0.1218147 0
137.8596 -27.42469 0.07181472 0
137.9096 -27.42469 0.1218147 0
137.8596 -27.27469 0.07181472 0
137.9096 -27.32469 0.07181472 0
137.9096 -27.32469 0.1218147 0
137.9596 -28.82469 0.1218147 0
137.9596 -28.77469 0.1218147 0
137.9596 -28.67469 0.07181472 0
138.0096 -28.72469 0.07181472 0
138.1096 -28.67469 0.07181472 0
137.9596 -28.47469 0.07181472 0
138.3096 -28.72469 0.1218147 0
138.2096 -28.62469 0.07181472 0
138.3096 -28.62469 0.07181472 0
138.3096 -28.62469 0.1218147 0
138.2596 -28.52469 0.1218147 0
137.9596 -28.37469 0.1218147 0
138.0096 -28.32469 0.1218147 0
138.0596 -28.27469 0.1218147 0
138.1096 -28.32469 0.1218147 0
137.9596 -28.07469 0.1218147 0
138.0096 -28.12469 0.1218147 0
138.0596 -28.22469 0.1218147 0
138.1096 -28.22469 0.1218147 0
138.1596 -28.37469 0.1218147 0
138.2096 -28.42469 0.1218147 0
138.1596 -28.17469 0.1218147 0
138.2096 -28.12469 0.1218147 0
138.2596 -28.07469 0.1218147 0
138.3596 -28.82469 0.1218147 0
138.3596 -28.77469 0.1218147 0
138.5096 -28.82469 0.1218147 0
138.3596 -28.57469 0.07181472 0
138.4596 -28.52469 0.07181472 0
138.5096 -28.52469 0.07181472 0
138.5596 -28.77469 0.1218147 0
138.6096 -28.72469 0.1218147 0
138.6596 -28.67469 0.1218147 0
138.6096 -28.47469 0.07181472 0
138.7096 -28.62469 0.1218147 0
138.7096 -28.52469 0.1218147 0
138.6596 -28.42469 0.07181472 0
138.7096 -28.42469 0.07181472 0
138.5596 -28.12469 0.1218147 0
138.6596 -28.12469 0.1218147 0
137.9596 -27.92469 0.07181472 0
137.9596 -27.82469 0.1218147 0
137.9596 -27.72469 0.07181472 0
137.9596 -27.67469 0.07181472 0
138.0096 -27.72469 0.1218147 0
138.0596 -27.67469 0.07181472 0
138.2596 -28.02469 0.1218147 0
138.3096 -27.92469 0.1218147 0
137.9596 -27.57469 0.07181472 0
138.0596 -27.62469 0.1218147 0
138.1096 -27.52469 0.1218147 0
137.9596 -27.37469 0.07181472 0
138.0096 -27.37469 0.07181472 0
137.9596 -27.27469 0.07181472 0
138.0596 -27.42469 0.07181472 0
138.1096 -27.42469 0.1218147 0
138.1096 -27.32469 0.1218147 0
138.1596 -27.27469 0.1218147 0
138.3596 -27.92469 0.1218147 0
138.4096 -27.82469 0.1218147 0
138.4096 -27.72469 0.1218147 0
138.4596 -27.67469 0.1218147 0
138.5096 -27.72469 0.1218147 0
138.6596 -27.97469 0.1218147 0
138.6596 -27.92469 0.1218147 0
138.5596 -27.77469 0.1218147 0
138.6096 -27.82469 0.1218147 0
138.4096 -27.62469 0.1218147 0
138.4596 -27.62469 0.1218147 0
138.5096 -27.52469 0.1218147 0
138.5096 -27.42469 0.1218147 0
138.5096 -27.32469 0.1218147 0
136.4096 -27.02469 0.2718147 0
136.4096 -27.02469 0.3218147 0
136.4096 -27.02469 0.4218147 0
136.5096 -27.02469 0.2718147 0
136.5096 -27.02469 0.3218147 0
136.5096 -27.02469 0.4218147 0
136.6096 -27.02469 0.2718147 0
136.6096 -27.02469 0.3218147 0
136.6096 -27.02469 0.4218147 0
136.6096 -26.92469 0.2718147 0
136.6596 -27.02469 0.2718147 0
136.6596 -27.02469 0.3218147 0
136.6596 -26.97469 0.2718147 0
136.6596 -27.02469 0.3718147 0
136.4096 -26.77469 0.1718147 0
136.4096 -26.72469 0.1718147 0
136.3596 -26.67469 0.2718147 0
136.3596 -26.67469 0.3218147 0
136.3596 -26.67469 0.3718147 0
136.3596 -26.67469 0.4218147 0
136.5096 -26.82469 0.2718147 0
136.3596 -26.62469 0.3218147 0
136.3596 -26.62469 0.4218147 0
136.3596 -26.67469 0.4718147 0
136.3596 -26.67469 0.5218147 0
136.5096 -24.82469 0.2218147 0
136.4596 -24.82469 0.3218147 0
136.4596 -24.82469 0.4218147 0
136.4596 -24.57469 0.1718147 0
136.4596 -24.52469 0.1718147 0
136.4096 -24.47469 0.3218147 0
136.4096 -24.47469 0.4218147 0
136.5596 -24.82469 0.2218147 0
136.5596 -24.82469 0.3218147 0
136.5596 -24.82469 0.4218147 0
136.6596 -24.82469 0.2718147 0
136.6596 -24.82469 0.3218147 0
136.6596 -24.82469 0.3718147 0
136.7096 -24.82469 0.3718147 0
136.6596 -24.72469 0.2718147 0
136.5596 -24.62469 0.2718147 0
136.4096 -24.47469 0.5218147 0
136.4096 -24.42469 0.3218147 0
136.4096 -24.42469 0.4218147 0
136.4096 -24.42469 0.4718147 0
136.4096 -24.42469 0.5218147 0
136.7596 -24.82469 0.2718147 0
136.7596 -24.82469 0.3218147 0
137.9096 -27.22469 0.07181472 0
137.9096 -27.22469 0.1218147 0
137.9096 -27.12469 0.07181472 0
137.9096 -27.12469 0.1218147 0
137.9096 -27.02469 0.1218147 0
137.9096 -26.97469 0.07181472 0
137.9096 -26.92469 0.07181472 0
137.9096 -26.92469 0.1218147 0
137.9096 -26.82469 0.07181472 0
137.9096 -26.77469 0.07181472 0
137.9096 -26.72469 0.07181472 0
137.9096 -26.62469 0.07181472 0
137.9096 -26.57469 0.07181472 0
137.9096 -26.52469 0.07181472 0
137.9096 -26.42469 0.07181472 0
137.9096 -26.42469 0.1218147 0
137.9096 -26.32469 0.07181472 0
137.9096 -26.32469 0.1218147 0
137.9096 -26.22469 0.07181472 0
137.9096 -26.17469 0.07181472 0
137.9096 -26.12469 0.07181472 0
137.9596 -27.17469 0.07181472 0
138.0096 -27.17469 0.07181472 0
137.9596 -27.12469 0.07181472 0
137.9596 -27.07469 0.07181472 0
138.0596 -27.22469 0.07181472 0
138.1096 -27.22469 0.1218147 0
137.9596 -26.97469 0.07181472 0
138.0096 -27.02469 0.07181472 0
138.0596 -27.02469 0.07181472 0
138.0596 -26.97469 0.07181472 0
138.1096 -27.02469 0.1218147 0
138.0596 -26.87469 0.1218147 0
138.1096 -26.92469 0.1218147 0
138.1596 -27.22469 0.1218147 0
138.1596 -27.12469 0.1218147 0
138.1596 -27.07469 0.1218147 0
138.1596 -26.97469 0.1218147 0
138.1596 -26.92469 0.07181472 0
138.2596 -26.87469 0.07181472 0
137.9596 -26.77469 0.07181472 0
138.0096 -26.82469 0.07181472 0
138.1096 -26.82469 0.1218147 0
138.0596 -26.72469 0.1218147 0
138.0596 -26.67469 0.1218147 0
137.9596 -26.62469 0.07181472 0
138.0096 -26.62469 0.07181472 0
138.0096 -26.62469 0.1218147 0
138.0096 -26.57469 0.07181472 0
137.9596 -26.52469 0.07181472 0
137.9596 -26.52469 0.1218147 0
137.9596 -26.47469 0.07181472 0
138.0096 -26.47469 0.07181472 0
138.0596 -26.62469 0.1218147 0
138.3096 -26.82469 0.07181472 0
138.1596 -26.62469 0.1218147 0
138.2596 -26.57469 0.1218147 0
138.5096 -27.22469 0.1218147 0
138.5096 -27.12469 0.1218147 0
138.5096 -27.02469 0.1218147 0
138.5096 -26.92469 0.1218147 0
138.3596 -26.77469 0.07181472 0
138.5096 -26.82469 0.1218147 0
138.4596 -26.72469 0.07181472 0
138.4596 -26.72469 0.1218147 0
138.5096 -26.67469 0.07181472 0
138.3596 -26.57469 0.1218147 0
138.4096 -26.62469 0.1218147 0
138.4096 -26.52469 0.1218147 0
138.4596 -26.62469 0.1218147 0
138.4596 -26.52469 0.1218147 0
138.5596 -26.62469 0.07181472 0
138.6096 -26.57469 0.07181472 0
138.5596 -26.47469 0.1218147 0
138.6096 -26.52469 0.07181472 0
138.6096 -26.47469 0.1218147 0
138.7096 -26.47469 0.07181472 0
137.9596 -26.42469 0.07181472 0
138.0096 -26.42469 0.07181472 0
138.0096 -26.37469 0.07181472 0
137.9596 -26.27469 0.07181472 0
138.0096 -26.27469 0.07181472 0
137.9596 -26.22469 0.07181472 0
138.0096 -26.22469 0.07181472 0
137.9596 -26.12469 0.07181472 0
137.9596 -26.07469 0.07181472 0
138.0096 -26.07469 0.07181472 0
138.0596 -26.17469 0.07181472 0
138.1096 -26.12469 0.07181472 0
138.1096 -26.07469 0.1218147 0
138.3096 -26.37469 0.1218147 0
138.3096 -26.32469 0.1218147 0
138.2096 -26.17469 0.1218147 0
138.1596 -26.12469 0.1218147 0
138.1596 -26.07469 0.07181472 0
138.2596 -26.22469 0.1218147 0
137.9596 -25.97469 0.07181472 0
138.0096 -25.97469 0.07181472 0
138.0096 -25.97469 0.1218147 0
137.9596 -25.92469 0.07181472 0
138.0096 -25.87469 0.07181472 0
138.0596 -26.02469 0.07181472 0
138.0596 -26.02469 0.1218147 0
137.9596 -25.82469 0.07181472 0
137.9596 -25.77469 0.07181472 0
138.0096 -25.77469 0.07181472 0
137.9596 -25.72469 0.07181472 0
138.0096 -25.67469 0.07181472 0
138.0596 -25.82469 0.07181472 0
138.0596 -25.72469 0.07181472 0
138.0596 -25.67469 0.07181472 0
138.2096 -26.02469 0.07181472 0
138.2596 -25.97469 0.07181472 0
138.3096 -25.87469 0.07181472 0
138.3596 -26.42469 0.1218147 0
138.6596 -26.42469 0.1218147 0
138.7096 -26.37469 0.1218147 0
138.3596 -25.87469 0.07181472 0
138.3596 -25.77469 0.07181472 0
138.4096 -25.72469 0.07181472 0
138.4096 -25.67469 0.07181472 0
138.6596 -25.67469 0.1218147 0
138.7096 -25.72469 0.1218147 0
137.9596 -25.62469 0.07181472 0
137.9596 -25.57469 0.07181472 0
138.0096 -25.57469 0.07181472 0
137.9596 -25.47469 0.07181472 0
138.0096 -25.52469 0.07181472 0
138.0096 -25.47469 0.07181472 0
138.0596 -25.62469 0.07181472 0
138.0596 -25.57469 0.07181472 0
138.0596 -25.52469 0.07181472 0
138.1096 -25.47469 0.07181472 0
138.1096 -25.47469 0.1218147 0
138.0096 -25.42469 0.07181472 0
138.0096 -25.37469 0.07181472 0
137.9596 -25.27469 0.07181472 0
138.0096 -25.32469 0.07181472 0
138.0096 -25.27469 0.07181472 0
138.0596 -25.42469 0.07181472 0
138.0596 -25.32469 0.07181472 0
138.1596 -25.47469 0.07181472 0
138.1596 -25.37469 0.1218147 0
138.1596 -25.27469 0.07181472 0
138.1596 -25.27469 0.1218147 0
138.0096 -25.22469 0.07181472 0
138.0096 -25.17469 0.07181472 0
137.9596 -25.12469 0.07181472 0
138.0096 -25.07469 0.07181472 0
138.0596 -25.22469 0.1218147 0
138.0596 -25.12469 0.07181472 0
138.0596 -25.12469 0.1218147 0
138.0096 -25.02469 0.07181472 0
138.0096 -24.97469 0.07181472 0
137.9596 -24.92469 0.07181472 0
138.0096 -24.87469 0.07181472 0
138.0596 -25.02469 0.1218147 0
138.0596 -24.97469 0.1218147 0
138.0596 -24.92469 0.07181472 0
138.2096 -25.17469 0.1218147 0
138.1596 -25.07469 0.07181472 0
138.2096 -25.07469 0.07181472 0
138.2096 -25.07469 0.1218147 0
138.2096 -25.02469 0.1218147 0
138.2096 -24.97469 0.07181472 0
138.1596 -24.92469 0.1218147 0
138.1596 -24.87469 0.07181472 0
138.2096 -24.87469 0.07181472 0
138.2596 -24.87469 0.1218147 0
138.4596 -25.57469 0.07181472 0
138.5096 -25.52469 0.1218147 0
138.5096 -25.47469 0.07181472 0
138.5096 -25.42469 0.07181472 0
138.6096 -25.62469 0.1218147 0
138.5596 -25.52469 0.1218147 0
138.5596 -25.37469 0.07181472 0
138.5596 -25.27469 0.07181472 0
138.5596 -25.17469 0.07181472 0
138.6096 -25.07469 0.07181472 0
138.6096 -24.97469 0.07181472 0
138.6096 -24.87469 0.07181472 0
138.0096 -24.77469 0.07181472 0
138.0096 -24.72469 0.07181472 0
138.0096 -24.67469 0.07181472 0
138.0596 -24.82469 0.07181472 0
138.0596 -24.72469 0.07181472 0
138.0096 -24.62469 0.07181472 0
138.0096 -24.57469 0.07181472 0
138.0096 -24.52469 0.07181472 0
138.0096 -24.47469 0.07181472 0
138.0596 -24.52469 0.07181472 0
138.0596 -24.47469 0.07181472 0
138.1096 -24.52469 0.07181472 0
138.2096 -24.77469 0.07181472 0
138.2096 -24.77469 0.1218147 0
138.1596 -24.67469 0.07181472 0
138.2096 -24.67469 0.1218147 0
138.3096 -24.82469 0.1218147 0
138.1596 -24.57469 0.1218147 0
138.1596 -24.52469 0.1218147 0
138.1596 -24.47469 0.1218147 0
138.0096 -24.42469 0.07181472 0
138.0096 -24.37469 0.07181472 0
138.0596 -24.42469 0.07181472 0
138.0596 -24.37469 0.07181472 0
138.1096 -24.42469 0.1218147 0
138.0596 -24.32469 0.07181472 0
138.0596 -24.32469 0.1218147 0
138.0596 -24.27469 0.1218147 0
138.1096 -24.32469 0.07181472 0
138.0096 -24.22469 0.07181472 0
138.0096 -24.22469 0.1218147 0
138.0096 -24.17469 0.07181472 0
138.0096 -24.17469 0.1218147 0
138.0096 -24.12469 0.07181472 0
138.0096 -24.07469 0.07181472 0
138.0596 -24.22469 0.1218147 0
138.0596 -24.17469 0.07181472 0
138.1096 -24.17469 0.07181472 0
138.0596 -24.12469 0.07181472 0
138.0596 -24.12469 0.1218147 0
138.1096 -24.12469 0.1218147 0
138.1596 -24.42469 0.1218147 0
138.2596 -24.42469 0.1218147 0
138.1596 -24.07469 0.1218147 0
138.3596 -24.77469 0.1218147 0
138.4596 -24.72469 0.1218147 0
138.6096 -24.77469 0.07181472 0
138.5596 -24.67469 0.07181472 0
138.5596 -24.67469 0.1218147 0
138.5596 -24.62469 0.1218147 0
138.5596 -24.57469 0.07181472 0
138.6096 -24.57469 0.1218147 0
138.5596 -24.47469 0.07181472 0
138.6596 -24.52469 0.1218147 0
138.7096 -24.47469 0.1218147 0
138.3596 -24.37469 0.1218147 0
138.5096 -24.37469 0.1218147 0
138.4596 -24.32469 0.1218147 0
138.4596 -24.27469 0.1218147 0
138.4096 -24.17469 0.1218147 0
138.3596 -24.07469 0.1218147 0
138.4096 -24.12469 0.1218147 0
138.5596 -24.32469 0.1218147 0
138.6096 -24.27469 0.1218147 0
138.6596 -24.22469 0.1218147 0
138.8096 -36.77469 0.07181472 0
138.8596 -36.72469 0.07181472 0
138.9096 -36.72469 0.07181472 0
138.7596 -36.62469 0.07181472 0
138.7596 -36.57469 0.07181472 0
138.8096 -36.57469 0.07181472 0
138.7596 -36.47469 0.07181472 0
138.9596 -36.67469 0.07181472 0
139.0096 -36.62469 0.07181472 0
138.9596 -36.52469 0.07181472 0
139.0596 -36.57469 0.07181472 0
139.0596 -36.52469 0.07181472 0
139.1096 -36.52469 0.07181472 0
138.8096 -36.37469 0.07181472 0
138.8096 -36.27469 0.07181472 0
138.8596 -36.17469 0.07181472 0
138.8596 -36.07469 0.07181472 0
139.1596 -36.52469 0.07181472 0
139.2096 -36.52469 0.07181472 0
139.3096 -36.47469 0.07181472 0
139.2096 -36.42469 0.07181472 0
139.3096 -36.37469 0.07181472 0
139.4096 -36.32469 0.07181472 0
139.4596 -36.42469 0.07181472 0
139.4096 -36.22469 0.07181472 0
139.5096 -36.12469 0.07181472 0
138.8596 -35.97469 0.07181472 0
138.8596 -35.87469 0.07181472 0
138.8596 -35.77469 0.07181472 0
138.8596 -35.67469 0.07181472 0
138.8596 -35.57469 0.07181472 0
138.8596 -35.47469 0.07181472 0
138.8096 -35.32469 0.07181472 0
138.8096 -35.27469 0.07181472 0
138.8596 -35.37469 0.07181472 0
139.5096 -35.47469 0.07181472 0
139.3596 -35.27469 0.07181472 0
139.4096 -35.32469 0.07181472 0
139.4596 -35.37469 0.07181472 0
139.5596 -36.42469 0.07181472 0
139.7096 -36.42469 0.07181472 0
139.5596 -36.07469 0.07181472 0
139.8096 -36.37469 0.07181472 0
139.9096 -36.32469 0.07181472 0
140.1096 -36.52469 0.07181472 0
140.2096 -36.82469 0.07181472 0
140.2096 -36.72469 0.07181472 0
140.3096 -36.82469 0.07181472 0
140.3096 -36.77469 0.07181472 0
140.1596 -36.62469 0.07181472 0
140.0596 -36.42469 0.07181472 0
140.0596 -36.37469 0.07181472 0
140.0596 -36.32469 0.07181472 0
140.0096 -36.22469 0.07181472 0
139.9596 -36.12469 0.07181472 0
140.1596 -36.32469 0.07181472 0
140.3096 -36.27469 0.07181472 0
139.6096 -36.02469 0.07181472 0
139.6596 -35.97469 0.07181472 0
139.7096 -35.92469 0.07181472 0
139.7096 -35.72469 0.07181472 0
139.8096 -35.92469 0.07181472 0
139.8096 -35.87469 0.07181472 0
139.9096 -36.02469 0.07181472 0
139.7596 -35.82469 0.07181472 0
139.8096 -35.72469 0.07181472 0
139.8596 -35.67469 0.07181472 0
139.6096 -35.57469 0.07181472 0
139.5596 -35.52469 0.07181472 0
139.6596 -35.62469 0.07181472 0
139.9096 -35.62469 0.07181472 0
139.9596 -35.57469 0.07181472 0
139.9596 -35.52469 0.07181472 0
140.0096 -35.42469 0.07181472 0
140.0596 -35.37469 0.07181472 0
138.8096 -35.17469 0.07181472 0
138.7596 -35.07469 0.07181472 0
138.7596 -34.62469 0.1218147 0
138.8096 -34.57469 0.07181472 0
138.8096 -34.57469 0.1218147 0
138.7596 -34.47469 0.07181472 0
138.9096 -34.52469 0.07181472 0
138.9096 -34.52469 0.1218147 0
138.9096 -34.47469 0.1218147 0
139.0596 -34.52469 0.07181472 0
139.2596 -35.22469 0.1218147 0
139.2596 -35.17469 0.07181472 0
139.3096 -35.22469 0.07181472 0
139.1596 -34.52469 0.07181472 0
139.3096 -34.47469 0.07181472 0
139.4096 -34.47469 0.07181472 0
138.8096 -34.37469 0.07181472 0
138.8096 -34.32469 0.07181472 0
138.8596 -34.22469 0.07181472 0
138.8596 -34.12469 0.07181472 0
138.9596 -34.42469 0.1218147 0
139.0596 -34.37469 0.1218147 0
138.9096 -34.02469 0.07181472 0
138.9096 -34.02469 0.1218147 0
138.9096 -33.97469 0.1218147 0
138.9096 -33.92469 0.07181472 0
138.9096 -33.82469 0.1218147 0
138.9596 -33.72469 0.1218147 0
139.1596 -34.32469 0.1218147 0
139.2096 -34.27469 0.1218147 0
139.3096 -34.17469 0.1218147 0
139.3596 -34.12469 0.1218147 0
139.4096 -34.07469 0.1218147 0
139.4596 -34.02469 0.1218147 0
139.5096 -33.97469 0.1218147 0
140.1096 -35.22469 0.07181472 0
140.1596 -35.17469 0.07181472 0
140.2096 -35.07469 0.07181472 0
140.2596 -34.92469 0.07181472 0
140.2596 -34.87469 0.07181472 0
140.3096 -34.82469 0.07181472 0
140.3096 -34.77469 0.07181472 0
140.3096 -34.72469 0.07181472 0
140.3096 -34.67469 0.07181472 0
140.2096 -34.47469 0.07181472 0
140.2596 -34.57469 0.07181472 0
139.5596 -34.42469 0.07181472 0
139.6596 -34.42469 0.07181472 0
139.8096 -34.37469 0.07181472 0
139.9096 -34.37469 0.07181472 0
139.5596 -33.92469 0.1218147 0
139.6096 -33.87469 0.1218147 0
139.6596 -33.82469 0.1218147 0
139.7096 -33.77469 0.1218147 0
139.9096 -33.87469 0.07181472 0
139.8096 -33.67469 0.07181472 0
139.8096 -33.67469 0.1218147 0
139.9096 -33.77469 0.07181472 0
139.8596 -33.72469 0.07181472 0
140.0596 -34.32469 0.07181472 0
140.1096 -34.22469 0.07181472 0
140.1096 -34.17469 0.07181472 0
140.0596 -34.12469 0.07181472 0
140.1596 -34.37469 0.07181472 0
140.1596 -34.27469 0.07181472 0
140.3096 -34.27469 0.07181472 0
140.0096 -34.02469 0.07181472 0
140.0096 -33.97469 0.07181472 0
139.9596 -33.87469 0.07181472 0
140.3596 -36.67469 0.07181472 0
140.3596 -36.57469 0.07181472 0
140.4096 -36.47469 0.07181472 0
140.4096 -36.37469 0.07181472 0
140.4096 -36.32469 0.07181472 0
140.4096 -36.27469 0.07181472 0
140.4096 -36.17469 0.07181472 0
140.4596 -36.07469 0.07181472 0
140.4596 -35.97469 0.07181472 0
140.4596 -35.87469 0.07181472 0
140.4596 -35.77469 0.07181472 0
140.4596 -35.67469 0.07181472 0
140.4096 -35.47469 0.07181472 0
140.4596 -35.57469 0.07181472 0
140.4096 -35.42469 0.07181472 0
140.4096 -35.37469 0.07181472 0
140.4096 -35.27469 0.07181472 0
140.4096 -35.17469 0.07181472 0
140.3596 -35.07469 0.07181472 0
140.3596 -34.97469 0.07181472 0
140.3596 -34.87469 0.07181472 0
140.3596 -34.62469 0.07181472 0
140.3596 -34.57469 0.07181472 0
140.4096 -34.52469 0.07181472 0
140.4096 -34.42469 0.07181472 0
140.4096 -34.37469 0.07181472 0
140.4096 -34.27469 0.07181472 0
140.4096 -34.22469 0.07181472 0
140.4596 -34.17469 0.07181472 0
140.5596 -34.22469 0.07181472 0
140.6596 -34.17469 0.07181472 0
140.4596 -34.02469 0.07181472 0
140.4596 -33.97469 0.07181472 0
140.5096 -33.92469 0.07181472 0
140.5096 -33.82469 0.07181472 0
140.5096 -33.72469 0.07181472 0
140.5096 -33.67469 0.07181472 0
140.7596 -34.12469 0.07181472 0
140.9096 -34.12469 0.07181472 0
138.9596 -33.62469 0.1218147 0
138.9596 -33.52469 0.1218147 0
138.9596 -33.42469 0.1218147 0
138.9596 -33.32469 0.1218147 0
138.9096 -33.22469 0.1218147 0
138.9096 -33.17469 0.1218147 0
138.9096 -33.12469 0.1218147 0
138.9096 -33.02469 0.1218147 0
138.8596 -32.92469 0.1218147 0
139.5096 -33.27469 0.07181472 0
139.3096 -33.07469 0.07181472 0
139.4096 -33.17469 0.07181472 0
139.3596 -33.12469 0.07181472 0
139.4596 -33.22469 0.07181472 0
138.8096 -32.82469 0.1218147 0
138.8096 -32.77469 0.1218147 0
138.7596 -32.72469 0.1218147 0
138.7596 -32.62469 0.1218147 0
138.8096 -32.57469 0.1218147 0
138.8596 -32.52469 0.1218147 0
138.9596 -32.52469 0.1218147 0
139.0096 -32.47469 0.1218147 0
138.7596 -32.37469 0.1218147 0
138.8096 -32.37469 0.07181472 0
138.7596 -32.32469 0.1218147 0
138.8096 -32.27469 0.1218147 0
138.8596 -32.17469 0.1218147 0
138.9096 -32.07469 0.1218147 0
138.9596 -32.32469 0.07181472 0
139.0596 -32.42469 0.1218147 0
139.1096 -32.37469 0.1218147 0
139.0596 -32.32469 0.07181472 0
139.1596 -32.32469 0.1218147 0
139.2096 -32.32469 0.07181472 0
139.2596 -32.27469 0.1218147 0
139.3096 -32.22469 0.1218147 0
139.3596 -32.32469 0.07181472 0
139.4596 -32.27469 0.07181472 0
139.3596 -32.17469 0.07181472 0
139.4096 -32.12469 0.07181472 0
139.6596 -33.47469 0.07181472 0
139.6096 -33.37469 0.07181472 0
139.5596 -33.32469 0.07181472 0
139.7596 -33.57469 0.07181472 0
139.8096 -33.57469 0.1218147 0
139.7596 -33.52469 0.07181472 0
139.8596 -33.52469 0.1218147 0
139.9096 -33.47469 0.1218147 0
139.9596 -33.37469 0.1218147 0
140.0096 -33.27469 0.1218147 0
140.0596 -33.22469 0.1218147 0
140.1096 -33.17469 0.1218147 0
140.1596 -33.07469 0.1218147 0
140.2096 -32.97469 0.1218147 0
140.2596 -32.87469 0.1218147 0
139.5596 -32.22469 0.07181472 0
139.7096 -32.22469 0.07181472 0
139.8596 -32.22469 0.07181472 0
140.2596 -32.82469 0.1218147 0
140.3096 -32.77469 0.1218147 0
140.3096 -32.67469 0.1218147 0
139.9596 -32.17469 0.07181472 0
140.0596 -32.12469 0.07181472 0
140.3096 -32.37469 0.07181472 0
140.3096 -32.32469 0.07181472 0
140.2096 -32.12469 0.07181472 0
140.2596 -32.22469 0.07181472 0
140.3096 -32.07469 0.07181472 0
138.9096 -31.97469 0.1218147 0
138.9596 -31.87469 0.1218147 0
138.9596 -31.77469 0.1218147 0
138.9596 -31.72469 0.1218147 0
139.0096 -31.67469 0.1218147 0
139.0096 -31.57469 0.1218147 0
139.0096 -31.47469 0.1218147 0
139.0096 -31.37469 0.1218147 0
139.0096 -31.27469 0.1218147 0
139.5096 -32.02469 0.07181472 0
139.0096 -31.17469 0.1218147 0
139.0096 -31.07469 0.1218147 0
139.0096 -30.97469 0.1218147 0
138.9596 -30.87469 0.1218147 0
139.0096 -30.92469 0.1218147 0
138.9096 -30.67469 0.1218147 0
138.7596 -30.57469 0.07181472 0
138.7596 -30.52469 0.1218147 0
138.8096 -30.52469 0.07181472 0
138.9096 -30.57469 0.1218147 0
138.8596 -30.52469 0.1218147 0
138.8596 -30.47469 0.07181472 0
138.8596 -30.47469 0.1218147 0
138.9596 -30.77469 0.1218147 0
139.4596 -30.92469 0.1218147 0
139.4096 -30.82469 0.1218147 0
139.6096 -31.92469 0.07181472 0
139.7096 -31.87469 0.07181472 0
139.7596 -31.77469 0.07181472 0
139.8096 -31.67469 0.07181472 0
139.8596 -31.62469 0.07181472 0
139.9096 -31.52469 0.07181472 0
139.9096 -31.47469 0.1218147 0
139.7596 -31.27469 0.1218147 0
139.8096 -31.32469 0.1218147 0
139.8596 -31.42469 0.1218147 0
139.8596 -31.37469 0.1218147 0
140.1096 -31.82469 0.07181472 0
140.0596 -31.72469 0.07181472 0
140.1596 -31.97469 0.07181472 0
140.2096 -32.02469 0.07181472 0
140.1596 -31.87469 0.07181472 0
140.0096 -31.62469 0.07181472 0
139.9596 -31.52469 0.1218147 0
140.0096 -31.47469 0.07181472 0
140.0596 -31.37469 0.07181472 0
140.1096 -31.27469 0.07181472 0
139.6596 -31.17469 0.1218147 0
139.7096 -31.22469 0.1218147 0
139.5596 -31.02469 0.1218147 0
140.1596 -31.22469 0.07181472 0
140.2096 -31.12469 0.07181472 0
140.2596 -31.07469 0.07181472 0
140.2596 -31.02469 0.07181472 0
140.2596 -30.92469 0.07181472 0
140.3096 -30.87469 0.07181472 0
140.5096 -33.57469 0.07181472 0
140.5096 -33.52469 0.07181472 0
140.5096 -33.47469 0.07181472 0
140.5096 -33.42469 0.07181472 0
140.5096 -33.37469 0.07181472 0
140.5096 -33.32469 0.07181472 0
140.5096 -33.22469 0.07181472 0
140.5096 -33.17469 0.07181472 0
140.4596 -33.02469 0.07181472 0
140.4596 -32.92469 0.07181472 0
140.4096 -32.72469 0.07181472 0
140.4596 -32.82469 0.07181472 0
140.3596 -32.57469 0.1218147 0
140.4096 -32.62469 0.07181472 0
140.3596 -32.52469 0.07181472 0
140.4096 -32.47469 0.1218147 0
140.3596 -32.42469 0.07181472 0
140.4096 -32.37469 0.1218147 0
140.4596 -32.32469 0.1218147 0
140.4596 -32.27469 0.1218147 0
140.5096 -32.17469 0.1218147 0
140.4596 -32.07469 0.07181472 0
140.5096 -32.07469 0.1218147 0
140.5096 -31.97469 0.1218147 0
140.5596 -32.02469 0.07181472 0
140.5596 -31.87469 0.1218147 0
140.7096 -32.02469 0.07181472 0
140.5596 -31.77469 0.1218147 0
140.5596 -31.72469 0.1218147 0
140.5596 -31.67469 0.1218147 0
140.5596 -31.57469 0.1218147 0
140.5596 -31.47469 0.1218147 0
140.6096 -31.52469 0.1218147 0
140.6096 -31.37469 0.1218147 0
140.6096 -31.27469 0.1218147 0
140.8096 -31.92469 0.07181472 0
140.9596 -31.92469 0.07181472 0
141.0596 -31.87469 0.07181472 0
140.5596 -31.17469 0.1218147 0
140.6096 -31.07469 0.1218147 0
140.5596 -31.02469 0.1218147 0
140.5596 -30.97469 0.1218147 0
140.5596 -30.87469 0.1218147 0
140.3596 -30.82469 0.07181472 0
140.4096 -30.72469 0.07181472 0
140.4096 -30.62469 0.07181472 0
140.5096 -30.57469 0.1218147 0
140.4596 -30.52469 0.07181472 0
140.5096 -30.47469 0.1218147 0
140.5596 -30.77469 0.1218147 0
140.5596 -30.67469 0.1218147 0
142.4096 -36.82469 0.8218147 0
142.3096 -36.82469 0.9218147 0
142.5096 -36.82469 1.021815 0
142.5096 -36.77469 1.021815 0
142.4096 -36.67469 1.071815 0
142.4596 -36.52469 1.071815 0
142.5596 -36.77469 1.021815 0
142.6096 -36.77469 0.9718148 0
142.5596 -36.67469 1.021815 0
142.6096 -36.67469 0.9718148 0
142.7096 -36.77469 1.121815 0
142.6596 -36.82469 1.221815 0
142.6596 -36.77469 1.171815 0
142.7096 -36.67469 1.071815 0
142.6596 -36.67469 1.171815 0
142.7096 -36.72469 1.221815 0
142.5596 -36.62469 1.021815 0
142.6096 -36.57469 0.9718148 0
142.6096 -36.57469 1.021815 0
142.6096 -36.52469 1.021815 0
142.6096 -36.47469 1.021815 0
142.5596 -36.82469 1.421815 0
142.6096 -36.72469 1.271815 0
142.6596 -36.77469 1.321815 0
142.6596 -36.72469 1.321815 0
142.7096 -36.67469 1.321815 0
142.6596 -36.42469 1.021815 0
143.3596 -36.12469 0.8218147 0
143.4596 -36.17469 0.8218147 0
143.4596 -36.07469 0.8218147 0
142.8096 -36.77469 0.9218147 0
142.8096 -36.82469 1.071815 0
142.8096 -36.67469 1.071815 0
142.7596 -36.57469 0.9718148 0
142.8096 -36.47469 0.9718148 0
142.8596 -36.52469 0.9218147 0
142.7596 -36.57469 1.071815 0
142.7596 -36.52469 1.071815 0
142.8096 -36.47469 1.071815 0
142.8596 -36.52469 1.071815 0
143.0096 -36.72469 1.021815 0
143.0596 -36.77469 1.221815 0
143.0096 -36.52469 0.9218147 0
143.1096 -36.62469 0.9718148 0
142.9596 -36.47469 1.121815 0
143.1096 -36.62469 1.221815 0
142.8596 -36.82469 1.271815 0
142.8596 -36.77469 1.271815 0
142.8596 -36.72469 1.271815 0
142.9096 -36.72469 1.421815 0
142.7596 -36.82469 1.471815 0
142.8096 -36.77469 1.521815 0
142.8596 -36.67469 1.471815 0
142.9096 -36.67469 1.521815 0
142.7596 -36.62469 1.321815 0
142.8096 -36.52469 1.321815 0
142.8596 -36.47469 1.321815 0
142.7596 -36.62469 1.471815 0
142.9596 -36.77469 1.271815 0
143.0096 -36.82469 1.421815 0
143.0096 -36.67469 1.321815 0
142.9596 -36.67469 1.421815 0
143.1096 -36.67469 1.371815 0
143.0096 -36.77469 1.571815 0
143.0596 -36.72469 1.571815 0
143.0096 -36.62469 1.271815 0
143.0096 -36.57469 1.421815 0
143.0596 -36.62469 1.271815 0
143.0596 -36.57469 1.321815 0
143.1096 -36.62469 1.271815 0
143.1096 -36.52469 1.271815 0
143.0596 -36.47469 1.421815 0
142.9596 -36.62469 1.521815 0
142.9596 -36.62469 1.571815 0
143.0096 -36.52469 1.521815 0
143.1096 -36.62469 1.571815 0
143.0596 -36.47469 1.521815 0
143.0596 -36.52469 1.571815 0
142.8596 -36.32469 0.9718148 0
142.9096 -36.42469 1.071815 0
142.9596 -36.27469 0.9718148 0
143.0096 -36.32469 0.9718148 0
143.0596 -36.42469 1.021815 0
143.1096 -36.27469 0.9718148 0
143.0096 -36.37469 1.121815 0
143.0096 -36.37469 1.221815 0
143.0596 -36.42469 1.071815 0
143.1096 -36.37469 1.071815 0
143.0596 -36.32469 1.121815 0
143.0596 -36.22469 0.8718147 0
143.1096 -36.17469 0.8718147 0
143.1096 -36.37469 1.421815 0
142.9596 -36.42469 1.521815 0
143.0596 -36.42469 1.521815 0
143.2096 -36.62469 0.9718148 0
143.2096 -36.57469 1.221815 0
143.3096 -36.47469 1.221815 0
143.3596 -36.57469 1.121815 0
143.5096 -36.47469 1.121815 0
143.1596 -36.57469 1.271815 0
143.1596 -36.47469 1.321815 0
143.2096 -36.47469 1.271815 0
143.1596 -36.52469 1.371815 0
143.3096 -36.57469 1.271815 0
143.2596 -36.57469 1.421815 0
143.2596 -36.52469 1.421815 0
143.1596 -36.52469 1.571815 0
143.3596 -36.72469 1.571815 0
143.4096 -36.57469 1.471815 0
143.3596 -36.57469 1.621815 0
143.4596 -36.47469 1.471815 0
143.4596 -36.52469 1.571815 0
143.4596 -36.47469 1.621815 0
143.2096 -36.32469 1.021815 0
143.2596 -36.27469 0.9718148 0
143.3096 -36.42469 1.071815 0
143.3096 -36.22469 0.8718147 0
143.3096 -36.22469 0.9218147 0
143.3596 -36.32469 1.021815 0
143.4096 -36.32469 0.9718148 0
143.5096 -36.27469 0.8718147 0
143.3596 -36.32469 1.221815 0
143.4596 -36.42469 1.121815 0
143.3596 -36.17469 0.8718147 0
143.5096 -36.22469 0.9218147 0
143.4096 -36.22469 1.221815 0
143.4596 -36.17469 1.171815 0
143.5096 -36.12469 1.221815 0
143.1596 -36.42469 1.321815 0
143.2096 -36.37469 1.321815 0
143.2096 -36.42469 1.371815 0
143.2596 -36.37469 1.271815 0
143.2596 -36.37469 1.371815 0
143.3096 -36.42469 1.421815 0
143.2596 -36.32469 1.271815 0
143.2596 -36.27469 1.321815 0
143.1596 -36.42469 1.621815 0
143.1596 -36.32469 1.521815 0
143.2596 -36.42469 1.571815 0
143.3096 -36.32469 1.571815 0
143.1596 -36.22469 1.271815 0
143.3096 -36.22469 1.271815 0
143.4596 -36.27469 1.421815 0
142.9096 -36.82469 1.721815 0
143.0096 -36.82469 1.821815 0
142.9596 -36.72469 1.671815 0
143.0596 -36.82469 1.671815 0
143.1096 -36.77469 1.671815 0
143.0596 -36.77469 1.771815 0
143.1096 -36.67469 1.671815 0
143.1096 -36.67469 1.771815 0
143.0596 -36.82469 1.921815 0
143.1096 -36.77469 1.921815 0
143.1596 -36.72469 1.771815 0
143.2096 -36.67469 1.771815 0
143.2096 -36.67469 1.821815 0
143.2596 -36.82469 1.671815 0
143.3096 -36.67469 1.671815 0
143.1596 -36.77469 1.921815 0
143.2096 -36.72469 1.921815 0
143.3096 -36.77469 1.871815 0
143.3096 -36.77469 1.971815 0
143.2096 -36.62469 1.671815 0
143.2096 -36.57469 1.671815 0
143.2596 -36.62469 1.821815 0
143.2596 -36.52469 1.671815 0
143.4096 -36.77469 1.971815 0
143.3596 -36.72469 1.921815 0
143.4596 -36.72469 1.871815 0
143.4596 -36.67469 1.921815 0
143.3596 -36.62469 1.821815 0
143.3596 -36.57469 1.821815 0
143.4596 -36.57469 1.821815 0
143.2096 -36.82469 2.221815 0
143.2596 -36.82469 2.171815 0
143.2596 -36.77469 2.221815 0
143.4096 -36.82469 2.071815 0
143.4096 -36.82469 2.121815 0
143.5596 -36.17469 0.8218147 0
143.6096 -36.07469 0.8218147 0
143.7096 -36.22469 0.8218147 0
143.8096 -36.27469 0.8218147 0
143.8096 -36.17469 0.7218148 0
143.8096 -36.12469 0.8218147 0
143.8596 -36.12469 0.7718147 0
143.9596 -36.27469 0.8218147 0
144.1096 -36.32469 0.8218147 0
143.9596 -36.17469 0.7218148 0
144.0096 -36.22469 0.8218147 0
144.0596 -36.22469 0.7718147 0
144.1096 -36.17469 0.7718147 0
144.1096 -36.12469 0.7218148 0
144.2596 -36.32469 0.8218147 0
144.2096 -36.22469 0.7718147 0
144.2096 -36.22469 0.8218147 0
144.3096 -36.22469 0.7718147 0
143.8096 -36.47469 1.121815 0
143.6096 -36.77469 1.271815 0
143.5596 -36.62469 1.421815 0
143.7096 -36.47469 1.271815 0
143.6096 -36.47469 1.621815 0
143.7596 -36.57469 1.471815 0
143.6096 -36.32469 0.9218147 0
143.5596 -36.32469 1.021815 0
143.7096 -36.32469 1.021815 0
143.6096 -36.42469 1.121815 0
143.6096 -36.27469 1.121815 0
143.6596 -36.22469 0.9218147 0
143.6096 -36.17469 1.121815 0
143.5596 -36.22469 1.171815 0
143.8096 -36.32469 0.9218147 0
143.8596 -36.37469 1.021815 0
143.9096 -36.27469 1.021815 0
143.7596 -36.27469 1.221815 0
143.8596 -36.42469 1.121815 0
143.9096 -36.32469 1.171815 0
143.7596 -36.22469 0.8718147 0
143.8096 -36.22469 0.9218147 0
143.7596 -36.22469 1.121815 0
143.7596 -36.17469 1.121815 0
143.6096 -36.42469 1.371815 0
143.6596 -36.37469 1.321815 0
143.6596 -36.32469 1.421815 0
143.5596 -36.37469 1.571815 0
143.7096 -36.32469 1.571815 0
143.5596 -36.22469 1.421815 0
143.6596 -36.22469 1.371815 0
143.7596 -36.42469 1.371815 0
143.8596 -36.32469 1.271815 0
143.8096 -36.32469 1.471815 0
143.8096 -36.17469 1.371815 0
144.0096 -36.57469 1.121815 0
144.1596 -36.47469 1.021815 0
144.0596 -36.57469 1.521815 0
144.2596 -36.77469 1.571815 0
144.1596 -36.57469 1.371815 0
144.2096 -36.47469 1.271815 0
144.1596 -36.47469 1.571815 0
144.2596 -36.62469 1.521815 0
143.9596 -36.37469 0.9218147 0
144.0096 -36.27469 0.9218147 0
144.0596 -36.37469 0.9218147 0
144.1096 -36.37469 1.021815 0
144.0596 -36.32469 0.9218147 0
144.0596 -36.42469 1.121815 0
144.1096 -36.32469 1.121815 0
144.0596 -36.22469 1.021815 0
144.0096 -36.07469 1.221815 0
144.0596 -36.22469 1.221815 0
144.1096 -36.12469 1.221815 0
144.1596 -36.42469 0.9218147 0
144.2096 -36.32469 0.9218147 0
144.2596 -36.37469 1.121815 0
144.3096 -36.42469 1.071815 0
144.3096 -36.37469 1.221815 0
144.3096 -36.27469 1.071815 0
144.1596 -36.12469 1.121815 0
144.0096 -36.37469 1.271815 0
144.0096 -36.27469 1.371815 0
143.9596 -36.37469 1.571815 0
143.9596 -36.22469 1.321815 0
144.2096 -36.32469 1.421815 0
144.2596 -36.07469 1.271815 0
143.6596 -36.02469 0.7718147 0
144.5096 -36.27469 0.7718147 0
144.3596 -36.17469 0.7218148 0
144.3596 -36.47469 0.9718148 0
144.4096 -36.52469 1.071815 0
144.6096 -36.52469 0.9718148 0
144.6596 -36.47469 0.9718148 0
144.7096 -36.52469 0.9718148 0
144.3596 -36.77469 1.271815 0
144.3596 -36.62469 1.371815 0
144.4596 -36.62469 1.621815 0
144.7096 -36.82469 1.321815 0
144.6596 -36.72469 1.321815 0
144.5596 -36.57469 1.421815 0
144.4096 -36.37469 0.9218147 0
144.4096 -36.32469 0.8718147 0
144.3596 -36.42469 1.221815 0
144.5096 -36.37469 1.171815 0
144.4096 -36.17469 1.021815 0
144.4096 -36.22469 1.121815 0
144.6096 -36.42469 0.9218147 0
144.6096 -36.32469 0.8718147 0
144.6096 -36.32469 1.121815 0
144.7096 -36.42469 1.171815 0
144.5596 -36.17469 1.021815 0
144.5096 -36.42469 1.271815 0
144.5096 -36.22469 1.271815 0
144.9096 -36.77469 0.9718148 0
144.9096 -36.67469 0.9718148 0
145.0096 -36.47469 0.9718148 0
144.9596 -36.47469 1.071815 0
144.8596 -36.77469 1.471815 0
144.8096 -36.57469 1.321815 0
144.8096 -36.37469 0.8718147 0
144.8096 -36.42469 0.9718148 0
144.8596 -36.32469 1.171815 0
145.0596 -36.37469 1.171815 0
144.7596 -36.32469 1.271815 0
144.9096 -36.12469 1.271815 0
143.6096 -36.72469 1.771815 0
143.5596 -36.67469 1.871815 0
143.5596 -36.72469 2.021815 0
143.5596 -36.67469 1.971815 0
143.6596 -36.82469 1.971815 0
143.7096 -36.67469 2.021815 0
143.5596 -36.57469 1.821815 0
143.6596 -36.52469 1.821815 0
143.6096 -36.62469 1.921815 0
143.7096 -36.62469 1.871815 0
143.7096 -36.62469 1.971815 0
143.6596 -36.52469 1.871815 0
143.8096 -36.72469 1.971815 0
143.7596 -36.57469 1.671815 0
143.8096 -36.57469 1.671815 0
143.7596 -36.57469 1.771815 0
143.8096 -36.47469 1.821815 0
143.9096 -36.47469 1.721815 0
143.8096 -36.62469 1.971815 0
143.8596 -36.57469 1.871815 0
143.9096 -36.57469 1.971815 0
143.9096 -36.47469 1.971815 0
143.6096 -36.82469 2.171815 0
143.7096 -36.82469 2.121815 0
143.7096 -36.67469 2.221815 0
143.8096 -36.77469 2.121815 0
143.8596 -36.82469 2.221815 0
143.8596 -36.67469 2.071815 0
143.9096 -36.72469 2.221815 0
143.8096 -36.77469 2.271815 0
143.7596 -36.72469 2.371815 0
143.7596 -36.62469 2.171815 0
143.9096 -36.42469 1.821815 0
144.0596 -36.62469 1.671815 0
144.1096 -36.57469 1.821815 0
144.0096 -36.62469 1.921815 0
144.0096 -36.52469 1.871815 0
144.0096 -36.52469 2.021815 0
144.1096 -36.47469 1.871815 0
144.2096 -36.72469 1.821815 0
144.2096 -36.52469 1.921815 0
143.9596 -36.82469 2.171815 0
143.9596 -36.72469 2.121815 0
144.0596 -36.67469 2.121815 0
144.1096 -36.72469 2.171815 0
144.0096 -36.82469 2.271815 0
144.0096 -36.82469 2.421815 0
144.0096 -36.72469 2.371815 0
144.1096 -36.82469 2.271815 0
143.9596 -36.62469 2.071815 0
144.1096 -36.57469 2.121815 0
144.2596 -36.67469 2.171815 0
144.2096 -36.82469 2.421815 0
144.2096 -36.77469 2.371815 0
144.2096 -36.62469 2.121815 0
144.3096 -36.57469 2.121815 0
144.0596 -36.42469 1.721815 0
143.6096 -36.77469 2.621815 0
143.7096 -36.77469 2.521815 0
143.6596 -36.77469 2.571815 0
143.7596 -36.77469 2.621815 0
143.8096 -36.77469 2.621815 0
143.8096 -36.72469 2.521815 0
143.8096 -36.77469 2.671815 0
144.0096 -36.77469 2.571815 0
144.0596 -36.77469 2.621815 0
143.9596 -36.77469 2.721815 0
144.2096 -36.82469 2.571815 0
144.2596 -36.67469 2.621815 0
144.1596 -36.77469 2.721815 0
144.4096 -36.67469 1.721815 0
144.4096 -36.72469 1.771815 0
144.5096 -36.82469 1.771815 0
144.5096 -36.57469 1.721815 0
144.4096 -36.47469 1.921815 0
144.3596 -36.62469 2.071815 0
144.4096 -36.57469 2.171815 0
144.5596 -36.37469 1.921815 0
144.8096 -36.62469 1.771815 0
144.4596 -36.62469 2.671815 0
144.7096 -36.72469 2.671815 0
138.8096 -30.42469 0.1218147 0
138.8096 -30.37469 0.1218147 0
138.7596 -30.32469 0.1218147 0
138.7596 -30.27469 0.1218147 0
138.9096 -30.42469 0.07181472 0
138.8596 -30.32469 0.1218147 0
138.9096 -30.32469 0.1218147 0
138.7596 -30.22469 0.1218147 0
138.9096 -30.22469 0.1218147 0
138.9096 -30.17469 0.1218147 0
138.9596 -30.42469 0.07181472 0
139.0096 -30.27469 0.1218147 0
139.0596 -30.37469 0.07181472 0
139.0596 -30.32469 0.07181472 0
138.9596 -30.07469 0.1218147 0
138.9596 -30.02469 0.1218147 0
139.0096 -29.92469 0.1218147 0
139.0096 -29.82469 0.1218147 0
139.0596 -29.72469 0.1218147 0
139.1596 -30.27469 0.07181472 0
139.1596 -30.27469 0.1218147 0
139.2596 -30.27469 0.1218147 0
139.2596 -30.22469 0.07181472 0
139.4096 -30.27469 0.1218147 0
139.3596 -30.17469 0.07181472 0
139.4096 -30.12469 0.07181472 0
139.5096 -30.22469 0.1218147 0
139.4596 -30.07469 0.07181472 0
139.5096 -30.02469 0.07181472 0
139.0596 -29.62469 0.1218147 0
139.0596 -29.52469 0.1218147 0
139.1096 -29.42469 0.1218147 0
139.1096 -29.32469 0.1218147 0
139.1096 -29.22469 0.1218147 0
139.1096 -29.12469 0.1218147 0
139.0596 -29.02469 0.1218147 0
139.0596 -28.92469 0.1218147 0
139.6596 -30.22469 0.1218147 0
139.7596 -30.17469 0.07181472 0
139.9096 -30.17469 0.07181472 0
139.5596 -29.97469 0.07181472 0
139.6096 -29.92469 0.07181472 0
139.6596 -29.87469 0.07181472 0
139.7096 -29.82469 0.07181472 0
139.7596 -29.77469 0.07181472 0
139.8096 -29.72469 0.07181472 0
139.8596 -29.67469 0.07181472 0
140.0096 -30.17469 0.07181472 0
140.1596 -30.12469 0.07181472 0
140.2596 -30.07469 0.07181472 0
140.3096 -29.87469 0.1218147 0
140.2096 -29.67469 0.1218147 0
140.2596 -29.77469 0.1218147 0
140.3096 -29.82469 0.1218147 0
139.9096 -29.62469 0.07181472 0
139.8596 -29.07469 0.1218147 0
139.9096 -29.12469 0.1218147 0
139.8096 -28.97469 0.1218147 0
139.7596 -28.87469 0.1218147 0
139.9596 -29.52469 0.07181472 0
140.0096 -29.42469 0.07181472 0
140.0096 -29.27469 0.1218147 0
140.0596 -29.37469 0.07181472 0
140.1096 -29.42469 0.1218147 0
140.0596 -29.32469 0.1218147 0
140.1096 -29.32469 0.07181472 0
140.1596 -29.57469 0.1218147 0
140.2096 -29.62469 0.1218147 0
140.1596 -29.47469 0.1218147 0
140.1596 -29.27469 0.07181472 0
139.9596 -29.17469 0.1218147 0
140.2096 -29.22469 0.07181472 0
140.2096 -29.17469 0.07181472 0
140.2596 -29.12469 0.07181472 0
140.3096 -29.02469 0.07181472 0
138.7596 -28.52469 0.1218147 0
139.0096 -28.72469 0.1218147 0
139.0596 -28.82469 0.1218147 0
139.0596 -28.77469 0.1218147 0
139.0096 -28.62469 0.1218147 0
138.9596 -28.52469 0.1218147 0
138.8096 -28.42469 0.1218147 0
138.8096 -28.37469 0.07181472 0
138.8596 -28.37469 0.1218147 0
138.8596 -28.32469 0.07181472 0
138.8596 -28.27469 0.1218147 0
138.9096 -28.32469 0.07181472 0
138.9096 -28.32469 0.1218147 0
138.7596 -28.07469 0.1218147 0
138.8096 -28.12469 0.1218147 0
138.8096 -28.07469 0.1218147 0
138.8596 -28.22469 0.1218147 0
138.9096 -28.07469 0.1218147 0
138.9596 -28.42469 0.1218147 0
139.0096 -28.27469 0.07181472 0
138.9596 -28.22469 0.07181472 0
138.9596 -28.22469 0.1218147 0
139.0096 -28.12469 0.07181472 0
139.0596 -28.22469 0.07181472 0
139.1096 -28.17469 0.07181472 0
139.0596 -28.07469 0.1218147 0
139.4596 -28.57469 0.1218147 0
139.5096 -28.57469 0.1218147 0
139.1596 -28.17469 0.07181472 0
139.2096 -28.12469 0.07181472 0
139.2096 -28.07469 0.1218147 0
139.3096 -28.07469 0.07181472 0
138.7596 -28.02469 0.1218147 0
139.0096 -28.02469 0.07181472 0
139.0596 -27.97469 0.07181472 0
139.0596 -27.92469 0.07181472 0
139.1096 -27.82469 0.07181472 0
139.1096 -27.72469 0.1218147 0
139.3096 -28.02469 0.1218147 0
139.3596 -27.97469 0.07181472 0
139.4596 -28.02469 0.1218147 0
139.4596 -27.92469 0.07181472 0
139.5096 -27.92469 0.07181472 0
139.1596 -27.62469 0.07181472 0
139.1596 -27.52469 0.07181472 0
139.1596 -27.42469 0.07181472 0
139.2096 -27.32469 0.07181472 0
139.5596 -28.67469 0.1218147 0
139.6596 -28.77469 0.1218147 0
139.5596 -28.02469 0.1218147 0
139.7096 -27.97469 0.07181472 0
139.5596 -27.82469 0.07181472 0
139.6096 -27.77469 0.07181472 0
139.6596 -27.77469 0.07181472 0
139.7096 -27.72469 0.07181472 0
139.8096 -27.97469 0.07181472 0
139.7596 -27.67469 0.07181472 0
139.8096 -27.62469 0.07181472 0
139.8596 -27.57469 0.07181472 0
139.9096 -27.47469 0.07181472 0
139.9596 -27.92469 0.07181472 0
140.0596 -27.92469 0.07181472 0
140.2096 -27.87469 0.07181472 0
140.3096 -27.87469 0.07181472 0
140.3096 -27.67469 0.1218147 0
139.9596 -27.42469 0.07181472 0
140.0096 -27.37469 0.07181472 0
140.0596 -27.32469 0.07181472 0
140.1096 -27.27469 0.07181472 0
140.3096 -27.57469 0.1218147 0
140.2596 -27.52469 0.1218147 0
140.2096 -27.42469 0.1218147 0
140.1596 -27.32469 0.1218147 0
140.4596 -30.42469 0.1218147 0
140.4596 -30.37469 0.1218147 0
140.5096 -30.42469 0.07181472 0
140.4596 -30.27469 0.1218147 0
140.5096 -30.32469 0.07181472 0
140.5096 -30.27469 0.07181472 0
140.4096 -30.17469 0.1218147 0
140.4096 -30.07469 0.07181472 0
140.4096 -30.07469 0.1218147 0
140.5596 -30.22469 0.07181472 0
140.5596 -30.12469 0.07181472 0
140.3596 -29.97469 0.1218147 0
140.5096 -30.02469 0.07181472 0
140.6096 -30.02469 0.07181472 0
140.6096 -29.92469 0.07181472 0
140.6096 -29.87469 0.07181472 0
140.6596 -30.02469 0.07181472 0
140.6096 -29.77469 0.07181472 0
140.6596 -29.72469 0.07181472 0
140.6596 -29.67469 0.07181472 0
140.7596 -29.97469 0.07181472 0
140.9096 -29.92469 0.07181472 0
141.0096 -29.92469 0.07181472 0
140.6596 -29.62469 0.07181472 0
140.6596 -29.52469 0.07181472 0
140.6596 -29.42469 0.07181472 0
140.6596 -29.37469 0.07181472 0
140.3596 -28.92469 0.07181472 0
140.6596 -29.22469 0.07181472 0
140.6596 -29.12469 0.07181472 0
140.6596 -29.02469 0.07181472 0
140.6596 -28.97469 0.1218147 0
140.6596 -28.92469 0.07181472 0
140.6596 -28.87469 0.1218147 0
141.1596 -29.87469 0.07181472 0
141.2596 -29.82469 0.07181472 0
140.4096 -28.82469 0.07181472 0
140.4596 -28.72469 0.07181472 0
140.4596 -28.67469 0.07181472 0
140.5096 -28.62469 0.07181472 0
140.5096 -28.52469 0.07181472 0
140.6096 -28.72469 0.1218147 0
140.6096 -28.62469 0.1218147 0
140.5596 -28.47469 0.07181472 0
140.5596 -28.47469 0.1218147 0
140.6096 -28.52469 0.1218147 0
140.5096 -28.22469 0.1218147 0
140.4596 -28.07469 0.1218147 0
140.5096 -28.12469 0.1218147 0
140.5596 -28.42469 0.07181472 0
140.5596 -28.42469 0.1218147 0
140.5596 -28.32469 0.1218147 0
140.6096 -28.32469 0.07181472 0
140.6096 -28.22469 0.07181472 0
140.6596 -28.17469 0.07181472 0
140.6596 -28.07469 0.07181472 0
140.4096 -27.92469 0.1218147 0
140.4596 -28.02469 0.1218147 0
140.3596 -27.77469 0.1218147 0
140.4096 -27.82469 0.1218147 0
140.3596 -27.72469 0.1218147 0
140.4596 -27.82469 0.07181472 0
140.6596 -28.02469 0.07181472 0
140.7096 -27.92469 0.07181472 0
140.5596 -27.82469 0.07181472 0
140.7096 -27.82469 0.07181472 0
140.7096 -27.77469 0.07181472 0
140.7096 -27.72469 0.07181472 0
140.7096 -27.62469 0.07181472 0
140.8096 -27.77469 0.07181472 0
140.7596 -27.72469 0.07181472 0
140.9596 -27.72469 0.07181472 0
141.0596 -27.67469 0.07181472 0
140.7596 -27.62469 0.07181472 0
140.7596 -27.52469 0.07181472 0
140.7596 -27.42469 0.07181472 0
140.7596 -27.32469 0.07181472 0
141.2096 -27.62469 0.07181472 0
141.3096 -27.57469 0.07181472 0
141.4596 -27.57469 0.07181472 0
139.1096 -26.57469 0.1218147 0
139.1096 -26.52469 0.1218147 0
139.2096 -27.22469 0.1218147 0
139.2096 -27.12469 0.1218147 0
139.2096 -27.02469 0.1218147 0
139.2096 -26.92469 0.1218147 0
139.1596 -26.82469 0.1218147 0
139.1596 -26.72469 0.1218147 0
139.1596 -26.62469 0.1218147 0
139.5096 -26.52469 0.1218147 0
138.7596 -26.42469 0.07181472 0
138.7596 -26.37469 0.07181472 0
138.7596 -26.37469 0.1218147 0
138.8596 -26.32469 0.1218147 0
138.8596 -26.27469 0.07181472 0
138.9096 -26.17469 0.07181472 0
138.9096 -26.12469 0.07181472 0
138.9596 -26.27469 0.1218147 0
139.0096 -26.27469 0.1218147 0
139.0596 -26.42469 0.1218147 0
139.0596 -26.32469 0.1218147 0
139.0096 -26.22469 0.1218147 0
138.9596 -26.12469 0.1218147 0
138.9596 -26.07469 0.07181472 0
138.9596 -26.07469 0.1218147 0
139.0596 -26.22469 0.1218147 0
139.1096 -26.17469 0.1218147 0
138.7596 -25.97469 0.1218147 0
138.8096 -25.87469 0.1218147 0
138.9096 -26.02469 0.1218147 0
138.9096 -25.97469 0.1218147 0
138.8596 -25.92469 0.1218147 0
138.7596 -25.82469 0.1218147 0
138.7596 -25.77469 0.1218147 0
139.0096 -25.97469 0.07181472 0
139.0096 -25.97469 0.1218147 0
139.0596 -25.92469 0.07181472 0
139.1096 -25.87469 0.07181472 0
139.1096 -25.77469 0.07181472 0
139.1596 -26.12469 0.1218147 0
139.2596 -26.12469 0.1218147 0
139.3096 -26.07469 0.1218147 0
139.1596 -25.97469 0.1218147 0
139.2596 -25.92469 0.1218147 0
139.1596 -25.72469 0.07181472 0
139.1596 -25.67469 0.07181472 0
139.3596 -26.02469 0.1218147 0
139.4096 -25.92469 0.1218147 0
139.4596 -25.92469 0.1218147 0
139.5096 -25.92469 0.1218147 0
139.5096 -25.87469 0.1218147 0
139.8096 -26.87469 0.1218147 0
139.9096 -26.92469 0.1218147 0
139.7096 -26.77469 0.1218147 0
139.6596 -26.67469 0.1218147 0
139.5596 -26.57469 0.1218147 0
139.6096 -26.62469 0.1218147 0
140.0096 -27.17469 0.1218147 0
140.0096 -27.07469 0.1218147 0
140.1096 -27.22469 0.1218147 0
139.9596 -27.02469 0.1218147 0
140.1596 -27.17469 0.07181472 0
140.2096 -27.12469 0.07181472 0
140.2596 -27.02469 0.07181472 0
140.3096 -26.97469 0.07181472 0
139.6596 -25.92469 0.1218147 0
139.5596 -25.82469 0.1218147 0
139.6596 -25.77469 0.1218147 0
139.7096 -25.72469 0.1218147 0
139.7596 -25.87469 0.1218147 0
139.7596 -25.67469 0.1218147 0
139.9096 -25.82469 0.1218147 0
140.0096 -25.82469 0.1218147 0
140.1596 -25.82469 0.1218147 0
140.2596 -25.77469 0.1218147 0
139.2096 -25.57469 0.07181472 0
139.2096 -25.47469 0.07181472 0
139.2096 -25.42469 0.07181472 0
139.2596 -25.37469 0.07181472 0
139.2596 -25.27469 0.07181472 0
139.2596 -25.17469 0.07181472 0
139.2596 -25.07469 0.07181472 0
139.2596 -24.97469 0.07181472 0
139.2596 -24.87469 0.07181472 0
138.7596 -24.42469 0.1218147 0
138.8596 -24.32469 0.1218147 0
138.7596 -24.22469 0.1218147 0
138.8596 -24.17469 0.1218147 0
138.9096 -24.22469 0.1218147 0
