# .PCD v0.7 - Point Cloud Data file format
VERSION 0.7
FIELDS x y z intensity
SIZE 4 4 4 4
TYPE F F F F
COUNT 1 1 1 1
WIDTH 1624
HEIGHT 1
VIEWPOINT 0 0 0 1 0 0 0
POINTS 1624
DATA ascii
80.50961 49.52531 1.471815 0
80.45961 49.47531 1.571815 0
80.55962 49.32531 1.271815 0
80.55962 49.32531 1.371815 0
80.65961 49.17531 1.321815 0
80.70961 49.17531 1.271815 0
80.70961 49.22531 1.371815 0
80.65961 49.27531 1.271815 0
80.70961 49.32531 1.271815 0
80.55962 49.22531 1.521815 0
80.55962 49.32531 1.621815 0
80.65961 49.32531 1.471815 0
80.65961 49.27531 1.621815 0
80.70961 49.32531 1.571815 0
80.60961 49.37531 1.271815 0
80.55962 49.47531 1.271815 0
80.55962 49.52531 1.371815 0
80.60961 49.52531 1.421815 0
80.70961 49.37531 1.421815 0
80.70961 49.42531 1.421815 0
80.65961 49.47531 1.321815 0
80.65961 49.47531 1.371815 0
80.65961 49.47531 1.421815 0
80.70961 49.47531 1.421815 0
80.55962 49.37531 1.471815 0
80.60961 49.42531 1.471815 0
80.60961 49.42531 1.571815 0
80.55962 49.47531 1.471815 0
80.60961 49.52531 1.471815 0
80.55962 49.47531 1.571815 0
80.55962 49.52531 1.621815 0
80.60961 49.47531 1.621815 0
80.60961 49.52531 1.621815 0
80.65961 49.42531 1.471815 0
80.70961 49.42531 1.471815 0
80.65961 49.42531 1.621815 0
80.70961 49.37531 1.621815 0
80.65961 49.47531 1.571815 0
80.65961 49.47531 1.621815 0
80.80962 49.02531 1.021815 0
80.80962 49.12531 0.8718147 0
80.80962 49.12531 0.9218147 0
80.90961 49.07531 0.9718148 0
80.85961 49.02531 1.171815 0
80.90961 49.12531 1.121815 0
80.95961 48.92531 1.021815 0
81.10961 48.82531 1.021815 0
81.00961 48.92531 1.171815 0
81.00961 48.97531 0.9718148 0
80.95961 49.07531 0.8718147 0
81.00961 49.12531 1.021815 0
81.05962 48.97531 0.8718147 0
81.05962 49.12531 0.8718147 0
81.10961 49.07531 0.9218147 0
81.10961 49.07531 1.021815 0
81.10961 49.12531 1.021815 0
80.95961 49.07531 1.121815 0
81.00961 49.12531 1.171815 0
81.00961 49.12531 1.221815 0
81.10961 48.97531 1.121815 0
81.10961 49.07531 1.171815 0
81.10961 49.12531 1.221815 0
80.75961 49.12531 1.371815 0
80.85961 49.07531 1.321815 0
80.85961 49.12531 1.271815 0
80.90961 49.07531 1.371815 0
80.85961 49.02531 1.521815 0
80.90961 49.12531 1.471815 0
80.85961 49.12531 1.621815 0
81.05962 48.92531 1.321815 0
81.10961 48.92531 1.271815 0
80.95961 48.92531 1.521815 0
81.10961 48.82531 1.521815 0
81.00961 48.97531 1.371815 0
80.95961 49.07531 1.271815 0
81.00961 49.12531 1.271815 0
81.00961 49.12531 1.371815 0
81.00961 49.12531 1.421815 0
81.05962 48.97531 1.271815 0
81.10961 49.07531 1.271815 0
81.10961 49.07531 1.371815 0
81.10961 49.12531 1.421815 0
81.00961 49.07531 1.471815 0
80.95961 49.07531 1.621815 0
81.00961 49.12531 1.571815 0
81.10961 48.97531 1.471815 0
81.10961 49.12531 1.521815 0
81.10961 49.07531 1.571815 0
81.10961 49.12531 1.571815 0
80.80962 49.22531 1.021815 0
80.80962 49.32531 0.9218147 0
80.75961 49.32531 0.9718148 0
80.75961 49.32531 1.021815 0
80.80962 49.32531 1.021815 0
80.90961 49.22531 0.9218147 0
80.90961 49.17531 1.021815 0
80.85961 49.27531 0.9218147 0
80.85961 49.32531 0.9218147 0
80.90961 49.27531 0.8718147 0
80.85961 49.27531 1.021815 0
80.85961 49.32531 1.021815 0
80.90961 49.27531 1.021815 0
80.80962 49.22531 1.121815 0
80.80962 49.32531 1.121815 0
80.75961 49.32531 1.221815 0
80.90961 49.22531 1.171815 0
80.90961 49.22531 1.221815 0
80.90961 49.27531 1.121815 0
80.85961 49.27531 1.171815 0
80.85961 49.27531 1.221815 0
80.85961 49.32531 1.171815 0
80.75961 49.37531 0.9218147 0
80.75961 49.37531 1.021815 0
80.80962 49.37531 1.021815 0
80.75961 49.47531 0.8718147 0
80.85961 49.42531 0.8718147 0
80.75961 49.37531 1.121815 0
80.75961 49.37531 1.171815 0
80.75961 49.37531 1.221815 0
80.75961 49.52531 1.121815 0
80.85961 49.42531 1.071815 0
80.95961 49.22531 0.8718147 0
81.00961 49.17531 0.8718147 0
81.00961 49.17531 0.9218147 0
80.95961 49.17531 1.021815 0
80.95961 49.22531 1.021815 0
80.95961 49.27531 0.9218147 0
80.95961 49.32531 0.8718147 0
80.95961 49.27531 0.9718148 0
81.05962 49.17531 0.9218147 0
81.05962 49.17531 1.021815 0
81.10961 49.17531 0.9718148 0
80.95961 49.22531 1.121815 0
81.00961 49.22531 1.121815 0
80.95961 49.17531 1.171815 0
80.95961 49.17531 1.221815 0
80.95961 49.22531 1.221815 0
81.00961 49.17531 1.221815 0
80.95961 49.32531 1.071815 0
80.95961 49.27531 1.171815 0
81.05962 49.17531 1.121815 0
81.05962 49.27531 1.071815 0
81.00961 49.37531 0.9718148 0
81.00961 49.37531 1.221815 0
80.80962 49.27531 1.271815 0
80.75961 49.32531 1.421815 0
80.80962 49.27531 1.421815 0
80.80962 49.32531 1.371815 0
80.90961 49.17531 1.271815 0
80.90961 49.22531 1.421815 0
80.85961 49.27531 1.421815 0
80.85961 49.32531 1.421815 0
80.90961 49.27531 1.371815 0
80.80962 49.22531 1.471815 0
80.75961 49.22531 1.621815 0
80.75961 49.27531 1.471815 0
80.75961 49.32531 1.471815 0
80.75961 49.32531 1.621815 0
80.80962 49.27531 1.571815 0
80.80962 49.27531 1.621815 0
80.80962 49.32531 1.571815 0
80.90961 49.17531 1.621815 0
80.90961 49.22531 1.571815 0
80.85961 49.27531 1.621815 0
80.90961 49.27531 1.571815 0
80.90961 49.27531 1.621815 0
80.80962 49.37531 1.271815 0
80.75961 49.37531 1.371815 0
80.75961 49.37531 1.421815 0
80.75961 49.52531 1.321815 0
80.85961 49.42531 1.321815 0
80.75961 49.37531 1.621815 0
80.80962 49.37531 1.571815 0
80.75961 49.47531 1.571815 0
80.85961 49.42531 1.571815 0
81.00961 49.22531 1.321815 0
80.95961 49.17531 1.421815 0
80.95961 49.22531 1.371815 0
80.95961 49.22531 1.421815 0
81.00961 49.17531 1.421815 0
81.00961 49.22531 1.421815 0
80.95961 49.27531 1.271815 0
80.95961 49.32531 1.321815 0
80.95961 49.27531 1.371815 0
81.05962 49.17531 1.321815 0
81.05962 49.17531 1.371815 0
81.05962 49.27531 1.271815 0
80.95961 49.17531 1.571815 0
80.95961 49.22531 1.571815 0
80.95961 49.22531 1.621815 0
81.00961 49.17531 1.571815 0
80.95961 49.27531 1.521815 0
80.95961 49.32531 1.521815 0
81.05962 49.22531 1.521815 0
81.05962 49.17531 1.571815 0
81.05962 49.22531 1.621815 0
81.00961 49.37531 1.521815 0
80.20961 49.47531 1.671815 0
80.15961 49.52531 1.971815 0
80.30962 49.42531 1.971815 0
80.30962 49.47531 1.921815 0
80.20961 49.47531 2.221815 0
80.15961 49.52531 2.471815 0
80.30962 49.42531 2.471815 0
80.30962 49.47531 2.521815 0
80.20961 49.47531 2.771815 0
80.70961 49.12531 2.021815 0
80.50961 49.27531 1.721815 0
80.40961 49.32531 1.971815 0
80.45961 49.32531 1.921815 0
80.35961 49.37531 1.671815 0
80.35961 49.47531 1.771815 0
80.35961 49.52531 1.771815 0
80.40961 49.52531 1.821815 0
80.45961 49.37531 1.771815 0
80.50961 49.52531 1.671815 0
80.50961 49.47531 1.771815 0
80.50961 49.52531 1.821815 0
80.35961 49.47531 1.971815 0
80.45961 49.42531 1.971815 0
80.50961 49.52531 1.921815 0
80.55962 49.32531 1.771815 0
80.70961 49.17531 1.721815 0
80.65961 49.22531 1.771815 0
80.65961 49.32531 1.771815 0
80.70961 49.27531 1.771815 0
80.70961 49.32531 1.821815 0
80.55962 49.27531 2.021815 0
80.55962 49.32531 2.021815 0
80.65961 49.17531 1.921815 0
80.70961 49.17531 2.021815 0
80.65961 49.27531 2.021815 0
80.60961 49.42531 1.671815 0
80.55962 49.37531 1.771815 0
80.55962 49.42531 1.821815 0
80.60961 49.42531 1.821815 0
80.55962 49.47531 1.671815 0
80.55962 49.47531 1.721815 0
80.60961 49.52531 1.721815 0
80.55962 49.52531 1.821815 0
80.60961 49.47531 1.821815 0
80.65961 49.42531 1.721815 0
80.70961 49.37531 1.671815 0
80.70961 49.42531 1.771815 0
80.70961 49.42531 1.821815 0
80.70961 49.47531 1.671815 0
80.65961 49.47531 1.821815 0
80.60961 49.42531 1.871815 0
80.55962 49.47531 1.871815 0
80.55962 49.52531 1.871815 0
80.55962 49.47531 1.971815 0
80.60961 49.52531 1.971815 0
80.70961 49.37531 1.871815 0
80.70961 49.42531 1.921815 0
80.65961 49.42531 1.971815 0
80.65961 49.47531 1.871815 0
80.35961 49.37531 2.221815 0
80.35961 49.52531 2.121815 0
80.40961 49.52531 2.121815 0
80.35961 49.47531 2.171815 0
80.50961 49.42531 2.121815 0
80.45961 49.37531 2.221815 0
80.50961 49.47531 2.121815 0
80.35961 49.47531 2.371815 0
80.45961 49.42531 2.371815 0
80.50961 49.52531 2.421815 0
80.55962 49.32531 2.221815 0
80.70961 49.22531 2.221815 0
80.65961 49.32531 2.121815 0
80.70961 49.32531 2.121815 0
80.55962 49.27531 2.271815 0
80.55962 49.32531 2.371815 0
80.70961 49.17531 2.271815 0
80.65961 49.27531 2.371815 0
80.55962 49.37531 2.121815 0
80.60961 49.37531 2.121815 0
80.55962 49.52531 2.121815 0
80.55962 49.47531 2.221815 0
80.60961 49.52531 2.221815 0
80.70961 49.42531 2.121815 0
80.65961 49.42531 2.221815 0
80.65961 49.47531 2.121815 0
80.65961 49.47531 2.171815 0
80.70961 49.47531 2.171815 0
80.55962 49.42531 2.421815 0
80.60961 49.42531 2.421815 0
80.70961 49.37531 2.421815 0
80.65961 49.47531 2.421815 0
80.80962 49.12531 1.821815 0
80.85961 49.02531 1.721815 0
80.90961 49.02531 1.821815 0
80.90961 49.12531 1.821815 0
80.85961 49.02531 1.921815 0
80.85961 49.02531 2.021815 0
80.85961 49.12531 2.021815 0
81.00961 48.92531 1.721815 0
81.10961 48.92531 1.671815 0
80.95961 48.92531 2.021815 0
81.10961 48.82531 2.021815 0
81.05962 48.92531 1.971815 0
81.10961 48.92531 2.021815 0
81.00961 48.97531 1.821815 0
80.95961 49.07531 1.821815 0
81.00961 49.12531 1.771815 0
81.00961 49.12531 1.821815 0
81.05962 48.97531 1.671815 0
81.10961 49.02531 1.821815 0
81.10961 49.12531 1.671815 0
81.05962 49.07531 1.771815 0
81.05962 49.12531 1.771815 0
81.10961 49.07531 1.771815 0
81.10961 49.07531 1.821815 0
81.00961 49.12531 1.921815 0
80.95961 49.07531 2.021815 0
81.05962 48.97531 2.021815 0
81.10961 49.07531 1.921815 0
81.10961 49.12531 2.021815 0
80.80962 49.12531 2.221815 0
80.90961 49.02531 2.221815 0
80.90961 49.12531 2.121815 0
80.85961 49.02531 2.271815 0
80.85961 49.12531 2.421815 0
80.90961 49.07531 2.421815 0
81.00961 48.92531 2.321815 0
81.10961 48.92531 2.421815 0
81.00961 48.97531 2.221815 0
80.95961 49.07531 2.121815 0
81.00961 49.12531 2.121815 0
81.05962 49.02531 2.121815 0
81.10961 49.07531 2.121815 0
81.10961 49.07531 2.221815 0
81.00961 48.97531 2.421815 0
81.00961 49.12531 2.421815 0
81.10961 49.12531 2.321815 0
81.10961 49.07531 2.421815 0
80.80962 49.22531 1.771815 0
80.75961 49.32531 1.721815 0
80.75961 49.32531 1.821815 0
80.80962 49.27531 1.821815 0
80.80962 49.32531 1.821815 0
80.90961 49.22531 1.671815 0
80.90961 49.17531 1.821815 0
80.90961 49.22531 1.821815 0
80.85961 49.27531 1.721815 0
80.85961 49.32531 1.671815 0
80.85961 49.32531 1.821815 0
80.90961 49.27531 1.821815 0
80.75961 49.32531 1.871815 0
80.75961 49.32531 1.971815 0
80.90961 49.22531 1.971815 0
80.85961 49.32531 1.871815 0
80.85961 49.27531 1.971815 0
80.75961 49.37531 1.671815 0
80.75961 49.37531 1.821815 0
80.80962 49.37531 1.821815 0
80.75961 49.52531 1.821815 0
80.85961 49.42531 1.771815 0
80.75961 49.37531 1.921815 0
80.85961 49.42531 2.021815 0
81.00961 49.17531 1.671815 0
81.00961 49.22531 1.721815 0
80.95961 49.17531 1.771815 0
81.00961 49.17531 1.771815 0
81.00961 49.17531 1.821815 0
80.95961 49.27531 1.771815 0
80.95961 49.27531 1.821815 0
80.95961 49.32531 1.771815 0
81.10961 49.17531 1.771815 0
81.05962 49.27531 1.771815 0
80.95961 49.17531 1.921815 0
80.95961 49.27531 1.871815 0
80.95961 49.32531 2.021815 0
81.10961 49.17531 1.871815 0
81.05962 49.17531 2.021815 0
81.05962 49.27531 1.971815 0
81.00961 49.37531 1.821815 0
80.80962 49.22531 2.121815 0
80.75961 49.27531 2.121815 0
80.80962 49.27531 2.121815 0
80.80962 49.32531 2.071815 0
80.90961 49.17531 2.121815 0
80.90961 49.22531 2.221815 0
80.85961 49.27531 2.071815 0
80.85961 49.27531 2.221815 0
80.85961 49.32531 2.171815 0
80.75961 49.22531 2.371815 0
80.75961 49.32531 2.421815 0
80.80962 49.27531 2.421815 0
80.90961 49.17531 2.421815 0
80.75961 49.37531 2.071815 0
80.80962 49.37531 2.121815 0
80.75961 49.37531 2.171815 0
80.75961 49.37531 2.221815 0
80.75961 49.52531 2.071815 0
80.80962 49.37531 2.371815 0
80.95961 49.22531 2.071815 0
81.00961 49.22531 2.071815 0
81.00961 49.17531 2.221815 0
80.95961 49.27531 2.071815 0
80.95961 49.27531 2.121815 0
81.05962 49.17531 2.121815 0
81.00961 49.22531 2.371815 0
80.95961 49.27531 2.371815 0
81.00961 49.37531 2.071815 0
81.00961 49.37531 2.371815 0
80.70961 49.12531 2.521815 0
80.40961 49.32531 2.471815 0
80.45961 49.32531 2.571815 0
80.40961 49.52531 2.471815 0
80.35961 49.47531 2.621815 0
80.50961 49.42531 2.471815 0
80.45961 49.37531 2.621815 0
80.35961 49.37531 2.821815 0
80.35961 49.47531 2.721815 0
80.35961 49.52531 2.771815 0
80.45961 49.42531 2.771815 0
80.50961 49.42531 2.771815 0
80.55962 49.22531 2.471815 0
80.55962 49.32531 2.621815 0
80.65961 49.17531 2.571815 0
80.65961 49.32531 2.471815 0
80.55962 49.27531 2.821815 0
80.55962 49.32531 2.771815 0
80.65961 49.22531 2.671815 0
80.65961 49.27531 2.771815 0
80.65961 49.32531 2.821815 0
80.70961 49.27531 2.821815 0
80.55962 49.37531 2.471815 0
80.70961 49.47531 2.471815 0
80.55962 49.37531 2.821815 0
80.70961 49.42531 2.771815 0
80.80962 49.02531 2.521815 0
80.85961 49.07531 2.571815 0
80.80962 49.12531 2.671815 0
80.90961 49.07531 2.671815 0
80.85961 49.12531 2.771815 0
80.95961 48.92531 2.521815 0
81.10961 48.82531 2.571815 0
81.05962 48.92531 2.621815 0
81.00961 49.07531 2.471815 0
81.05962 49.02531 2.471815 0
81.00961 48.97531 2.671815 0
80.95961 49.07531 2.771815 0
80.95961 49.07531 2.821815 0
81.05962 48.97531 2.821815 0
81.05962 49.02531 2.821815 0
80.80962 49.22531 2.471815 0
80.75961 49.27531 2.471815 0
80.90961 49.17531 2.471815 0
80.75961 49.17531 2.771815 0
80.75961 49.17531 2.821815 0
80.80962 49.17531 2.821815 0
80.90961 49.17531 2.821815 0
81.00961 49.22531 2.671815 0
78.50961 51.02531 0.07181472 0
78.65961 50.92531 0.07181472 0
78.60961 50.97531 0.07181472 0
78.60961 51.02531 0.1718147 0
78.55962 51.12531 0.1218147 0
78.55962 51.12531 0.1718147 0
78.60961 51.12531 0.1718147 0
78.65961 51.02531 0.1218147 0
78.70961 50.97531 0.1718147 0
78.70961 51.02531 0.1718147 0
78.65961 51.12531 0.1718147 0
78.70961 51.07531 0.1718147 0
78.40961 51.12531 0.5218147 0
78.40961 51.12531 0.5718147 0
78.50961 51.02531 0.5218147 0
78.50961 51.02531 0.5718147 0
78.45961 51.07531 0.6218147 0
78.40961 51.02531 0.7218148 0
78.60961 50.92531 0.6218147 0
78.65961 50.92531 0.5718147 0
78.60961 50.92531 0.7218148 0
78.60961 50.97531 0.5218147 0
78.55962 51.12531 0.5218147 0
78.60961 51.12531 0.5218147 0
78.65961 51.02531 0.5218147 0
78.70961 50.97531 0.5218147 0
78.65961 51.07531 0.5218147 0
78.65961 51.12531 0.4718147 0
78.70961 51.07531 0.4718147 0
78.70961 51.07531 0.5218147 0
78.65961 51.02531 0.8218147 0
78.70961 50.97531 0.8218147 0
78.65961 51.12531 0.7718147 0
78.70961 51.07531 0.7718147 0
78.35961 51.12531 0.9718148 0
78.35961 51.12531 1.071815 0
78.50961 51.02531 1.071815 0
78.45961 51.07531 1.221815 0
78.60961 50.92531 1.221815 0
78.65961 50.87531 1.071815 0
78.60961 51.02531 1.221815 0
78.55962 51.12531 1.221815 0
78.60961 51.07531 1.171815 0
78.70961 51.02531 1.071815 0
78.70961 50.97531 1.221815 0
78.70961 51.02531 1.171815 0
78.65961 51.12531 1.071815 0
78.70961 51.07531 1.071815 0
78.70961 51.12531 1.221815 0
78.40961 51.02531 1.371815 0
78.50961 51.07531 1.421815 0
78.55962 50.87531 1.371815 0
78.60961 50.97531 1.421815 0
78.55962 51.07531 1.321815 0
78.65961 51.02531 1.321815 0
78.70961 51.02531 1.321815 0
78.70961 51.12531 1.271815 0
78.65961 51.12531 1.371815 0
78.70961 51.07531 1.371815 0
78.60961 51.12531 1.521815 0
78.70961 51.02531 1.471815 0
79.40961 50.32531 0.7218148 0
78.90961 50.32531 1.621815 0
79.45961 50.32531 1.021815 0
79.50961 50.27531 1.121815 0
79.30962 50.27531 1.571815 0
79.35961 50.32531 1.421815 0
79.45961 50.32531 1.271815 0
79.45961 50.32531 1.471815 0
79.00961 50.72531 0.3218147 0
79.00961 50.57531 0.5718147 0
79.00961 50.67531 0.5218147 0
78.95961 50.67531 0.5718147 0
79.00961 50.72531 0.5718147 0
79.05962 50.57531 0.5218147 0
79.10961 50.62531 0.5218147 0
79.05962 50.72531 0.4718147 0
79.10961 50.72531 0.4718147 0
79.00961 50.72531 0.8218147 0
79.05962 50.67531 0.7218148 0
79.10961 50.72531 0.8218147 0
78.80962 50.77531 0.07181472 0
78.75961 50.87531 0.07181472 0
78.80962 50.92531 0.1718147 0
78.85961 50.77531 0.07181472 0
78.90961 50.82531 0.1718147 0
78.85961 50.87531 0.1218147 0
78.85961 50.92531 0.1718147 0
78.90961 50.92531 0.1718147 0
78.75961 50.97531 0.1218147 0
78.75961 50.97531 0.1718147 0
78.80962 51.02531 0.1718147 0
78.75961 51.07531 0.1718147 0
78.75961 51.12531 0.1718147 0
78.85961 51.02531 0.1718147 0
78.85961 51.07531 0.1718147 0
78.90961 51.07531 0.1718147 0
78.90961 51.12531 0.2718147 0
78.85961 51.07531 0.4218147 0
78.95961 50.82531 0.1218147 0
78.95961 50.87531 0.1718147 0
78.95961 50.92531 0.1718147 0
79.05962 50.92531 0.1718147 0
78.95961 50.77531 0.3218147 0
79.10961 50.92531 0.4218147 0
78.95961 50.97531 0.1718147 0
78.95961 51.02531 0.1718147 0
79.00961 51.02531 0.1718147 0
79.00961 51.07531 0.1218147 0
78.95961 51.07531 0.1718147 0
78.95961 51.12531 0.1718147 0
79.00961 51.12531 0.1718147 0
79.05962 51.12531 0.1718147 0
79.05962 51.12531 0.2218147 0
79.10961 51.07531 0.1718147 0
79.10961 51.07531 0.2218147 0
78.95961 50.97531 0.4218147 0
79.00961 51.12531 0.2718147 0
79.05962 51.02531 0.2718147 0
78.75961 50.82531 0.6218147 0
78.80962 50.82531 0.5718147 0
78.75961 50.87531 0.5218147 0
78.80962 50.92531 0.5218147 0
78.85961 50.77531 0.5218147 0
78.85961 50.87531 0.5218147 0
78.85961 50.92531 0.5218147 0
78.90961 50.87531 0.5218147 0
78.90961 50.92531 0.4718147 0
78.80962 50.77531 0.7218148 0
78.75961 50.92531 0.8218147 0
78.85961 50.92531 0.8218147 0
78.75961 50.97531 0.5218147 0
78.80962 51.02531 0.4718147 0
78.80962 51.02531 0.5718147 0
78.75961 51.07531 0.4718147 0
78.75961 51.12531 0.4718147 0
78.85961 51.02531 0.4718147 0
78.85961 51.07531 0.4718147 0
78.80962 51.02531 0.7718147 0
78.75961 51.07531 0.7718147 0
78.75961 51.12531 0.7718147 0
78.85961 51.07531 0.7218148 0
78.85961 51.12531 0.7718147 0
78.95961 50.82531 0.5218147 0
79.00961 50.77531 0.5218147 0
78.95961 50.82531 0.5718147 0
78.95961 50.87531 0.5218147 0
78.95961 50.92531 0.4718147 0
79.00961 50.87531 0.5218147 0
79.00961 50.92531 0.5718147 0
79.05962 50.82531 0.4718147 0
79.05962 50.82531 0.5218147 0
79.10961 50.77531 0.4718147 0
79.05962 50.92531 0.4718147 0
79.00961 50.82531 0.7718147 0
78.95961 50.92531 0.7718147 0
79.00961 50.87531 0.7718147 0
79.10961 50.82531 0.7218148 0
79.10961 50.77531 0.7718147 0
79.10961 50.82531 0.7718147 0
79.05962 50.87531 0.7718147 0
78.95961 50.97531 0.4718147 0
79.00961 50.97531 0.4718147 0
78.95961 51.02531 0.5718147 0
79.00961 51.07531 0.4718147 0
79.00961 51.12531 0.4718147 0
79.10961 50.97531 0.5218147 0
79.10961 51.02531 0.4718147 0
79.05962 51.07531 0.5218147 0
78.95961 51.02531 0.7218148 0
79.00961 50.97531 0.8218147 0
79.00961 51.12531 0.6718147 0
79.00961 51.12531 0.7218148 0
79.05962 51.02531 0.7218148 0
79.10961 50.97531 0.7218148 0
79.10961 51.07531 0.6718147 0
79.25961 50.67531 0.4218147 0
79.45961 50.52531 0.4218147 0
79.35961 50.62531 0.4218147 0
79.40961 50.72531 0.2718147 0
79.45961 50.67531 0.2718147 0
79.45961 50.67531 0.4218147 0
79.30962 50.52531 0.5718147 0
79.20961 50.47531 0.7218148 0
79.30962 50.47531 0.6718147 0
79.20961 50.62531 0.4718147 0
79.15961 50.67531 0.4718147 0
79.20961 50.72531 0.4718147 0
79.25961 50.62531 0.4718147 0
79.30962 50.57531 0.4718147 0
79.30962 50.57531 0.5218147 0
79.30962 50.62531 0.4718147 0
79.25961 50.72531 0.5218147 0
79.15961 50.57531 0.6718147 0
79.15961 50.67531 0.8218147 0
79.20961 50.72531 0.7718147 0
79.25961 50.62531 0.8218147 0
79.30962 50.62531 0.7718147 0
79.25961 50.72531 0.7718147 0
79.30962 50.72531 0.7718147 0
79.35961 50.52531 0.4718147 0
79.40961 50.47531 0.5218147 0
79.50961 50.42531 0.4718147 0
79.45961 50.42531 0.5718147 0
79.45961 50.47531 0.4718147 0
79.45961 50.52531 0.4718147 0
79.50961 50.52531 0.5218147 0
79.40961 50.52531 0.8218147 0
79.50961 50.37531 0.6718147 0
79.50961 50.42531 0.8218147 0
79.50961 50.52531 0.7218148 0
79.50961 50.52531 0.7718147 0
79.35961 50.62531 0.4718147 0
79.35961 50.62531 0.5218147 0
79.40961 50.57531 0.4718147 0
79.40961 50.62531 0.5218147 0
79.35961 50.67531 0.5218147 0
79.35961 50.72531 0.5218147 0
79.40961 50.67531 0.5218147 0
79.40961 50.72531 0.4718147 0
79.40961 50.72531 0.5218147 0
79.45961 50.57531 0.5218147 0
79.50961 50.57531 0.5218147 0
79.45961 50.67531 0.4718147 0
79.45961 50.67531 0.5218147 0
79.40961 50.57531 0.7218148 0
79.35961 50.57531 0.8218147 0
79.35961 50.62531 0.7718147 0
79.40961 50.57531 0.7718147 0
79.40961 50.62531 0.7718147 0
79.40961 50.62531 0.8218147 0
79.35961 50.67531 0.7218148 0
79.40961 50.67531 0.6718147 0
79.40961 50.72531 0.7218148 0
79.45961 50.57531 0.7218148 0
79.45961 50.62531 0.7218148 0
79.50961 50.62531 0.6718147 0
79.25961 50.92531 0.2218147 0
79.30962 50.82531 0.2718147 0
79.30962 50.77531 0.4218147 0
79.25961 50.92531 0.2718147 0
79.15961 51.02531 0.1718147 0
79.20961 50.97531 0.2218147 0
79.20961 51.07531 0.1718147 0
79.15961 50.97531 0.2718147 0
79.35961 50.97531 0.2218147 0
79.40961 51.07531 0.2218147 0
79.20961 50.87531 0.5218147 0
79.25961 50.77531 0.5218147 0
79.30962 50.82531 0.5218147 0
79.25961 50.92531 0.4718147 0
79.30962 50.92531 0.4718147 0
79.15961 50.82531 0.6718147 0
79.20961 50.82531 0.7218148 0
79.15961 50.82531 0.7718147 0
79.20961 50.77531 0.7718147 0
79.20961 50.87531 0.7218148 0
79.20961 50.92531 0.7218148 0
79.15961 50.87531 0.7718147 0
79.25961 50.77531 0.7218148 0
79.30962 50.77531 0.6718147 0
79.30962 50.77531 0.7218148 0
79.30962 50.82531 0.7218148 0
79.15961 50.97531 0.5218147 0
79.15961 51.02531 0.4718147 0
79.20961 50.97531 0.4718147 0
79.15961 50.97531 0.6718147 0
79.15961 51.02531 0.8218147 0
79.25961 51.02531 0.6718147 0
79.35961 50.82531 0.7218148 0
79.40961 50.82531 0.6718147 0
79.40961 51.02531 0.5218147 0
79.45961 51.12531 0.5218147 0
78.95961 50.67531 0.9718148 0
79.10961 50.57531 0.9718148 0
79.05962 50.72531 0.8718147 0
79.05962 50.72531 0.9218147 0
78.95961 50.67531 1.121815 0
78.95961 50.72531 1.221815 0
79.05962 50.57531 1.121815 0
79.10961 50.57531 1.221815 0
79.05962 50.72531 1.221815 0
79.10961 50.72531 1.171815 0
78.90961 50.37531 1.571815 0
78.90961 50.47531 1.571815 0
78.90961 50.52531 1.571815 0
78.85961 50.62531 1.571815 0
78.90961 50.67531 1.521815 0
78.95961 50.52531 1.621815 0
78.95961 50.62531 1.421815 0
79.00961 50.72531 1.321815 0
79.05962 50.72531 1.321815 0
78.95961 50.62531 1.571815 0
78.95961 50.67531 1.471815 0
79.00961 50.72531 1.521815 0
78.95961 50.72531 1.621815 0
79.00961 50.72531 1.571815 0
79.00961 50.72531 1.621815 0
79.10961 50.57531 1.471815 0
79.10961 50.72531 1.471815 0
79.10961 50.72531 1.621815 0
78.80962 50.77531 1.071815 0
78.75961 50.82531 1.221815 0
78.75961 50.92531 1.071815 0
78.80962 50.92531 1.221815 0
78.90961 50.82531 1.071815 0
78.90961 50.82531 1.221815 0
78.85961 50.87531 1.071815 0
78.85961 50.92531 1.071815 0
78.85961 50.92531 1.171815 0
78.80962 50.97531 1.071815 0
78.75961 50.97531 1.171815 0
78.75961 51.07531 1.071815 0
78.85961 50.97531 1.071815 0
78.85961 51.02531 1.071815 0
78.85961 51.02531 1.121815 0
78.95961 50.92531 1.021815 0
79.00961 50.87531 1.021815 0
79.10961 50.82531 1.021815 0
79.10961 50.92531 0.9218147 0
79.05962 50.87531 1.021815 0
79.10961 50.87531 0.9718148 0
79.00961 50.82531 1.071815 0
78.95961 50.77531 1.221815 0
79.00961 50.77531 1.171815 0
78.95961 50.87531 1.071815 0
78.95961 50.92531 1.071815 0
79.00961 50.87531 1.071815 0
79.00961 50.92531 1.121815 0
78.95961 50.87531 1.171815 0
79.10961 50.77531 1.071815 0
79.05962 50.87531 1.221815 0
78.95961 50.97531 0.8718147 0
78.95961 50.97531 0.9718148 0
79.05962 51.07531 1.021815 0
78.95961 50.97531 1.221815 0
79.00961 51.02531 1.221815 0
78.95961 51.07531 1.221815 0
79.00961 51.07531 1.171815 0
79.10961 50.97531 1.221815 0
79.10961 51.02531 1.171815 0
78.75961 50.77531 1.421815 0
78.75961 50.92531 1.321815 0
78.80962 50.87531 1.321815 0
78.75961 50.87531 1.421815 0
78.85961 50.82531 1.321815 0
78.90961 50.77531 1.321815 0
78.85961 50.87531 1.321815 0
78.85961 50.92531 1.371815 0
78.85961 50.77531 1.471815 0
78.90961 50.82531 1.471815 0
78.85961 50.87531 1.471815 0
78.90961 50.87531 1.571815 0
78.90961 50.87531 1.621815 0
78.75961 51.02531 1.371815 0
78.80962 50.97531 1.371815 0
78.75961 51.12531 1.371815 0
78.85961 51.02531 1.271815 0
78.85961 50.97531 1.371815 0
78.85961 51.02531 1.371815 0
78.85961 51.02531 1.421815 0
78.75961 50.97531 1.471815 0
78.95961 50.77531 1.321815 0
79.00961 50.82531 1.371815 0
78.95961 50.92531 1.321815 0
79.00961 50.87531 1.321815 0
78.95961 50.87531 1.371815 0
79.00961 50.92531 1.421815 0
79.10961 50.82531 1.321815 0
79.10961 50.77531 1.371815 0
79.05962 50.87531 1.321815 0
79.10961 50.92531 1.421815 0
79.00961 50.77531 1.471815 0
79.00961 50.82531 1.521815 0
78.95961 50.82531 1.571815 0
79.00961 50.77531 1.621815 0
79.00961 50.87531 1.621815 0
79.10961 50.82531 1.521815 0
79.10961 50.82531 1.621815 0
79.05962 50.92531 1.621815 0
78.95961 50.97531 1.271815 0
79.00961 51.02531 1.421815 0
78.95961 51.12531 1.421815 0
79.05962 51.02531 1.371815 0
79.10961 51.02531 1.421815 0
78.95961 50.97531 1.521815 0
78.95961 50.97531 1.571815 0
78.95961 51.07531 1.471815 0
78.95961 51.07531 1.621815 0
79.10961 51.07531 1.521815 0
79.20961 50.47531 1.021815 0
79.30962 50.42531 1.021815 0
79.30962 50.52531 0.8718147 0
79.20961 50.47531 1.121815 0
79.30962 50.47531 1.221815 0
79.30962 50.52531 1.171815 0
79.15961 50.62531 0.8718147 0
79.15961 50.62531 0.9218147 0
79.20961 50.72531 1.021815 0
79.25961 50.57531 0.8718147 0
79.25961 50.57531 0.9218147 0
79.25961 50.67531 1.021815 0
79.25961 50.72531 1.021815 0
79.30962 50.67531 0.9718148 0
79.15961 50.62531 1.221815 0
79.15961 50.72531 1.071815 0
79.15961 50.67531 1.171815 0
79.30962 50.62531 1.071815 0
79.25961 50.57531 1.221815 0
79.25961 50.62531 1.171815 0
79.25961 50.67531 1.071815 0
79.30962 50.72531 1.071815 0
79.30962 50.72531 1.221815 0
79.40961 50.42531 0.8718147 0
79.35961 50.47531 0.9218147 0
79.45961 50.42531 0.9218147 0
79.50961 50.37531 0.8718147 0
79.50961 50.42531 1.021815 0
79.50961 50.52531 1.021815 0
79.35961 50.37531 1.121815 0
79.40961 50.42531 1.221815 0
79.40961 50.47531 1.171815 0
79.50961 50.37531 1.221815 0
79.50961 50.42531 1.171815 0
79.45961 50.52531 1.071815 0
79.50961 50.52531 1.171815 0
79.35961 50.62531 1.021815 0
79.40961 50.57531 1.021815 0
79.40961 50.62531 0.9718148 0
79.50961 50.57531 0.9218147 0
79.45961 50.57531 1.021815 0
79.45961 50.62531 0.9718148 0
79.50961 50.72531 0.9218147 0
79.40961 50.57531 1.071815 0
79.40961 50.62531 1.071815 0
79.40961 50.62531 1.221815 0
79.35961 50.72531 1.171815 0
79.45961 50.62531 1.171815 0
79.50961 50.72531 1.121815 0
79.15961 50.47531 1.421815 0
79.30962 50.47531 1.271815 0
79.20961 50.47531 1.471815 0
79.15961 50.47531 1.571815 0
79.30962 50.37531 1.571815 0
79.15961 50.62531 1.321815 0
79.15961 50.72531 1.321815 0
79.15961 50.72531 1.371815 0
79.25961 50.57531 1.321815 0
79.30962 50.62531 1.321815 0
79.25961 50.67531 1.321815 0
79.25961 50.72531 1.321815 0
79.30962 50.72531 1.371815 0
79.20961 50.67531 1.471815 0
79.25961 50.62531 1.471815 0
79.25961 50.57531 1.571815 0
79.25961 50.57531 1.621815 0
79.30962 50.62531 1.621815 0
79.30962 50.72531 1.471815 0
79.25961 50.72531 1.571815 0
79.25961 50.72531 1.621815 0
79.35961 50.47531 1.321815 0
79.45961 50.42531 1.321815 0
79.45961 50.52531 1.321815 0
79.50961 50.52531 1.321815 0
79.35961 50.42531 1.471815 0
79.40961 50.47531 1.471815 0
79.35961 50.52531 1.621815 0
79.50961 50.42531 1.471815 0
79.45961 50.47531 1.621815 0
79.50961 50.47531 1.621815 0
79.50961 50.52531 1.571815 0
79.35961 50.62531 1.271815 0
79.35961 50.62531 1.321815 0
79.40961 50.57531 1.321815 0
79.35961 50.72531 1.421815 0
79.45961 50.57531 1.271815 0
79.45961 50.62531 1.371815 0
79.45961 50.62531 1.421815 0
79.50961 50.57531 1.421815 0
79.50961 50.72531 1.371815 0
79.35961 50.57531 1.471815 0
79.40961 50.62531 1.471815 0
79.35961 50.62531 1.621815 0
79.40961 50.57531 1.571815 0
79.40961 50.57531 1.621815 0
79.35961 50.67531 1.571815 0
79.45961 50.62531 1.521815 0
79.45961 50.57531 1.571815 0
79.50961 50.57531 1.621815 0
79.45961 50.72531 1.621815 0
79.20961 50.77531 0.8718147 0
79.15961 50.77531 1.021815 0
79.20961 50.77531 0.9718148 0
79.20961 50.92531 1.021815 0
79.30962 50.82531 0.9218147 0
79.25961 50.92531 0.9218147 0
79.15961 50.82531 1.071815 0
79.20961 50.77531 1.171815 0
79.20961 50.77531 1.221815 0
79.20961 50.87531 1.171815 0
79.30962 50.77531 1.171815 0
79.25961 50.92531 1.171815 0
79.30962 50.87531 1.171815 0
79.20961 51.02531 0.8718147 0
79.15961 50.97531 1.171815 0
79.15961 51.02531 1.171815 0
79.25961 51.07531 1.121815 0
79.40961 50.77531 0.9218147 0
79.40961 50.77531 1.021815 0
79.40961 50.77531 1.171815 0
79.15961 50.77531 1.321815 0
79.15961 50.82531 1.421815 0
79.20961 50.92531 1.321815 0
79.20961 50.87531 1.421815 0
79.25961 50.77531 1.421815 0
79.30962 50.82531 1.371815 0
79.25961 50.92531 1.421815 0
79.20961 50.77531 1.471815 0
79.20961 50.77531 1.521815 0
79.15961 50.82531 1.621815 0
79.20961 50.77531 1.621815 0
79.30962 50.82531 1.621815 0
79.15961 50.97531 1.421815 0
79.40961 50.77531 1.321815 0
79.35961 50.77531 1.371815 0
79.35961 50.82531 1.621815 0
79.35961 50.87531 1.621815 0
78.95961 50.32531 1.671815 0
79.30962 50.27531 1.771815 0
79.30962 50.32531 1.821815 0
78.90961 50.42531 1.771815 0
78.90961 50.62531 1.721815 0
79.00961 50.52531 1.721815 0
79.05962 50.67531 1.721815 0
78.95961 50.92531 1.671815 0
79.10961 50.77531 1.721815 0
79.10961 50.82531 1.671815 0
79.10961 50.92531 1.721815 0
79.10961 50.77531 1.871815 0
79.00961 51.12531 1.671815 0
79.15961 50.52531 1.771815 0
79.20961 50.57531 1.821815 0
79.20961 50.67531 1.721815 0
79.20961 50.72531 1.671815 0
79.20961 50.72531 1.821815 0
79.30962 50.67531 1.821815 0
79.20961 50.62531 1.871815 0
79.40961 50.37531 1.671815 0
79.40961 50.52531 1.771815 0
79.50961 50.47531 1.771815 0
79.45961 50.47531 1.971815 0
79.40961 50.62531 1.821815 0
79.35961 50.72531 1.671815 0
79.40961 50.67531 1.671815 0
79.50961 50.57531 1.821815 0
79.45961 50.67531 1.721815 0
79.35961 50.57531 1.971815 0
79.40961 50.72531 1.921815 0
79.40961 50.72531 2.021815 0
79.50961 50.62531 1.871815 0
79.45961 50.62531 2.021815 0
79.50961 50.62531 1.971815 0
79.45961 50.72531 1.871815 0
79.45961 50.67531 1.971815 0
79.50961 50.72531 1.971815 0
79.25961 50.82531 1.721815 0
79.25961 50.82531 1.771815 0
79.30962 50.87531 1.671815 0
79.30962 50.82531 1.971815 0
79.25961 50.87531 1.871815 0
79.25961 50.92531 1.921815 0
79.30962 50.87531 1.921815 0
79.15961 51.02531 1.671815 0
79.15961 50.97531 1.771815 0
79.20961 51.07531 1.871815 0
79.35961 50.77531 1.721815 0
79.35961 50.77531 1.871815 0
79.35961 50.77531 1.971815 0
79.50961 50.82531 1.871815 0
79.45961 50.77531 2.021815 0
79.50961 51.02531 1.971815 0
78.10961 51.27531 0.6218147 0
78.10961 51.32531 0.5718147 0
78.05962 51.32531 0.7218148 0
78.00961 51.42531 0.6218147 0
78.10961 51.42531 0.5218147 0
78.05962 51.47531 0.5718147 0
78.05962 51.52531 0.7218148 0
78.05962 51.52531 0.7718147 0
78.10961 51.47531 0.8218147 0
78.10961 51.52531 0.7718147 0
78.15961 51.32531 0.5218147 0
78.25961 51.32531 0.5218147 0
78.30962 51.32531 0.5218147 0
78.20961 51.17531 0.7218148 0
78.25961 51.32531 0.8218147 0
78.20961 51.42531 0.5218147 0
78.15961 51.52531 0.5218147 0
78.20961 51.52531 0.4718147 0
78.30962 51.42531 0.5218147 0
78.25961 51.47531 0.4718147 0
78.30962 51.47531 0.4718147 0
78.20961 51.37531 0.8218147 0
78.15961 51.47531 0.7718147 0
78.15961 51.52531 0.8218147 0
78.20961 51.47531 0.7718147 0
78.25961 51.42531 0.7718147 0
78.30962 51.47531 0.7718147 0
78.30962 51.52531 0.7718147 0
78.30962 51.52531 0.8218147 0
78.30962 51.67531 0.4218147 0
78.10961 51.67531 0.5218147 0
78.05962 51.67531 0.6218147 0
78.10961 51.67531 0.5718147 0
78.00961 51.67531 0.8218147 0
78.05962 51.57531 0.8218147 0
78.10961 51.92531 0.6218147 0
78.15961 51.57531 0.4718147 0
78.15961 51.57531 0.5218147 0
78.15961 51.62531 0.4718147 0
78.20961 51.62531 0.5218147 0
78.15961 51.67531 0.5218147 0
78.30962 51.57531 0.4718147 0
78.20961 51.57531 0.7218148 0
78.20961 51.67531 0.7718147 0
78.25961 51.77531 0.4718147 0
78.25961 51.87531 0.5218147 0
78.25961 51.92531 0.5218147 0
78.30962 51.87531 0.5218147 0
78.15961 51.82531 0.7218148 0
78.40961 51.27531 0.1718147 0
78.40961 51.32531 0.1718147 0
78.45961 51.17531 0.1218147 0
78.50961 51.17531 0.07181472 0
78.45961 51.17531 0.1718147 0
78.45961 51.22531 0.1718147 0
78.50961 51.27531 0.1718147 0
78.50961 51.32531 0.1718147 0
78.35961 51.42531 0.1718147 0
78.40961 51.37531 0.1718147 0
78.55962 51.22531 0.07181472 0
78.55962 51.17531 0.1718147 0
78.60961 51.22531 0.1718147 0
78.55962 51.27531 0.1718147 0
78.60961 51.27531 0.1718147 0
78.65961 51.17531 0.1718147 0
78.60961 51.37531 0.1218147 0
78.70961 51.37531 0.2218147 0
78.60961 51.37531 0.4218147 0
78.35961 51.27531 0.5218147 0
78.40961 51.32531 0.4718147 0
78.40961 51.27531 0.6218147 0
78.45961 51.17531 0.5218147 0
78.45961 51.22531 0.5218147 0
78.50961 51.17531 0.5218147 0
78.50961 51.22531 0.4718147 0
78.50961 51.27531 0.4718147 0
78.50961 51.32531 0.4718147 0
78.35961 51.42531 0.5218147 0
78.40961 51.37531 0.4718147 0
78.40961 51.37531 0.5218147 0
78.45961 51.37531 0.4718147 0
78.35961 51.42531 0.7218148 0
78.40961 51.47531 0.7218148 0
78.35961 51.47531 0.7718147 0
78.60961 51.22531 0.4718147 0
78.55962 51.27531 0.4718147 0
78.60961 51.27531 0.4718147 0
78.65961 51.17531 0.5218147 0
78.65961 51.22531 0.4718147 0
78.70961 51.17531 0.4718147 0
78.55962 51.17531 0.7718147 0
78.60961 51.17531 0.7718147 0
78.60961 51.27531 0.7218148 0
78.55962 51.27531 0.7718147 0
78.70961 51.17531 0.7218148 0
78.65961 51.17531 0.8218147 0
78.65961 51.22531 0.7718147 0
78.65961 51.22531 0.8218147 0
78.60961 51.52531 0.4718147 0
78.70961 51.37531 0.4718147 0
78.70961 51.52531 0.4718147 0
78.60961 51.42531 0.7218148 0
78.55962 51.47531 0.7218148 0
78.65961 51.37531 0.7218148 0
78.70961 51.37531 0.8218147 0
78.35961 51.62531 0.4718147 0
78.35961 51.62531 0.7718147 0
78.35961 51.62531 0.8218147 0
78.40961 51.62531 0.7718147 0
78.45961 51.57531 0.7218148 0
78.45961 51.67531 0.7718147 0
78.50961 51.67531 0.8218147 0
78.50961 51.72531 0.8218147 0
78.55962 51.62531 0.4718147 0
78.70961 51.67531 0.5218147 0
78.70961 51.57531 0.7218148 0
78.65961 51.82531 0.8218147 0
78.10961 51.32531 1.071815 0
78.10961 51.27531 1.221815 0
78.05962 51.42531 0.9718148 0
78.10961 51.47531 0.8718147 0
78.10961 51.52531 0.9218147 0
78.00961 51.42531 1.071815 0
78.00961 51.42531 1.221815 0
78.10961 51.42531 1.171815 0
78.05962 51.52531 1.121815 0
78.10961 51.52531 1.121815 0
78.10961 51.47531 1.221815 0
78.15961 51.27531 0.9718148 0
78.30962 51.22531 0.9218147 0
78.25961 51.22531 0.9718148 0
78.25961 51.32531 0.8718147 0
78.25961 51.32531 0.9218147 0
78.25961 51.17531 1.071815 0
78.30962 51.17531 1.221815 0
78.30962 51.32531 1.071815 0
78.25961 51.32531 1.221815 0
78.15961 51.37531 0.8718147 0
78.15961 51.37531 0.9218147 0
78.20961 51.52531 1.021815 0
78.30962 51.52531 0.9218147 0
78.20961 51.42531 1.071815 0
78.15961 51.37531 1.221815 0
78.15961 51.47531 1.071815 0
78.20961 51.52531 1.121815 0
78.20961 51.52531 1.171815 0
78.25961 51.42531 1.071815 0
78.30962 51.37531 1.071815 0
78.30962 51.42531 1.121815 0
78.25961 51.37531 1.171815 0
78.05962 51.32531 1.371815 0
78.10961 51.52531 1.321815 0
78.20961 51.17531 1.371815 0
78.25961 51.32531 1.321815 0
78.30962 51.32531 1.371815 0
78.15961 51.42531 1.321815 0
78.30962 51.37531 1.371815 0
78.25961 51.47531 1.421815 0
78.25961 51.52531 1.421815 0
78.05962 51.62531 0.8718147 0
78.10961 51.62531 0.9718148 0
78.00961 51.67531 1.121815 0
78.05962 51.57531 1.121815 0
78.05962 51.57531 1.171815 0
78.05962 51.67531 1.071815 0
78.05962 51.67531 1.221815 0
78.15961 51.57531 0.9218147 0
78.20961 51.67531 1.121815 0
78.15961 51.77531 0.9218147 0
78.15961 51.82531 0.9718148 0
78.15961 51.92531 1.121815 0
78.15961 51.92531 1.221815 0
78.05962 51.57531 1.271815 0
78.05962 51.57531 1.371815 0
78.15961 51.57531 1.321815 0
78.20961 51.82531 1.321815 0
78.15961 51.82531 1.371815 0
78.50961 51.32531 1.021815 0
78.35961 51.22531 1.221815 0
78.40961 51.27531 1.071815 0
78.40961 51.32531 1.071815 0
78.35961 51.27531 1.171815 0
78.45961 51.22531 1.071815 0
78.50961 51.22531 1.071815 0
78.45961 51.17531 1.221815 0
78.45961 51.22531 1.171815 0
78.50961 51.17531 1.171815 0
78.35961 51.42531 1.021815 0
78.35961 51.42531 1.171815 0
78.40961 51.52531 1.121815 0
78.50961 51.52531 1.221815 0
78.60961 51.27531 1.021815 0
78.65961 51.32531 1.021815 0
78.70961 51.27531 0.9718148 0
78.55962 51.17531 1.071815 0
78.60961 51.17531 1.071815 0
78.55962 51.27531 1.071815 0
78.55962 51.27531 1.171815 0
78.65961 51.17531 1.071815 0
78.70961 51.17531 1.121815 0
78.70961 51.32531 1.221815 0
78.60961 51.42531 0.9718148 0
78.55962 51.47531 0.9718148 0
78.65961 51.37531 0.9718148 0
78.70961 51.37531 0.9718148 0
78.60961 51.42531 1.221815 0
78.65961 51.37531 1.071815 0
78.65961 51.37531 1.221815 0
78.35961 51.22531 1.321815 0
78.40961 51.27531 1.371815 0
78.40961 51.32531 1.371815 0
78.40961 51.32531 1.421815 0
78.45961 51.17531 1.321815 0
78.45961 51.17531 1.421815 0
78.45961 51.22531 1.371815 0
78.45961 51.32531 1.271815 0
78.45961 51.32531 1.321815 0
78.50961 51.27531 1.371815 0
78.35961 51.42531 1.321815 0
78.50961 51.37531 1.471815 0
78.60961 51.22531 1.271815 0
78.55962 51.17531 1.371815 0
78.60961 51.17531 1.371815 0
78.55962 51.27531 1.371815 0
78.65961 51.17531 1.321815 0
78.65961 51.17531 1.371815 0
78.65961 51.32531 1.421815 0
78.70961 51.17531 1.471815 0
78.35961 51.62531 0.9218147 0
78.40961 51.62531 0.8718147 0
78.50961 51.57531 0.8718147 0
78.45961 51.57531 0.9718148 0
78.45961 51.67531 0.8718147 0
78.40961 51.57531 1.221815 0
78.45961 51.57531 1.221815 0
78.60961 51.57531 0.9218147 0
78.70961 51.72531 0.8718147 0
78.25961 52.32531 0.4218147 0
78.20961 51.97531 0.5718147 0
78.25961 52.32531 0.8218147 0
77.95961 52.37531 0.4218147 0
78.10961 52.37531 0.4218147 0
77.95961 52.37531 0.8218147 0
78.10961 52.37531 0.8218147 0
78.40961 52.27531 0.4218147 0
78.40961 52.27531 0.8218147 0
78.20961 52.02531 0.9218147 0
78.20961 52.02531 1.271815 0
78.30962 52.32531 1.271815 0
78.00961 52.37531 1.221815 0
78.15961 52.37531 1.271815 0
78.35961 52.12531 0.9218147 0
78.40961 52.27531 1.271815 0
78.80962 51.22531 0.1218147 0
78.75961 51.17531 0.1718147 0
78.90961 51.17531 0.1718147 0
78.85961 51.27531 0.2218147 0
78.80962 51.22531 0.4218147 0
78.75961 51.37531 0.07181472 0
78.95961 51.22531 0.07181472 0
79.00961 51.17531 0.1218147 0
78.95961 51.17531 0.2218147 0
79.00961 51.27531 0.1718147 0
79.10961 51.17531 0.1218147 0
79.10961 51.22531 0.1718147 0
79.05962 51.32531 0.07181472 0
79.10961 51.27531 0.1218147 0
79.05962 51.27531 0.1718147 0
79.10961 51.42531 0.07181472 0
78.85961 51.22531 0.4718147 0
78.90961 51.17531 0.4718147 0
78.85961 51.27531 0.4718147 0
78.75961 51.32531 0.7218148 0
78.80962 51.32531 0.7218148 0
78.80962 51.27531 0.7718147 0
78.90961 51.22531 0.7218148 0
78.85961 51.17531 0.7718147 0
78.90961 51.32531 0.7718147 0
78.75961 51.37531 0.4718147 0
78.85961 51.37531 0.4718147 0
78.90961 51.42531 0.5718147 0
78.90961 51.42531 0.7718147 0
78.95961 51.17531 0.4718147 0
78.95961 51.22531 0.7718147 0
78.75961 51.62531 0.5218147 0
79.05962 51.57531 0.7718147 0
79.15961 51.27531 0.1218147 0
79.15961 51.37531 0.1218147 0
79.15961 51.22531 0.8218147 0
79.40961 51.22531 0.5218147 0
78.80962 51.22531 0.9718148 0
78.85961 51.17531 0.9718148 0
78.80962 51.27531 1.221815 0
78.85961 51.17531 1.071815 0
78.85961 51.17531 1.221815 0
78.85961 51.22531 1.171815 0
78.75961 51.37531 1.021815 0
78.80962 51.42531 1.021815 0
78.75961 51.47531 0.9718148 0
78.95961 51.27531 0.9718148 0
79.10961 51.32531 1.021815 0
78.95961 51.17531 1.171815 0
78.95961 51.37531 1.021815 0
78.95961 51.47531 0.9218147 0
78.95961 51.52531 0.8718147 0
79.05962 51.42531 0.9218147 0
79.10961 51.42531 0.9218147 0
79.05962 51.42531 1.021815 0
79.05962 51.47531 0.8718147 0
78.85961 51.22531 1.371815 0
78.85961 51.22531 1.421815 0
78.80962 51.32531 1.471815 0
78.85961 51.17531 1.471815 0
78.75961 51.37531 1.471815 0
78.80962 51.62531 0.9218147 0
78.80962 51.67531 0.8718147 0
78.85961 51.57531 0.9218147 0
78.90961 51.57531 0.9218147 0
78.90961 51.62531 0.8718147 0
78.85961 51.57531 0.9718148 0
78.90961 51.62531 0.9718148 0
79.00961 51.72531 0.9718148 0
79.10961 51.77531 1.021815 0
79.20961 51.17531 1.021815 0
79.15961 51.32531 0.9218147 0
79.20961 51.32531 0.9218147 0
79.30962 51.22531 0.8718147 0
79.25961 51.27531 0.9218147 0
79.30962 51.27531 0.8718147 0
79.30962 51.27531 0.9218147 0
79.15961 51.42531 0.8718147 0
79.15961 51.47531 1.021815 0
79.25961 51.37531 0.8718147 0
79.35961 51.52531 1.021815 0
79.40961 51.47531 1.021815 0
79.50961 51.37531 1.021815 0
79.15961 51.72531 0.9718148 0
79.25961 51.57531 1.021815 0
78.30962 52.32531 1.671815 0
78.30962 52.32531 2.071815 0
78.00961 52.37531 1.671815 0
78.15961 52.37531 1.671815 0
78.05962 52.37531 2.071815 0
78.20961 52.37531 2.071815 0
78.45961 52.27531 1.671815 0
78.45961 52.27531 2.121815 0
79.90961 49.72531 0.5218147 0
79.90961 49.72531 0.5718147 0
79.90961 49.72531 0.6718147 0
79.90961 49.82531 0.5218147 0
79.85961 49.92531 0.4718147 0
79.90961 49.92531 0.5218147 0
79.90961 49.92531 0.5718147 0
79.85961 49.92531 0.7218148 0
79.90961 49.87531 0.7218148 0
79.90961 49.92531 0.6718147 0
79.90961 49.92531 0.7218148 0
79.90961 49.87531 0.8218147 0
79.70961 50.32531 0.4218147 0
79.80962 50.22531 0.4218147 0
79.90961 50.17531 0.4218147 0
79.60961 50.32531 0.5718147 0
79.65961 50.27531 0.4718147 0
79.70961 50.27531 0.4718147 0
79.70961 50.27531 0.5218147 0
79.60961 50.17531 0.7218148 0
79.65961 50.22531 0.6718147 0
79.65961 50.32531 0.8218147 0
79.80962 50.07531 0.4718147 0
79.90961 49.97531 0.4718147 0
79.90961 50.02531 0.4718147 0
79.85961 50.12531 0.4718147 0
79.90961 50.07531 0.5718147 0
79.80962 50.07531 0.7218148 0
79.90961 49.97531 0.7218148 0
79.85961 50.07531 0.6718147 0
79.90961 50.12531 0.8218147 0
79.80962 50.17531 0.4718147 0
79.80962 50.17531 0.5218147 0
79.75961 50.17531 0.5718147 0
79.75961 50.27531 0.4718147 0
79.75961 50.27531 0.5218147 0
79.75961 50.32531 0.5218147 0
79.80962 50.32531 0.5218147 0
79.85961 50.22531 0.5218147 0
79.90961 50.17531 0.5218147 0
79.85961 50.32531 0.4718147 0
79.90961 50.27531 0.4718147 0
79.90961 50.27531 0.5218147 0
79.80962 50.17531 0.8218147 0
79.75961 50.27531 0.8218147 0
79.90961 50.22531 0.7718147 0
79.85961 50.27531 0.7218148 0
79.90961 50.32531 0.7218148 0
79.85961 50.27531 0.7718147 0
80.25961 49.92531 0.4218147 0
80.00961 49.62531 0.5218147 0
80.00961 49.72531 0.5218147 0
80.10961 49.62531 0.5218147 0
80.05962 49.62531 0.5718147 0
80.10961 49.67531 0.5218147 0
80.10961 49.72531 0.4718147 0
80.10961 49.57531 0.6718147 0
80.10961 49.72531 0.8218147 0
80.00961 49.77531 0.4718147 0
80.00961 49.77531 0.5218147 0
79.95961 49.87531 0.4718147 0
79.95961 49.92531 0.4718147 0
80.00961 49.92531 0.4718147 0
80.05962 49.82531 0.4718147 0
80.05962 49.92531 0.4718147 0
80.10961 49.87531 0.4718147 0
80.00961 49.77531 0.8218147 0
79.95961 49.87531 0.7218148 0
80.00961 49.92531 0.7218148 0
80.05962 49.82531 0.7218148 0
80.10961 49.82531 0.6718147 0
80.05962 49.87531 0.6718147 0
80.05962 49.87531 0.7218148 0
80.10961 49.87531 0.7218148 0
80.10961 49.92531 0.6718147 0
80.15961 49.62531 0.5218147 0
80.15961 49.67531 0.4718147 0
80.20961 49.72531 0.4718147 0
80.25961 49.57531 0.5218147 0
80.25961 49.62531 0.4718147 0
80.30962 49.62531 0.4718147 0
80.25961 49.67531 0.4718147 0
80.30962 49.72531 0.4718147 0
80.15961 49.72531 0.7218148 0
80.20961 49.67531 0.7218148 0
80.20961 49.72531 0.7218148 0
80.15961 49.67531 0.8218147 0
80.30962 49.62531 0.7218148 0
80.25961 49.62531 0.8218147 0
80.25961 49.67531 0.6718147 0
80.25961 49.72531 0.6718147 0
80.25961 49.72531 0.7218148 0
80.30962 49.72531 0.7718147 0
80.15961 49.77531 0.4718147 0
80.15961 49.82531 0.4718147 0
80.20961 49.77531 0.4718147 0
80.15961 49.87531 0.4718147 0
80.15961 49.92531 0.5218147 0
80.20961 49.92531 0.5218147 0
80.25961 49.77531 0.4718147 0
80.30962 49.82531 0.5218147 0
80.25961 49.87531 0.4718147 0
80.25961 49.87531 0.5218147 0
80.15961 49.82531 0.6718147 0
80.15961 49.82531 0.7218148 0
80.20961 49.77531 0.6718147 0
80.15961 49.82531 0.7718147 0
80.20961 49.87531 0.6718147 0
80.25961 49.77531 0.7218148 0
80.30962 49.77531 0.6718147 0
80.25961 49.87531 0.6718147 0
80.25961 49.92531 0.7218148 0
79.95961 50.07531 0.4218147 0
80.00961 50.12531 0.4218147 0
80.05962 50.07531 0.4218147 0
80.10961 50.12531 0.4218147 0
80.10961 50.22531 0.4218147 0
80.20961 50.17531 0.4218147 0
80.15961 50.27531 0.4218147 0
80.25961 50.22531 0.4218147 0
80.30962 50.32531 0.4218147 0
79.95961 50.02531 0.4718147 0
79.95961 50.02531 0.5218147 0
80.00961 49.97531 0.5218147 0
80.00961 50.02531 0.5218147 0
79.95961 50.07531 0.5218147 0
79.95961 50.12531 0.5218147 0
80.00961 50.07531 0.5218147 0
80.05962 50.02531 0.5218147 0
79.95961 49.97531 0.6718147 0
79.95961 49.97531 0.7218148 0
79.95961 49.97531 0.7718147 0
79.95961 50.07531 0.6718147 0
79.95961 50.12531 0.7718147 0
80.00961 50.07531 0.8218147 0
80.10961 49.97531 0.6718147 0
80.10961 50.12531 0.7218148 0
79.95961 50.17531 0.5218147 0
79.95961 50.22531 0.4718147 0
79.95961 50.22531 0.5218147 0
80.05962 50.17531 0.4718147 0
80.10961 50.17531 0.4718147 0
79.95961 50.27531 0.7218148 0
80.00961 50.32531 0.6718147 0
80.05962 50.17531 0.7218148 0
80.10961 50.27531 0.6718147 0
80.15961 50.07531 0.4718147 0
80.20961 50.07531 0.4718147 0
80.20961 50.02531 0.7218148 0
80.20961 49.97531 0.8218147 0
80.25961 49.97531 0.7218148 0
80.30962 50.17531 0.4718147 0
79.90961 49.72531 1.021815 0
79.90961 49.72531 1.121815 0
79.90961 49.77531 0.9218147 0
79.90961 49.82531 0.8718147 0
79.90961 49.82531 1.221815 0
79.90961 49.87531 1.121815 0
79.90961 49.72531 1.471815 0
79.90961 49.77531 1.321815 0
79.90961 49.92531 1.271815 0
79.90961 49.82531 1.471815 0
79.90961 49.82531 1.621815 0
79.90961 49.87531 1.571815 0
79.70961 50.12531 1.021815 0
79.60961 50.22531 1.021815 0
79.55962 50.32531 0.9218147 0
79.60961 50.32531 0.8718147 0
79.65961 50.22531 0.9218147 0
79.70961 50.22531 0.8718147 0
79.65961 50.17531 1.121815 0
79.65961 50.32531 1.171815 0
79.80962 50.07531 1.021815 0
79.85961 49.97531 1.021815 0
79.85961 50.02531 1.021815 0
79.90961 49.97531 0.9718148 0
79.90961 50.02531 0.9718148 0
79.85961 50.07531 0.9218147 0
79.90961 50.12531 0.8718147 0
79.80962 50.02531 1.121815 0
79.90961 49.97531 1.221815 0
79.90961 50.02531 1.221815 0
79.90961 50.12531 1.171815 0
79.75961 50.17531 0.9218147 0
79.80962 50.17531 0.8718147 0
79.80962 50.32531 0.9218147 0
79.80962 50.27531 1.021815 0
79.80962 50.32531 0.9718148 0
79.90961 50.22531 1.021815 0
79.85961 50.27531 0.9718148 0
79.85961 50.27531 1.021815 0
79.80962 50.17531 1.171815 0
79.75961 50.27531 1.171815 0
79.80962 50.32531 1.171815 0
79.85961 50.27531 1.171815 0
79.70961 50.12531 1.471815 0
79.60961 50.22531 1.271815 0
79.55962 50.17531 1.421815 0
79.55962 50.32531 1.321815 0
79.60961 50.32531 1.271815 0
79.70961 50.22531 1.271815 0
79.65961 50.27531 1.321815 0
79.60961 50.22531 1.471815 0
79.60961 50.32531 1.621815 0
79.65961 50.32531 1.471815 0
79.70961 50.27531 1.621815 0
79.70961 50.32531 1.571815 0
79.80962 50.07531 1.271815 0
79.85961 49.97531 1.321815 0
79.85961 50.07531 1.321815 0
79.90961 50.12531 1.271815 0
79.80962 50.07531 1.571815 0
79.85961 50.02531 1.471815 0
79.90961 49.97531 1.471815 0
79.90961 49.97531 1.521815 0
79.85961 49.97531 1.571815 0
79.90961 50.12531 1.471815 0
79.90961 50.12531 1.621815 0
79.75961 50.17531 1.321815 0
79.80962 50.17531 1.271815 0
79.80962 50.27531 1.321815 0
79.75961 50.32531 1.421815 0
79.80962 50.32531 1.421815 0
79.90961 50.17531 1.321815 0
79.90961 50.22531 1.371815 0
79.85961 50.27531 1.271815 0
79.85961 50.27531 1.421815 0
79.75961 50.22531 1.471815 0
79.80962 50.17531 1.471815 0
79.80962 50.17531 1.621815 0
79.80962 50.27531 1.621815 0
79.80962 50.32531 1.621815 0
79.90961 50.17531 1.621815 0
79.90961 50.22531 1.621815 0
79.85961 50.27531 1.571815 0
79.85961 50.27531 1.621815 0
80.00961 49.62531 1.021815 0
80.00961 49.72531 0.9218147 0
80.10961 49.62531 0.9218147 0
80.10961 49.67531 0.8718147 0
80.05962 49.62531 1.121815 0
80.10961 49.72531 1.121815 0
80.10961 49.67531 1.221815 0
