# .PCD v0.7 - Point Cloud Data file format
VERSION 0.7
FIELDS x y z intensity
SIZE 4 4 4 4
TYPE F F F F
COUNT 1 1 1 1
WIDTH 1539
HEIGHT 1
VIEWPOINT 0 0 0 1 0 0 0
POINTS 1539
DATA ascii
23.45961 -49.77469 0.07181472 0
24.95961 -57.87469 0.07181472 0
25.00961 -57.42469 0.07181472 0
25.05961 -57.37469 0.1218147 0
23.55961 -56.22469 1.721815 0
25.15961 -57.37469 0.07181472 0
25.20961 -57.37469 0.1218147 0
25.30961 -57.42469 0.07181472 0
25.30961 -57.37469 0.1218147 0
25.25961 -56.67469 0.9718148 0
25.15961 -56.47469 1.371815 0
25.35961 -56.82469 1.421815 0
23.55961 -55.07469 1.621815 0
23.60961 -55.07469 1.621815 0
23.65961 -55.07469 1.521815 0
23.70961 -55.07469 1.621815 0
23.55961 -55.02469 1.371815 0
23.70961 -55.02469 1.371815 0
23.80961 -55.07469 1.621815 0
23.85961 -55.07469 1.521815 0
23.90961 -55.07469 1.621815 0
23.85961 -55.02469 1.371815 0
23.80961 -55.02469 1.621815 0
23.90961 -55.02469 1.621815 0
23.95961 -55.07469 1.621815 0
24.05961 -55.07469 1.571815 0
24.05961 -55.07469 1.621815 0
24.05961 -55.02469 1.421815 0
24.20961 -55.07469 1.421815 0
24.15961 -55.07469 1.621815 0
24.25961 -55.07469 1.571815 0
24.25961 -55.07469 1.621815 0
24.35961 -55.07469 1.621815 0
24.45961 -55.07469 1.621815 0
24.50961 -55.07469 1.571815 0
24.50961 -55.07469 1.621815 0
24.60961 -55.07469 1.621815 0
24.70961 -55.12469 1.621815 0
24.70961 -55.07469 1.621815 0
24.75961 -55.12469 1.571815 0
24.80961 -55.12469 1.621815 0
24.85961 -55.12469 1.621815 0
24.90961 -55.12469 1.621815 0
24.95961 -55.12469 1.621815 0
25.05961 -55.12469 1.621815 0
23.55961 -55.97469 1.671815 0
23.55961 -55.72469 1.671815 0
23.65961 -55.77469 1.771815 0
23.55961 -55.47469 1.671815 0
23.55961 -55.27469 1.671815 0
23.60961 -55.32469 1.721815 0
23.65961 -55.12469 1.671815 0
23.65961 -55.07469 1.721815 0
23.80961 -55.12469 1.721815 0
23.90961 -55.12469 1.671815 0
23.90961 -55.07469 1.721815 0
24.05961 -55.12469 1.721815 0
24.15961 -55.12469 1.671815 0
24.20961 -55.07469 1.671815 0
24.20961 -55.07469 1.721815 0
24.30961 -55.07469 1.671815 0
24.40961 -55.07469 1.671815 0
24.35961 -55.07469 1.771815 0
24.45961 -55.12469 1.721815 0
24.50961 -55.12469 1.771815 0
24.55961 -55.07469 1.671815 0
24.65961 -55.17469 1.771815 0
24.65961 -55.12469 1.671815 0
24.80961 -55.12469 1.671815 0
24.85961 -55.22469 1.771815 0
24.95961 -55.12469 1.671815 0
23.60961 -53.82469 0.1718147 0
23.55961 -53.72469 0.07181472 0
23.60961 -53.72469 0.1218147 0
23.55961 -53.72469 0.1718147 0
23.55961 -53.67469 0.1718147 0
23.55961 -52.87469 0.4718147 0
23.60961 -52.87469 0.4718147 0
23.60961 -52.92469 0.5718147 0
23.65961 -52.92469 0.4718147 0
23.65961 -52.87469 0.4718147 0
23.70961 -52.92469 0.5218147 0
23.55961 -52.97469 0.7718147 0
23.60961 -52.97469 0.7718147 0
23.60961 -52.97469 0.8218147 0
23.65961 -52.97469 0.7718147 0
23.70961 -52.97469 0.7718147 0
23.70961 -52.97469 0.8218147 0
23.75961 -52.92469 0.5218147 0
23.75961 -52.87469 0.4718147 0
23.80961 -52.92469 0.4718147 0
23.85961 -52.87469 0.4718147 0
23.90961 -52.92469 0.4718147 0
23.90961 -52.92469 0.5218147 0
23.90961 -52.87469 0.4718147 0
23.75961 -52.97469 0.7718147 0
23.80961 -52.97469 0.8218147 0
23.85961 -52.97469 0.7718147 0
23.95961 -52.92469 0.4718147 0
24.00961 -52.92469 0.4718147 0
23.95961 -52.92469 0.5718147 0
24.05961 -52.92469 0.4718147 0
24.10961 -52.92469 0.5218147 0
24.05961 -52.92469 0.5718147 0
23.95961 -52.97469 0.7718147 0
23.95961 -52.97469 0.8218147 0
24.05961 -52.97469 0.7718147 0
24.05961 -52.97469 0.8218147 0
24.15961 -52.92469 0.4718147 0
24.20961 -52.92469 0.4718147 0
24.30961 -52.97469 0.5718147 0
24.25961 -52.92469 0.4718147 0
24.30961 -52.92469 0.4718147 0
24.15961 -52.97469 0.7718147 0
24.20961 -52.97469 0.8218147 0
24.25961 -52.97469 0.7718147 0
24.30961 -52.97469 0.7718147 0
24.30961 -52.97469 0.8218147 0
23.55961 -52.97469 0.8718147 0
23.60961 -52.97469 0.9718148 0
23.60961 -52.97469 1.021815 0
23.70961 -52.97469 0.8718147 0
23.55961 -52.97469 1.071815 0
23.60961 -52.97469 1.071815 0
23.55961 -52.97469 1.171815 0
23.60961 -52.97469 1.221815 0
23.65961 -52.97469 1.071815 0
23.70961 -52.97469 1.171815 0
23.70961 -52.92469 1.071815 0
23.75961 -52.97469 0.9718148 0
23.90961 -52.97469 0.8718147 0
23.75961 -53.02469 1.121815 0
23.75961 -52.97469 1.071815 0
23.80961 -52.97469 1.171815 0
23.85961 -52.97469 1.071815 0
23.90961 -53.02469 1.071815 0
23.90961 -53.02469 1.221815 0
23.85961 -52.92469 1.071815 0
23.75961 -52.97469 1.271815 0
23.90961 -52.97469 1.271815 0
24.00961 -52.97469 0.9718148 0
24.05961 -53.02469 0.8718147 0
23.95961 -52.97469 1.071815 0
23.95961 -52.97469 1.171815 0
24.05961 -52.97469 1.071815 0
24.05961 -52.97469 1.171815 0
24.10961 -53.02469 1.171815 0
24.20961 -53.02469 0.8718147 0
24.20961 -53.02469 0.9718148 0
24.15961 -52.97469 1.071815 0
24.20961 -53.02469 1.071815 0
24.20961 -52.97469 1.171815 0
24.25961 -52.97469 1.071815 0
24.25961 -52.97469 1.121815 0
24.30961 -52.97469 1.071815 0
24.30961 -52.97469 1.171815 0
24.05961 -52.97469 1.271815 0
24.20961 -53.02469 1.271815 0
25.10961 -54.42469 0.07181472 0
25.10961 -54.22469 0.07181472 0
25.10961 -54.22469 0.1218147 0
25.10961 -54.02469 0.07181472 0
25.10961 -54.02469 0.1218147 0
25.10961 -53.77469 0.1218147 0
24.35961 -52.97469 0.5718147 0
24.35961 -52.92469 0.4718147 0
24.35961 -52.92469 0.5218147 0
24.40961 -52.92469 0.4718147 0
24.45961 -52.92469 0.4718147 0
24.50961 -52.92469 0.4718147 0
24.35961 -52.97469 0.7718147 0
24.40961 -52.97469 0.7718147 0
24.45961 -53.02469 0.8218147 0
24.45961 -52.97469 0.7718147 0
24.50961 -53.02469 0.7718147 0
24.55961 -52.92469 0.4718147 0
24.55961 -52.92469 0.5218147 0
24.60961 -52.92469 0.4718147 0
24.65961 -52.97469 0.5718147 0
24.70961 -52.97469 0.5718147 0
24.65961 -52.92469 0.4718147 0
24.70961 -52.92469 0.4718147 0
24.60961 -52.97469 0.7718147 0
24.60961 -52.97469 0.8218147 0
24.65961 -53.02469 0.7718147 0
24.70961 -52.97469 0.7718147 0
24.70961 -52.97469 0.8218147 0
24.75961 -52.92469 0.4718147 0
24.80961 -52.92469 0.4718147 0
24.80961 -52.92469 0.5218147 0
24.85961 -52.97469 0.4718147 0
24.85961 -52.92469 0.4718147 0
24.75961 -53.02469 0.7718147 0
24.80961 -53.02469 0.7718147 0
24.85961 -53.02469 0.7718147 0
24.85961 -52.97469 0.7718147 0
24.90961 -53.02469 0.8218147 0
24.95961 -52.97469 0.5718147 0
24.95961 -52.92469 0.4718147 0
25.05961 -52.97469 0.4718147 0
25.05961 -52.97469 0.5218147 0
25.10961 -52.97469 0.4718147 0
25.05961 -52.92469 0.4718147 0
25.10961 -52.92469 0.4718147 0
24.95961 -53.02469 0.7718147 0
24.95961 -52.97469 0.7718147 0
25.00961 -53.02469 0.8218147 0
25.05961 -53.02469 0.7718147 0
25.10961 -53.02469 0.7718147 0
25.10961 -53.02469 0.8218147 0
24.45961 -53.07469 1.071815 0
24.40961 -53.02469 0.8718147 0
24.45961 -53.02469 0.9718148 0
24.35961 -52.97469 1.121815 0
24.40961 -52.97469 1.071815 0
24.45961 -52.97469 1.071815 0
24.45961 -52.97469 1.121815 0
24.50961 -52.97469 1.071815 0
24.45961 -53.02469 1.171815 0
24.45961 -52.97469 1.171815 0
24.55961 -53.02469 0.8718147 0
24.65961 -53.02469 1.021815 0
24.60961 -53.02469 1.121815 0
24.60961 -52.97469 1.071815 0
24.60961 -52.97469 1.171815 0
24.65961 -52.97469 1.071815 0
24.70961 -53.02469 1.121815 0
24.40961 -53.07469 1.271815 0
24.40961 -53.02469 1.271815 0
24.75961 -53.07469 1.071815 0
24.85961 -53.07469 1.171815 0
24.75961 -53.02469 0.9218147 0
24.85961 -53.02469 0.8718147 0
24.90961 -53.02469 0.9218147 0
24.90961 -53.02469 1.021815 0
24.75961 -53.02469 1.071815 0
24.75961 -52.97469 1.071815 0
24.80961 -53.02469 1.121815 0
24.75961 -53.02469 1.221815 0
24.85961 -53.02469 1.071815 0
24.90961 -53.02469 1.121815 0
24.85961 -53.02469 1.221815 0
25.00961 -53.02469 0.8718147 0
25.10961 -53.02469 0.9218147 0
24.95961 -53.02469 1.071815 0
25.00961 -53.02469 1.121815 0
25.00961 -53.02469 1.221815 0
25.05961 -53.02469 1.071815 0
25.10961 -53.02469 1.071815 0
25.10961 -53.02469 1.121815 0
25.30961 -55.32469 0.9218147 0
25.45961 -54.27469 0.5218147 0
25.15961 -54.02469 0.1218147 0
25.15961 -53.92469 0.1718147 0
25.15961 -53.82469 0.07181472 0
25.15961 -53.82469 0.1218147 0
25.20961 -53.77469 0.1718147 0
25.25961 -53.77469 0.1218147 0
25.30961 -53.82469 0.07181472 0
25.25961 -53.77469 0.1718147 0
25.30961 -53.77469 0.1718147 0
25.35961 -53.77469 0.1218147 0
25.40961 -53.82469 0.1218147 0
25.35961 -53.77469 0.1718147 0
25.45961 -53.77469 0.1718147 0
25.45961 -53.77469 0.5218147 0
25.40961 -54.32469 0.8718147 0
25.20961 -52.97469 0.4718147 0
25.15961 -52.92469 0.4718147 0
25.20961 -52.92469 0.4718147 0
25.25961 -52.97469 0.4718147 0
25.30961 -52.97469 0.4718147 0
25.25961 -52.92469 0.4718147 0
25.15961 -53.02469 0.7718147 0
25.25961 -53.02469 0.7718147 0
25.25961 -53.02469 0.8218147 0
25.35961 -53.07469 0.8218147 0
25.40961 -53.07469 0.7718147 0
25.35961 -52.97469 0.4718147 0
25.40961 -52.97469 0.4718147 0
25.45961 -52.97469 0.4718147 0
25.35961 -53.02469 0.7718147 0
25.15961 -53.02469 0.8718147 0
25.15961 -53.02469 1.021815 0
25.30961 -53.02469 0.8718147 0
25.30961 -53.02469 0.9218147 0
25.15961 -53.02469 1.071815 0
25.15961 -53.02469 1.221815 0
25.25961 -53.02469 1.071815 0
25.25961 -53.02469 1.121815 0
25.30961 -53.02469 1.221815 0
25.35961 -53.02469 1.071815 0
26.55961 -52.87469 0.1218147 0
23.55961 -51.47469 0.1218147 0
23.65961 -51.37469 0.1218147 0
23.70961 -51.27469 0.1218147 0
24.55961 -52.82469 0.07181472 0
24.65961 -52.72469 0.07181472 0
24.75961 -52.67469 0.07181472 0
24.85961 -52.57469 0.07181472 0
24.90961 -52.47469 0.07181472 0
25.00961 -52.42469 0.07181472 0
25.10961 -52.32469 0.07181472 0
23.80961 -51.17469 0.1218147 0
23.90961 -51.07469 0.1218147 0
23.95961 -50.97469 0.1218147 0
24.00961 -50.87469 0.1218147 0
24.10961 -50.77469 0.1218147 0
24.15961 -50.67469 0.1218147 0
24.25961 -50.57469 0.1218147 0
24.30961 -50.47469 0.1218147 0
23.55961 -49.77469 0.07181472 0
23.65961 -49.82469 0.07181472 0
23.65961 -49.77469 0.07181472 0
23.75961 -49.77469 0.07181472 0
23.85961 -49.77469 0.07181472 0
24.00961 -49.87469 0.07181472 0
23.95961 -49.77469 0.07181472 0
24.05961 -49.77469 0.07181472 0
24.15961 -49.82469 0.07181472 0
24.20961 -49.82469 0.07181472 0
24.25961 -49.82469 0.07181472 0
24.30961 -49.82469 0.07181472 0
24.35961 -50.37469 0.1218147 0
24.45961 -50.27469 0.1218147 0
24.50961 -50.17469 0.1218147 0
24.55961 -50.07469 0.1218147 0
24.35961 -49.87469 0.07181472 0
24.35961 -49.82469 0.07181472 0
24.40961 -49.82469 0.07181472 0
24.45961 -49.82469 0.07181472 0
24.50961 -49.82469 0.07181472 0
24.65961 -49.97469 0.1218147 0
24.70961 -49.87469 0.1218147 0
24.55961 -49.82469 0.07181472 0
24.60961 -49.82469 0.07181472 0
24.65961 -49.82469 0.07181472 0
24.70961 -49.82469 0.07181472 0
24.75961 -49.87469 0.07181472 0
24.75961 -49.82469 0.07181472 0
24.80961 -49.82469 0.07181472 0
24.85961 -49.82469 0.07181472 0
24.90961 -49.82469 0.07181472 0
24.95961 -49.87469 0.07181472 0
25.00961 -49.87469 0.1218147 0
24.95961 -49.82469 0.07181472 0
25.00961 -49.82469 0.07181472 0
25.05961 -49.82469 0.07181472 0
25.10961 -49.82469 0.07181472 0
25.15961 -52.22469 0.07181472 0
25.25961 -52.12469 0.07181472 0
25.35961 -52.07469 0.07181472 0
25.45961 -51.97469 0.07181472 0
25.50961 -51.87469 0.07181472 0
25.60961 -51.77469 0.07181472 0
25.65961 -51.67469 0.07181472 0
25.75961 -51.57469 0.07181472 0
25.85961 -51.52469 0.07181472 0
25.90961 -51.42469 0.07181472 0
26.65961 -52.82469 0.1218147 0
26.00961 -51.32469 0.07181472 0
25.15961 -49.87469 0.07181472 0
25.20961 -49.92469 0.07181472 0
25.20961 -49.87469 0.07181472 0
25.25961 -49.87469 0.07181472 0
25.30961 -49.87469 0.07181472 0
25.30961 -49.87469 0.1218147 0
25.15961 -49.82469 0.07181472 0
25.40961 -49.87469 0.07181472 0
25.45961 -49.87469 0.07181472 0
25.50961 -49.87469 0.07181472 0
25.60961 -49.87469 0.07181472 0
25.65961 -49.87469 0.07181472 0
25.75961 -49.87469 0.07181472 0
25.80961 -49.87469 0.07181472 0
25.90961 -49.87469 0.07181472 0
26.05961 -51.22469 0.07181472 0
26.10961 -51.12469 0.07181472 0
26.20961 -51.02469 0.07181472 0
26.30961 -50.92469 0.07181472 0
26.35961 -50.82469 0.07181472 0
26.40961 -50.72469 0.07181472 0
26.50961 -50.62469 0.07181472 0
26.55961 -50.52469 0.07181472 0
26.00961 -49.87469 0.07181472 0
26.10961 -49.87469 0.07181472 0
26.15961 -49.92469 0.07181472 0
26.30961 -49.92469 0.07181472 0
26.65961 -50.42469 0.07181472 0
26.70961 -50.32469 0.07181472 0
26.35961 -49.92469 0.07181472 0
26.40961 -49.92469 0.07181472 0
26.45961 -49.92469 0.07181472 0
26.45961 -49.87469 0.07181472 0
26.50961 -49.92469 0.07181472 0
26.55961 -49.92469 0.07181472 0
26.55961 -49.87469 0.07181472 0
26.60961 -49.92469 0.07181472 0
26.70961 -49.92469 0.07181472 0
28.75961 -52.92469 0.1218147 0
28.85961 -52.87469 0.1218147 0
26.75961 -52.77469 0.1218147 0
26.80961 -52.67469 0.1218147 0
26.90961 -52.57469 0.1218147 0
27.00961 -52.52469 0.1218147 0
27.10961 -52.42469 0.1218147 0
27.20961 -52.32469 0.1218147 0
27.25961 -52.27469 0.1218147 0
27.35961 -52.17469 0.1218147 0
27.45961 -52.07469 0.1218147 0
27.55961 -52.02469 0.1218147 0
27.60961 -51.92469 0.1218147 0
27.70961 -51.82469 0.1218147 0
27.75961 -51.72469 0.1218147 0
27.85961 -51.62469 0.1218147 0
27.95961 -51.57469 0.1218147 0
28.00961 -51.47469 0.1218147 0
28.10961 -51.37469 0.1218147 0
28.15961 -51.27469 0.1218147 0
26.80961 -50.22469 0.07181472 0
26.80961 -50.07469 0.07181472 0
26.75961 -49.92469 0.07181472 0
26.80961 -49.92469 0.07181472 0
26.90961 -49.97469 0.07181472 0
26.85961 -49.92469 0.07181472 0
26.90961 -49.92469 0.07181472 0
27.00961 -49.92469 0.07181472 0
27.10961 -49.97469 0.07181472 0
27.10961 -49.92469 0.07181472 0
27.15961 -49.97469 0.07181472 0
27.15961 -49.92469 0.07181472 0
27.25961 -49.92469 0.07181472 0
27.30961 -49.92469 0.07181472 0
27.40961 -49.97469 0.07181472 0
27.40961 -49.92469 0.07181472 0
27.50961 -49.97469 0.07181472 0
28.25961 -51.17469 0.1218147 0
28.30961 -51.07469 0.1218147 0
27.60961 -49.97469 0.07181472 0
27.70961 -49.97469 0.07181472 0
27.65961 -49.92469 0.07181472 0
27.80961 -49.97469 0.07181472 0
27.75961 -49.92469 0.07181472 0
27.90961 -49.97469 0.07181472 0
28.00961 -49.97469 0.07181472 0
28.05961 -49.97469 0.07181472 0
28.15961 -49.97469 0.07181472 0
28.20961 -49.97469 0.07181472 0
28.30961 -49.97469 0.07181472 0
28.95961 -52.77469 0.1218147 0
29.05961 -52.72469 0.1218147 0
29.10961 -52.62469 0.1218147 0
29.20961 -52.52469 0.1218147 0
29.30961 -52.47469 0.1218147 0
29.40961 -52.37469 0.1218147 0
29.50961 -52.32469 0.1218147 0
29.55961 -52.22469 0.1218147 0
29.65961 -52.12469 0.1218147 0
29.70961 -52.02469 0.1218147 0
29.80961 -51.97469 0.1218147 0
29.90961 -51.87469 0.1218147 0
28.40961 -50.97469 0.1218147 0
28.45961 -50.87469 0.1218147 0
28.55961 -50.77469 0.1218147 0
28.60961 -50.67469 0.1218147 0
28.70961 -50.57469 0.1218147 0
28.75961 -50.47469 0.1218147 0
28.40961 -50.02469 0.07181472 0
28.40961 -49.97469 0.07181472 0
28.45961 -49.97469 0.07181472 0
28.50961 -49.97469 0.07181472 0
28.55961 -50.02469 0.07181472 0
28.60961 -49.97469 0.07181472 0
28.65961 -50.02469 0.07181472 0
28.70961 -49.97469 0.07181472 0
28.80961 -50.37469 0.1218147 0
28.90961 -50.27469 0.1218147 0
28.95961 -50.17469 0.1218147 0
29.05961 -50.07469 0.1218147 0
28.75961 -50.02469 0.07181472 0
28.80961 -49.97469 0.07181472 0
28.85961 -50.02469 0.07181472 0
28.95961 -50.02469 0.07181472 0
29.05961 -50.02469 0.07181472 0
29.10961 -50.02469 0.07181472 0
29.45961 -50.07469 0.07181472 0
29.15961 -50.02469 0.07181472 0
29.15961 -50.02469 0.1218147 0
29.20961 -50.02469 0.07181472 0
29.25961 -50.02469 0.07181472 0
29.30961 -50.02469 0.07181472 0
29.35961 -50.02469 0.07181472 0
29.45961 -50.02469 0.1218147 0
29.80961 -50.07469 0.07181472 0
29.85961 -50.07469 0.07181472 0
29.55961 -50.02469 0.07181472 0
29.65961 -50.02469 0.07181472 0
29.75961 -50.02469 0.07181472 0
31.00961 -52.97469 0.1218147 0
31.10961 -52.92469 0.1218147 0
30.00961 -51.77469 0.1218147 0
30.05961 -51.67469 0.1218147 0
30.15961 -51.57469 0.1218147 0
30.20961 -51.52469 0.1218147 0
30.30961 -51.42469 0.1218147 0
30.40961 -51.32469 0.1218147 0
31.20961 -52.82469 0.1218147 0
31.30961 -52.77469 0.1218147 0
31.35961 -52.67469 0.1218147 0
31.45961 -52.57469 0.1218147 0
30.45961 -51.22469 0.1218147 0
30.55961 -51.12469 0.1218147 0
30.60961 -51.02469 0.1218147 0
30.70961 -50.92469 0.1218147 0
29.95961 -50.07469 0.07181472 0
30.05961 -50.07469 0.07181472 0
30.15961 -50.07469 0.07181472 0
30.20961 -50.07469 0.07181472 0
30.25961 -50.07469 0.07181472 0
30.10961 -50.02469 0.07181472 0
30.35961 -50.07469 0.07181472 0
30.45961 -50.07469 0.07181472 0
30.55961 -50.07469 0.07181472 0
30.60961 -50.07469 0.07181472 0
30.65961 -50.07469 0.07181472 0
30.70961 -50.07469 0.07181472 0
30.75961 -50.82469 0.1218147 0
30.85961 -50.72469 0.1218147 0
30.90961 -50.62469 0.1218147 0
30.95961 -50.52469 0.1218147 0
30.75961 -50.12469 0.07181472 0
30.80961 -50.07469 0.07181472 0
30.85961 -50.07469 0.07181472 0
30.90961 -50.07469 0.07181472 0
31.05961 -50.42469 0.1218147 0
31.10961 -50.32469 0.1218147 0
30.95961 -50.07469 0.07181472 0
31.05961 -50.12469 0.07181472 0
31.10961 -50.07469 0.07181472 0
31.15961 -50.22469 0.1218147 0
31.15961 -50.12469 0.07181472 0
31.15961 -50.07469 0.07181472 0
31.20961 -50.12469 0.07181472 0
31.25961 -50.12469 0.07181472 0
31.25961 -50.12469 0.1218147 0
31.30961 -50.12469 0.07181472 0
31.35961 -50.12469 0.07181472 0
31.45961 -50.12469 0.07181472 0
31.45961 -50.12469 0.1218147 0
31.50961 -50.12469 0.07181472 0
31.55961 -52.52469 0.1218147 0
31.65961 -52.42469 0.1218147 0
31.70961 -52.32469 0.1218147 0
31.80961 -52.22469 0.1218147 0
31.90961 -52.12469 0.1218147 0
31.95961 -52.02469 0.1218147 0
32.05961 -51.97469 0.1218147 0
32.15961 -51.87469 0.1218147 0
32.20961 -51.77469 0.1218147 0
32.30961 -51.72469 0.1218147 0
32.35961 -51.57469 0.1218147 0
32.45961 -51.52469 0.1218147 0
32.55961 -51.42469 0.1218147 0
32.60961 -51.32469 0.1218147 0
31.55961 -50.12469 0.07181472 0
31.60961 -50.12469 0.07181472 0
31.65961 -50.12469 0.07181472 0
31.70961 -50.12469 0.07181472 0
31.75961 -50.12469 0.07181472 0
31.75961 -50.12469 0.1218147 0
31.80961 -50.12469 0.07181472 0
31.90961 -50.12469 0.07181472 0
32.00961 -50.12469 0.07181472 0
32.05961 -50.12469 0.1218147 0
32.10961 -50.12469 0.07181472 0
32.20961 -50.12469 0.07181472 0
32.30961 -50.12469 0.07181472 0
32.70961 -51.22469 0.1218147 0
32.75961 -51.12469 0.1218147 0
32.85961 -51.02469 0.1218147 0
32.90961 -50.92469 0.1218147 0
32.95961 -50.82469 0.1218147 0
33.05961 -50.72469 0.1218147 0
33.10961 -50.62469 0.1218147 0
32.35961 -50.12469 0.07181472 0
32.40961 -50.12469 0.07181472 0
32.45961 -50.12469 0.07181472 0
32.50961 -50.12469 0.07181472 0
32.60961 -50.17469 0.07181472 0
32.70961 -50.17469 0.07181472 0
32.80961 -50.17469 0.07181472 0
32.90961 -50.17469 0.07181472 0
32.95961 -50.17469 0.07181472 0
33.00961 -50.17469 0.07181472 0
33.05961 -50.17469 0.07181472 0
33.10961 -50.17469 0.07181472 0
33.25961 -53.12469 0.1218147 0
33.40961 -53.02469 0.1218147 0
33.50961 -52.97469 0.1218147 0
33.55961 -52.87469 0.1218147 0
35.60961 -53.22469 0.1218147 0
35.65961 -53.17469 0.1218147 0
35.75961 -53.07469 0.1218147 0
35.85961 -53.02469 0.1218147 0
35.95961 -52.92469 0.1218147 0
33.65961 -52.77469 0.1218147 0
33.75961 -52.72469 0.1218147 0
33.85961 -52.62469 0.1218147 0
33.90961 -52.52469 0.1218147 0
34.00961 -52.47469 0.1218147 0
34.10961 -52.32469 0.1218147 0
34.20961 -52.27469 0.1218147 0
34.25961 -52.17469 0.1218147 0
34.35961 -52.07469 0.1218147 0
34.45961 -51.97469 0.1218147 0
34.50961 -51.92469 0.1218147 0
34.60961 -51.82469 0.1218147 0
34.65961 -51.72469 0.1218147 0
33.15961 -50.47469 0.1218147 0
33.25961 -50.37469 0.1218147 0
33.30961 -50.27469 0.1218147 0
33.20961 -50.17469 0.07181472 0
33.25961 -50.17469 0.07181472 0
33.30961 -50.17469 0.07181472 0
33.35961 -50.17469 0.07181472 0
33.35961 -50.17469 0.1218147 0
33.40961 -50.17469 0.07181472 0
33.45961 -50.17469 0.07181472 0
33.50961 -50.17469 0.07181472 0
33.60961 -50.17469 0.1218147 0
33.65961 -50.22469 0.07181472 0
33.70961 -50.22469 0.07181472 0
33.75961 -50.22469 0.07181472 0
33.85961 -50.22469 0.07181472 0
33.85961 -50.17469 0.07181472 0
33.90961 -50.22469 0.07181472 0
33.90961 -50.17469 0.1218147 0
33.95961 -50.22469 0.07181472 0
34.00961 -50.22469 0.07181472 0
34.05961 -50.22469 0.07181472 0
34.10961 -50.22469 0.07181472 0
34.15961 -50.22469 0.07181472 0
34.20961 -50.17469 0.1218147 0
34.25961 -50.22469 0.07181472 0
34.35961 -50.22469 0.07181472 0
34.45961 -50.22469 0.07181472 0
34.65961 -50.27469 0.07181472 0
34.55961 -50.22469 0.07181472 0
34.55961 -50.22469 0.1218147 0
34.65961 -50.22469 0.07181472 0
34.70961 -50.22469 0.07181472 0
34.75961 -51.62469 0.1218147 0
34.80961 -51.52469 0.1218147 0
34.90961 -51.42469 0.1218147 0
35.00961 -51.32469 0.1218147 0
36.05961 -52.82469 0.1218147 0
36.15961 -52.77469 0.1218147 0
36.20961 -52.67469 0.1218147 0
35.05961 -51.22469 0.1218147 0
35.15961 -51.12469 0.1218147 0
35.20961 -51.02469 0.1218147 0
35.25961 -50.92469 0.1218147 0
35.35961 -50.82469 0.1218147 0
35.40961 -50.72469 0.1218147 0
35.50961 -50.62469 0.1218147 0
34.75961 -50.27469 0.07181472 0
34.85961 -50.27469 0.07181472 0
34.75961 -50.22469 0.07181472 0
34.85961 -50.22469 0.07181472 0
34.90961 -50.22469 0.07181472 0
34.95961 -50.27469 0.07181472 0
35.05961 -50.27469 0.07181472 0
34.95961 -50.22469 0.07181472 0
35.05961 -50.22469 0.07181472 0
35.10961 -50.22469 0.07181472 0
35.15961 -50.27469 0.07181472 0
35.20961 -50.27469 0.07181472 0
35.30961 -50.27469 0.07181472 0
35.25961 -50.22469 0.07181472 0
35.35961 -50.27469 0.07181472 0
35.45961 -50.27469 0.07181472 0
35.50961 -50.27469 0.07181472 0
35.35961 -50.22469 0.07181472 0
35.55961 -50.52469 0.1218147 0
35.60961 -50.42469 0.1218147 0
35.55961 -50.27469 0.07181472 0
35.60961 -50.27469 0.07181472 0
35.65961 -50.27469 0.1218147 0
35.70961 -50.27469 0.07181472 0
35.55961 -50.22469 0.07181472 0
35.60961 -50.22469 0.07181472 0
35.65961 -50.22469 0.07181472 0
35.70961 -50.22469 0.07181472 0
35.75961 -50.27469 0.07181472 0
35.85961 -50.27469 0.07181472 0
35.95961 -50.27469 0.07181472 0
35.95961 -50.27469 0.1218147 0
36.00961 -50.27469 0.07181472 0
36.05961 -50.27469 0.07181472 0
36.10961 -50.32469 0.07181472 0
36.15961 -50.32469 0.07181472 0
36.25961 -50.32469 0.07181472 0
36.25961 -50.27469 0.1218147 0
37.30961 -53.32469 0.1218147 0
37.40961 -53.27469 0.1218147 0
37.50961 -53.17469 0.1218147 0
37.60961 -53.07469 0.1218147 0
37.65961 -52.97469 0.1218147 0
37.75961 -52.92469 0.1218147 0
36.35961 -52.57469 0.1218147 0
36.40961 -52.47469 0.1218147 0
36.50961 -52.37469 0.1218147 0
36.55961 -52.32469 0.1218147 0
36.65961 -52.22469 0.1218147 0
36.75961 -52.12469 0.1218147 0
36.85961 -52.02469 0.1218147 0
36.90961 -51.92469 0.1218147 0
37.00961 -51.82469 0.1218147 0
37.10961 -51.77469 0.1218147 0
37.85961 -52.82469 0.1218147 0
37.20961 -51.67469 0.1218147 0
37.25961 -51.57469 0.1218147 0
37.30961 -51.47469 0.1218147 0
37.40961 -51.37469 0.1218147 0
37.45961 -51.27469 0.1218147 0
36.35961 -50.32469 0.07181472 0
36.45961 -50.27469 0.07181472 0
36.50961 -50.32469 0.07181472 0
36.55961 -50.32469 0.07181472 0
36.55961 -50.32469 0.1218147 0
36.60961 -50.32469 0.07181472 0
36.70961 -50.32469 0.07181472 0
36.80961 -50.32469 0.07181472 0
36.90961 -50.32469 0.07181472 0
36.90961 -50.27469 0.07181472 0
37.00961 -50.32469 0.07181472 0
37.10961 -50.37469 0.07181472 0
37.10961 -50.32469 0.07181472 0
37.55961 -51.17469 0.1218147 0
37.60961 -51.07469 0.1218147 0
37.70961 -50.97469 0.1218147 0
37.75961 -50.82469 0.1218147 0
37.85961 -50.72469 0.1218147 0
37.90961 -50.62469 0.1218147 0
37.20961 -50.37469 0.07181472 0
37.20961 -50.32469 0.07181472 0
37.30961 -50.37469 0.07181472 0
37.25961 -50.32469 0.07181472 0
37.40961 -50.37469 0.07181472 0
37.35961 -50.32469 0.07181472 0
37.40961 -50.32469 0.07181472 0
37.50961 -50.37469 0.07181472 0
37.50961 -50.32469 0.07181472 0
37.60961 -50.37469 0.07181472 0
37.70961 -50.37469 0.07181472 0
37.65961 -50.32469 0.07181472 0
37.70961 -50.32469 0.07181472 0
37.80961 -50.37469 0.07181472 0
37.90961 -50.37469 0.07181472 0
37.95961 -52.72469 0.1218147 0
38.05961 -52.67469 0.1218147 0
38.10961 -52.57469 0.1218147 0
38.20961 -52.47469 0.1218147 0
38.30961 -52.42469 0.1218147 0
38.40961 -52.32469 0.1218147 0
38.45961 -52.22469 0.1218147 0
38.55961 -52.12469 0.1218147 0
38.65961 -52.07469 0.1218147 0
38.70961 -51.97469 0.1218147 0
38.80961 -51.87469 0.1218147 0
38.85961 -51.77469 0.1218147 0
38.95961 -51.67469 0.1218147 0
39.00961 -51.57469 0.1218147 0
39.10961 -51.47469 0.1218147 0
39.15961 -51.37469 0.1218147 0
39.25961 -51.27469 0.1218147 0
37.95961 -50.52469 0.1218147 0
37.95961 -50.37469 0.07181472 0
38.00961 -50.37469 0.07181472 0
38.05961 -50.42469 0.1218147 0
38.05961 -50.37469 0.07181472 0
38.10961 -50.37469 0.07181472 0
38.15961 -50.37469 0.07181472 0
38.20961 -50.37469 0.07181472 0
38.25961 -50.37469 0.1218147 0
38.30961 -50.37469 0.07181472 0
38.35961 -50.37469 0.07181472 0
38.40961 -50.37469 0.07181472 0
38.50961 -50.37469 0.07181472 0
38.55961 -50.37469 0.1218147 0
38.60961 -50.37469 0.07181472 0
38.70961 -50.37469 0.07181472 0
39.30961 -51.17469 0.1218147 0
39.40961 -51.07469 0.1218147 0
39.45961 -50.97469 0.1218147 0
38.80961 -50.37469 0.07181472 0
38.85961 -50.42469 0.07181472 0
38.85961 -50.42469 0.1218147 0
38.90961 -50.37469 0.07181472 0
39.00961 -50.42469 0.07181472 0
39.10961 -50.37469 0.07181472 0
39.15961 -50.42469 0.07181472 0
39.15961 -50.37469 0.07181472 0
39.20961 -50.42469 0.07181472 0
39.25961 -50.42469 0.07181472 0
39.30961 -50.42469 0.07181472 0
39.40961 -50.42469 0.07181472 0
39.50961 -50.42469 0.07181472 0
39.70961 -53.32469 0.1218147 0
39.80961 -53.27469 0.1218147 0
39.85961 -53.17469 0.1218147 0
39.95961 -53.07469 0.1218147 0
40.05961 -53.02469 0.1218147 0
40.15961 -52.92469 0.1218147 0
41.85961 -53.42469 0.1218147 0
41.95961 -53.32469 0.1218147 0
42.05961 -53.22469 0.1218147 0
42.10961 -53.12469 0.1218147 0
42.20961 -53.07469 0.1218147 0
42.30961 -52.97469 0.1218147 0
42.40961 -52.92469 0.1218147 0
40.25961 -52.82469 0.1218147 0
40.30961 -52.77469 0.1218147 0
40.40961 -52.67469 0.1218147 0
40.50961 -52.57469 0.1218147 0
40.55961 -52.47469 0.1218147 0
40.65961 -52.42469 0.1218147 0
40.75961 -52.32469 0.1218147 0
40.80961 -52.22469 0.1218147 0
40.90961 -52.12469 0.1218147 0
41.00961 -52.02469 0.1218147 0
41.05961 -51.92469 0.1218147 0
39.55961 -50.87469 0.1218147 0
39.60961 -50.77469 0.1218147 0
39.65961 -50.67469 0.1218147 0
39.75961 -50.57469 0.1218147 0
39.80961 -50.47469 0.1218147 0
40.05961 -50.47469 0.1218147 0
40.25961 -50.47469 0.07181472 0
39.55961 -50.42469 0.07181472 0
39.60961 -50.42469 0.07181472 0
39.65961 -50.42469 0.07181472 0
39.70961 -50.42469 0.07181472 0
39.75961 -50.42469 0.07181472 0
39.80961 -50.42469 0.07181472 0
39.85961 -50.42469 0.07181472 0
39.95961 -50.42469 0.07181472 0
40.00961 -50.42469 0.07181472 0
40.05961 -50.42469 0.07181472 0
40.10961 -50.42469 0.07181472 0
40.15961 -50.42469 0.07181472 0
40.25961 -50.42469 0.07181472 0
40.30961 -50.42469 0.07181472 0
40.35961 -50.47469 0.1218147 0
40.65961 -50.47469 0.07181472 0
40.65961 -50.47469 0.1218147 0
40.70961 -50.47469 0.07181472 0
40.75961 -50.47469 0.07181472 0
40.80961 -50.47469 0.07181472 0
40.95961 -50.52469 0.1218147 0
40.95961 -50.47469 0.07181472 0
41.05961 -50.47469 0.07181472 0
41.10961 -50.47469 0.07181472 0
40.40961 -50.42469 0.07181472 0
40.50961 -50.42469 0.07181472 0
40.60961 -50.42469 0.07181472 0
40.80961 -50.42469 0.07181472 0
40.85961 -50.42469 0.07181472 0
41.00961 -50.42469 0.07181472 0
41.15961 -51.87469 0.1218147 0
41.25961 -51.77469 0.1218147 0
41.30961 -51.67469 0.1218147 0
41.35961 -51.57469 0.1218147 0
41.45961 -51.47469 0.1218147 0
41.50961 -51.37469 0.1218147 0
41.60961 -51.27469 0.1218147 0
42.50961 -52.82469 0.1218147 0
42.55961 -52.72469 0.1218147 0
42.65961 -52.62469 0.1218147 0
41.15961 -50.47469 0.07181472 0
41.25961 -50.47469 0.07181472 0
41.30961 -50.52469 0.07181472 0
41.30961 -50.47469 0.07181472 0
41.35961 -50.47469 0.07181472 0
41.40961 -50.47469 0.07181472 0
41.45961 -50.47469 0.07181472 0
41.50961 -50.47469 0.07181472 0
41.65961 -51.17469 0.1218147 0
41.75961 -51.07469 0.1218147 0
41.80961 -50.97469 0.1218147 0
41.85961 -50.87469 0.1218147 0
41.55961 -50.52469 0.07181472 0
41.55961 -50.47469 0.07181472 0
41.60961 -50.47469 0.07181472 0
41.65961 -50.52469 0.07181472 0
41.65961 -50.47469 0.07181472 0
41.70961 -50.47469 0.07181472 0
41.75961 -50.52469 0.07181472 0
41.75961 -50.47469 0.07181472 0
41.80961 -50.52469 0.07181472 0
41.80961 -50.47469 0.07181472 0
41.90961 -50.52469 0.07181472 0
41.90961 -50.47469 0.07181472 0
41.95961 -50.72469 0.1218147 0
42.00961 -50.62469 0.1218147 0
42.00961 -50.57469 0.07181472 0
41.95961 -50.47469 0.07181472 0
42.00961 -50.52469 0.07181472 0
42.05961 -50.52469 0.1218147 0
42.05961 -50.47469 0.07181472 0
42.15961 -50.52469 0.07181472 0
42.15961 -50.47469 0.07181472 0
42.20961 -50.47469 0.07181472 0
42.25961 -50.52469 0.07181472 0
42.25961 -50.47469 0.07181472 0
42.30961 -50.52469 0.1218147 0
42.40961 -50.57469 0.07181472 0
42.35961 -50.52469 0.07181472 0
42.35961 -50.47469 0.07181472 0
42.45961 -50.52469 0.07181472 0
42.45961 -50.47469 0.07181472 0
42.55961 -50.52469 0.07181472 0
42.55961 -50.52469 0.1218147 0
42.60961 -50.52469 0.07181472 0
42.65961 -50.52469 0.07181472 0
17.20961 -49.57469 0.07181472 0
17.30961 -49.57469 0.07181472 0
17.35961 -49.62469 0.07181472 0
17.45961 -49.57469 0.07181472 0
17.50961 -49.57469 0.07181472 0
17.60961 -49.57469 0.07181472 0
17.70961 -49.62469 0.07181472 0
17.70961 -49.57469 0.07181472 0
17.80961 -49.57469 0.07181472 0
17.85961 -49.57469 0.07181472 0
17.95961 -49.57469 0.07181472 0
18.05961 -49.62469 0.07181472 0
18.10961 -49.57469 0.07181472 0
18.20961 -49.57469 0.07181472 0
18.30961 -49.57469 0.07181472 0
18.35961 -49.62469 0.1218147 0
18.40961 -49.57469 0.07181472 0
18.45961 -49.57469 0.07181472 0
18.55961 -49.57469 0.07181472 0
18.65961 -49.62469 0.07181472 0
18.80961 -49.62469 0.07181472 0
18.90961 -49.62469 0.07181472 0
19.00961 -49.62469 0.07181472 0
19.05961 -49.62469 0.07181472 0
19.15961 -49.62469 0.07181472 0
19.25961 -49.62469 0.07181472 0
19.35961 -49.62469 0.07181472 0
19.50961 -49.62469 0.07181472 0
19.60961 -49.62469 0.07181472 0
19.70961 -49.62469 0.07181472 0
19.85961 -49.62469 0.07181472 0
19.95961 -49.62469 0.07181472 0
18.45961 -45.12469 0.3718147 0
18.50961 -45.12469 0.3718147 0
18.50961 -45.12469 0.4218147 0
18.55961 -45.12469 0.1718147 0
18.55961 -45.07469 0.1718147 0
18.45961 -45.12469 0.5218147 0
18.50961 -45.12469 0.4718147 0
18.85961 -45.07469 0.2718147 0
18.85961 -45.07469 0.3718147 0
18.85961 -45.07469 0.4218147 0
20.65961 -45.17469 0.3218147 0
20.70961 -45.17469 0.3718147 0
20.70961 -45.17469 0.4218147 0
20.65961 -45.17469 0.4718147 0
20.70961 -45.17469 0.4718147 0
20.70961 -45.17469 0.5218147 0
20.75961 -45.12469 0.1718147 0
20.80961 -45.12469 0.1718147 0
20.85961 -45.02469 0.3218147 0
21.05961 -45.12469 0.2718147 0
21.05961 -45.12469 0.3718147 0
21.05961 -45.12469 0.4218147 0
21.05961 -45.02469 0.2718147 0
21.05961 -45.02469 0.3718147 0
21.05961 -45.02469 0.4218147 0
22.70961 -45.22469 0.5218147 0
22.80961 -45.17469 0.1718147 0
22.85961 -45.17469 0.1718147 0
22.75961 -45.22469 0.3218147 0
22.75961 -45.22469 0.3718147 0
22.75961 -45.22469 0.4218147 0
22.90961 -45.07469 0.3218147 0
23.10961 -45.17469 0.2718147 0
23.10961 -45.17469 0.3718147 0
23.10961 -45.07469 0.2718147 0
23.10961 -45.07469 0.3718147 0
23.10961 -45.07469 0.4218147 0
22.75961 -45.22469 0.4718147 0
22.75961 -45.22469 0.5218147 0
23.10961 -45.17469 0.4718147 0
24.95961 -45.27469 0.3218147 0
24.95961 -45.27469 0.3718147 0
24.95961 -45.27469 0.4218147 0
25.00961 -45.27469 0.3718147 0
24.95961 -45.27469 0.4718147 0
24.95961 -45.27469 0.5218147 0
25.00961 -45.27469 0.4718147 0
25.00961 -45.27469 0.5218147 0
25.05961 -45.22469 0.1718147 0
25.10961 -45.22469 0.1718147 0
25.15961 -45.12469 0.3218147 0
25.25961 -45.02469 0.3218147 0
25.35961 -45.17469 0.2718147 0
25.35961 -45.22469 0.3718147 0
25.35961 -45.22469 0.4218147 0
25.35961 -45.12469 0.2718147 0
25.35961 -45.12469 0.3718147 0
25.35961 -45.12469 0.4218147 0
25.35961 -45.02469 0.2718147 0
25.35961 -45.02469 0.3718147 0
25.35961 -45.02469 0.4218147 0
27.20961 -45.32469 0.3218147 0
27.20961 -45.32469 0.4218147 0
27.25961 -45.32469 0.3218147 0
27.25961 -45.32469 0.4218147 0
27.25961 -45.27469 0.3718147 0
27.35961 -45.27469 0.1718147 0
27.20961 -45.32469 0.4718147 0
27.20961 -45.32469 0.5218147 0
27.25961 -45.32469 0.5218147 0
27.25961 -45.27469 0.4718147 0
27.30961 -45.22469 0.1718147 0
27.40961 -45.17469 0.3218147 0
27.50961 -45.02469 0.3218147 0
27.60961 -45.27469 0.3718147 0
27.60961 -45.27469 0.4218147 0
27.60961 -45.22469 0.2718147 0
27.60961 -45.17469 0.2718147 0
27.60961 -45.17469 0.3718147 0
27.60961 -45.17469 0.4218147 0
27.60961 -45.07469 0.2718147 0
27.60961 -45.07469 0.4218147 0
27.60961 -45.02469 0.3718147 0
29.25961 -45.37469 0.3218147 0
29.25961 -45.37469 0.4218147 0
29.30961 -45.37469 0.3718147 0
29.35961 -45.32469 0.1718147 0
29.25961 -45.37469 0.5218147 0
29.30961 -45.37469 0.4718147 0
29.30961 -45.37469 0.5218147 0
29.45961 -45.22469 0.3218147 0
29.50961 -45.12469 0.3218147 0
29.65961 -45.32469 0.2718147 0
29.65961 -45.32469 0.3718147 0
29.65961 -45.32469 0.4218147 0
29.65961 -45.22469 0.2718147 0
29.65961 -45.22469 0.3718147 0
29.65961 -45.22469 0.4218147 0
29.65961 -45.12469 0.2718147 0
29.65961 -45.12469 0.3718147 0
29.65961 -45.12469 0.4218147 0
29.65961 -45.07469 0.4218147 0
29.60961 -45.02469 0.2718147 0
29.65961 -45.02469 0.3718147 0
31.50961 -45.42469 0.3218147 0
31.50961 -45.42469 0.3718147 0
31.50961 -45.42469 0.4218147 0
31.50961 -45.42469 0.4718147 0
31.50961 -45.42469 0.5218147 0
31.60961 -45.37469 0.1718147 0
31.60961 -45.32469 0.1718147 0
31.55961 -45.42469 0.3718147 0
31.65961 -45.27469 0.3218147 0
31.85961 -45.37469 0.3718147 0
31.85961 -45.37469 0.4218147 0
31.85961 -45.32469 0.2718147 0
31.90961 -45.27469 0.2718147 0
31.85961 -45.27469 0.3718147 0
31.85961 -45.27469 0.4218147 0
31.55961 -45.42469 0.4718147 0
31.55961 -45.42469 0.5218147 0
31.75961 -45.17469 0.3218147 0
31.90961 -45.17469 0.2718147 0
31.85961 -45.17469 0.3718147 0
31.85961 -45.17469 0.4218147 0
31.85961 -45.07469 0.2718147 0
31.85961 -45.12469 0.4218147 0
31.85961 -45.07469 0.3718147 0
33.70961 -45.47469 0.3218147 0
33.70961 -45.47469 0.3718147 0
33.70961 -45.47469 0.4218147 0
33.75961 -45.47469 0.3718147 0
33.75961 -45.37469 0.1718147 0
33.80961 -45.42469 0.1718147 0
33.85961 -45.32469 0.3218147 0
33.70961 -45.47469 0.4718147 0
33.70961 -45.47469 0.5218147 0
33.75961 -45.47469 0.4718147 0
33.75961 -45.47469 0.5218147 0
34.10961 -45.37469 0.2718147 0
34.05961 -45.42469 0.3718147 0
34.05961 -45.37469 0.4218147 0
34.10961 -45.32469 0.2718147 0
34.05961 -45.32469 0.3718147 0
34.05961 -45.32469 0.4218147 0
33.95961 -45.17469 0.3218147 0
34.10961 -45.22469 0.2718147 0
34.05961 -45.22469 0.3718147 0
34.05961 -45.22469 0.4218147 0
34.10961 -45.17469 0.4218147 0
34.05961 -45.12469 0.3218147 0
34.05961 -45.12469 0.3718147 0
35.65961 -45.52469 0.3218147 0
35.65961 -45.52469 0.4218147 0
35.70961 -45.52469 0.3718147 0
35.75961 -45.47469 0.1718147 0
35.85961 -45.42469 0.3218147 0
35.65961 -45.52469 0.4718147 0
35.65961 -45.52469 0.5218147 0
35.70961 -45.52469 0.4718147 0
36.00961 -45.57469 0.3718147 0
36.00961 -45.57469 0.4218147 0
36.00961 -45.52469 0.2718147 0
36.05961 -45.47469 0.2718147 0
36.05961 -45.47469 0.3718147 0
36.05961 -45.47469 0.4218147 0
35.95961 -45.32469 0.3218147 0
36.05961 -45.37469 0.2718147 0
36.05961 -45.37469 0.3718147 0
36.05961 -45.37469 0.4218147 0
36.10961 -45.27469 0.2718147 0
36.10961 -45.32469 0.4218147 0
36.10961 -45.27469 0.3718147 0
37.85961 -45.97469 0.1718147 0
37.80961 -46.02469 0.3218147 0
37.75961 -46.02469 0.3718147 0
37.75961 -46.02469 0.4218147 0
37.80961 -46.02469 0.3718147 0
37.90961 -45.87469 0.3218147 0
37.75961 -46.02469 0.4718147 0
37.75961 -46.02469 0.5218147 0
37.80961 -46.02469 0.4718147 0
38.10961 -45.97469 0.2718147 0
38.10961 -45.97469 0.3718147 0
38.10961 -45.97469 0.4218147 0
38.10961 -45.87469 0.3718147 0
38.10961 -45.87469 0.4218147 0
38.00961 -45.77469 0.3218147 0
38.15961 -45.87469 0.2718147 0
38.15961 -45.77469 0.2718147 0
38.15961 -45.77469 0.3718147 0
38.15961 -45.77469 0.4218147 0
38.15961 -45.72469 0.2718147 0
38.15961 -45.72469 0.3718147 0
38.15961 -45.72469 0.4218147 0
40.10961 -46.07469 0.1718147 0
40.00961 -46.12469 0.3218147 0
40.00961 -46.12469 0.4218147 0
40.05961 -46.12469 0.3718147 0
40.00961 -46.12469 0.4718147 0
40.00961 -46.12469 0.5218147 0
40.00961 -46.07469 0.5218147 0
40.05961 -46.12469 0.4718147 0
40.10961 -46.02469 0.1718147 0
40.15961 -45.97469 0.3218147 0
40.25961 -45.87469 0.3218147 0
40.40961 -46.07469 0.2718147 0
40.35961 -46.07469 0.3718147 0
40.35961 -46.07469 0.4218147 0
40.40961 -45.97469 0.2718147 0
40.40961 -45.97469 0.3718147 0
40.40961 -45.97469 0.4218147 0
40.40961 -45.87469 0.2718147 0
40.40961 -45.87469 0.3718147 0
40.40961 -45.87469 0.4218147 0
40.40961 -45.77469 0.2718147 0
40.40961 -45.82469 0.4218147 0
40.40961 -45.77469 0.3718147 0
42.25961 -46.22469 0.3218147 0
42.25961 -46.22469 0.3718147 0
42.30961 -46.22469 0.3718147 0
42.25961 -46.22469 0.4718147 0
42.25961 -46.22469 0.5218147 0
42.30961 -46.22469 0.4718147 0
42.35961 -46.17469 0.1718147 0
42.45961 -46.07469 0.3218147 0
42.65961 -46.17469 0.3718147 0
42.65961 -46.17469 0.4218147 0
42.65961 -46.12469 0.2718147 0
42.65961 -46.07469 0.2718147 0
42.65961 -46.07469 0.3718147 0
42.65961 -46.07469 0.4218147 0
42.55961 -45.97469 0.3218147 0
42.65961 -45.97469 0.2718147 0
42.65961 -45.97469 0.3718147 0
42.65961 -45.97469 0.4218147 0
42.65961 -45.87469 0.2718147 0
42.65961 -45.92469 0.4218147 0
42.65961 -45.87469 0.3718147 0
42.80961 -56.17469 1.221815 0
42.85961 -56.07469 1.121815 0
42.90961 -56.12469 1.071815 0
43.10961 -56.22469 0.9218147 0
43.10961 -56.22469 1.021815 0
43.25961 -56.22469 0.9718148 0
43.40961 -56.22469 0.9718148 0
43.65961 -56.07469 0.5218147 0
43.75961 -56.12469 0.5218147 0
43.90961 -56.12469 0.5218147 0
44.00961 -56.12469 0.5218147 0
44.95961 -56.27469 1.171815 0
44.95961 -56.17469 1.171815 0
44.95961 -56.07469 1.171815 0
42.85961 -55.87469 0.1218147 0
42.85961 -55.82469 0.07181472 0
42.90961 -55.77469 0.1218147 0
42.75961 -55.97469 0.6218147 0
42.80961 -56.02469 0.5718147 0
42.75961 -55.87469 0.6218147 0
42.90961 -56.02469 0.5218147 0
42.85961 -55.87469 0.5718147 0
42.80961 -55.77469 0.5718147 0
42.75961 -55.72469 0.6218147 0
42.90961 -55.77469 0.5218147 0
42.85961 -55.82469 0.5718147 0
42.85961 -55.57469 0.07181472 0
42.90961 -55.62469 0.1218147 0
42.90961 -55.52469 0.1218147 0
42.85961 -55.37469 0.07181472 0
42.90961 -55.37469 0.1218147 0
42.90961 -55.27469 0.1218147 0
42.95961 -55.27469 0.07181472 0
42.95961 -55.27469 0.1218147 0
42.95961 -55.27469 0.1718147 0
43.10961 -55.27469 0.1218147 0
43.05961 -55.27469 0.1718147 0
42.75961 -55.62469 0.6218147 0
42.80961 -55.57469 0.5718147 0
42.80961 -55.47469 0.6218147 0
42.90961 -55.62469 0.5218147 0
42.85961 -55.57469 0.5718147 0
42.90961 -55.62469 0.5718147 0
42.90961 -55.52469 0.5218147 0
42.80961 -55.42469 0.6218147 0
42.80961 -55.32469 0.5718147 0
42.80961 -55.27469 0.6218147 0
42.85961 -55.37469 0.5718147 0
42.90961 -55.37469 0.5718147 0
42.85961 -55.27469 0.6218147 0
43.20961 -55.67469 0.1218147 0
43.15961 -55.27469 0.07181472 0
43.15961 -55.27469 0.1218147 0
43.15961 -55.27469 0.1718147 0
42.90961 -55.87469 1.121815 0
42.85961 -55.92469 1.221815 0
42.85961 -55.72469 1.221815 0
42.95961 -55.97469 1.071815 0
42.95961 -55.82469 1.221815 0
43.10961 -55.82469 1.121815 0
42.80961 -56.02469 1.271815 0
42.85961 -55.77469 1.271815 0
43.00961 -55.67469 1.321815 0
42.90961 -55.57469 0.8718147 0
42.85961 -55.47469 1.171815 0
43.00961 -55.47469 0.8718147 0
43.00961 -55.42469 1.221815 0
42.85961 -55.52469 1.271815 0
42.85961 -55.32469 1.271815 0
43.00961 -55.37469 1.271815 0
42.95961 -55.27469 1.421815 0
43.00961 -55.27469 1.521815 0
43.15961 -56.02469 1.021815 0
43.25961 -55.92469 1.021815 0
43.15961 -55.97469 1.071815 0
43.20961 -55.82469 1.071815 0
43.15961 -55.67469 1.121815 0
42.95961 -55.22469 0.1218147 0
43.05961 -55.22469 0.1218147 0
42.90961 -55.22469 0.5218147 0
42.90961 -55.17469 0.4718147 0
42.90961 -55.17469 0.5718147 0
42.85961 -55.12469 0.5718147 0
42.85961 -55.07469 0.6218147 0
42.85961 -55.02469 0.6218147 0
42.90961 -54.97469 0.5718147 0
43.00961 -55.17469 0.4718147 0
43.00961 -55.12469 0.5218147 0
42.95961 -54.97469 0.5718147 0
43.00961 -54.87469 0.5218147 0
43.00961 -55.02469 0.8218147 0
42.85961 -54.82469 0.6218147 0
42.90961 -54.82469 0.6218147 0
42.90961 -54.77469 0.5718147 0
42.85961 -54.57469 0.6218147 0
42.90961 -54.62469 0.6218147 0
42.90961 -54.57469 0.5718147 0
42.90961 -54.52469 0.5718147 0
42.95961 -54.77469 0.5218147 0
43.10961 -54.82469 0.5218147 0
43.00961 -54.67469 0.8218147 0
42.95961 -54.57469 0.5218147 0
43.15961 -55.17469 0.4718147 0
43.25961 -55.17469 0.4718147 0
43.20961 -54.82469 0.5218147 0
43.30961 -54.77469 0.5218147 0
43.45961 -54.72469 0.5218147 0
42.90961 -55.22469 0.9718148 0
42.90961 -55.17469 1.021815 0
42.90961 -55.17469 1.121815 0
42.85961 -55.22469 1.171815 0
42.90961 -54.97469 1.121815 0
42.85961 -55.02469 1.171815 0
43.00961 -55.12469 0.8718147 0
42.95961 -55.02469 0.9718148 0
42.95961 -55.02469 1.021815 0
43.00961 -54.87469 0.8718147 0
43.00961 -55.02469 1.121815 0
43.00961 -55.02469 1.171815 0
42.85961 -55.07469 1.271815 0
43.00961 -55.12469 1.271815 0
43.00961 -55.17469 1.521815 0
42.95961 -55.02469 1.371815 0
43.00961 -54.87469 1.271815 0
42.95961 -55.02469 1.521815 0
42.90961 -54.77469 1.071815 0
42.90961 -54.82469 1.171815 0
42.90961 -54.57469 1.071815 0
42.90961 -54.62469 1.171815 0
42.95961 -54.82469 0.9718148 0
42.95961 -54.77469 1.021815 0
43.00961 -54.67469 1.121815 0
43.00961 -54.62469 0.8718147 0
42.95961 -54.62469 0.9718148 0
42.95961 -54.57469 1.021815 0
43.00961 -54.62469 1.221815 0
42.85961 -54.82469 1.271815 0
42.80961 -54.72469 1.571815 0
42.90961 -54.72469 1.621815 0
42.85961 -54.62469 1.271815 0
42.95961 -54.82469 1.371815 0
42.95961 -54.77469 1.471815 0
42.95961 -54.82469 1.621815 0
43.00961 -54.72469 1.471815 0
43.05961 -54.72469 1.621815 0
42.95961 -54.62469 1.371815 0
42.95961 -54.57469 1.471815 0
42.95961 -54.62469 1.621815 0
43.05961 -54.52469 1.571815 0
43.55961 -54.67469 0.5218147 0
43.65961 -54.67469 0.5218147 0
43.75961 -54.62469 0.5218147 0
43.85961 -54.57469 0.5218147 0
43.95961 -54.52469 0.5218147 0
42.90961 -54.87469 1.921815 0
43.00961 -54.87469 1.771815 0
42.90961 -54.82469 1.771815 0
42.95961 -54.67469 1.771815 0
43.05961 -54.77469 1.821815 0
43.05961 -54.67469 1.771815 0
43.05961 -54.72469 1.971815 0
43.05961 -54.52469 1.771815 0
43.05961 -54.47469 1.771815 0
42.95961 -54.62469 1.871815 0
43.00961 -54.62469 1.921815 0
43.00961 -54.47469 1.921815 0
43.05961 -54.47469 1.921815 0
42.85961 -54.42469 0.6218147 0
42.90961 -54.37469 0.5718147 0
42.90961 -54.37469 0.6218147 0
42.90961 -54.32469 0.5718147 0
42.90961 -54.17469 0.5718147 0
42.90961 -54.17469 0.6218147 0
42.95961 -54.37469 0.5218147 0
43.00961 -54.32469 0.8218147 0
42.95961 -54.17469 0.5218147 0
42.90961 -53.97469 0.5718147 0
42.90961 -53.97469 0.6218147 0
42.90961 -53.92469 0.6218147 0
42.90961 -53.77469 0.5718147 0
42.90961 -53.72469 0.6218147 0
42.95961 -53.97469 0.5218147 0
43.00961 -54.02469 0.7718147 0
43.00961 -54.02469 0.8218147 0
43.00961 -53.82469 0.5218147 0
42.95961 -53.77469 0.5718147 0
43.00961 -53.77469 0.8218147 0
43.00961 -53.72469 0.7718147 0
43.15961 -53.82469 0.5218147 0
43.25961 -53.77469 0.5218147 0
43.40961 -53.77469 0.5218147 0
42.90961 -54.37469 1.071815 0
42.90961 -54.37469 1.171815 0
42.90961 -54.37469 1.221815 0
42.90961 -54.17469 1.171815 0
42.90961 -54.17469 1.221815 0
43.00961 -54.42469 0.8718147 0
43.00961 -54.42469 0.9218147 0
42.95961 -54.37469 1.021815 0
43.00961 -54.42469 1.221815 0
43.00961 -54.32469 1.121815 0
43.00961 -54.22469 0.8718147 0
43.00961 -54.22469 0.9218147 0
42.95961 -54.22469 1.021815 0
42.95961 -54.17469 1.071815 0
43.00961 -54.22469 1.221815 0
42.90961 -54.42469 1.321815 0
42.90961 -54.22469 1.321815 0
43.00961 -54.42469 1.321815 0
43.00961 -54.37469 1.421815 0
42.95961 -54.37469 1.471815 0
42.95961 -54.37469 1.571815 0
43.05961 -54.27469 1.571815 0
43.00961 -54.22469 1.321815 0
42.95961 -54.17469 1.421815 0
42.95961 -54.22469 1.571815 0
43.05961 -54.07469 1.521815 0
42.90961 -53.97469 1.171815 0
42.90961 -53.92469 1.221815 0
42.90961 -53.77469 1.121815 0
42.90961 -53.72469 1.221815 0
43.00961 -54.02469 0.9218147 0
42.95961 -54.02469 0.9718148 0
42.95961 -53.97469 1.071815 0
43.00961 -54.02469 1.071815 0
43.00961 -54.02469 1.171815 0
43.00961 -53.82469 0.9218147 0
42.95961 -53.82469 0.9718148 0
42.95961 -53.77469 1.071815 0
43.00961 -53.77469 1.171815 0
43.00961 -53.72469 1.071815 0
42.90961 -53.97469 1.321815 0
42.90961 -53.72469 1.321815 0
43.00961 -54.02469 1.321815 0
42.95961 -54.02469 1.421815 0
43.00961 -54.02469 1.421815 0
42.95961 -53.97469 1.571815 0
43.00961 -53.82469 1.321815 0
42.95961 -53.82469 1.421815 0
43.00961 -53.72469 1.371815 0
43.00961 -53.82469 1.521815 0
42.95961 -53.77469 1.571815 0
43.05961 -53.72469 1.571815 0
42.90961 -53.57469 0.5718147 0
42.90961 -53.52469 0.6218147 0
42.90961 -53.47469 0.6218147 0
42.90961 -53.37469 0.5718147 0
42.95961 -53.57469 0.5718147 0
43.00961 -53.47469 0.5718147 0
43.00961 -53.62469 0.8218147 0
43.05961 -53.47469 0.7718147 0
42.95961 -53.32469 0.6218147 0
42.95961 -53.27469 0.6218147 0
43.05961 -53.42469 0.8218147 0
43.05961 -53.27469 0.8218147 0
42.90961 -53.17469 0.5718147 0
42.90961 -53.07469 0.6218147 0
42.90961 -53.02469 0.6218147 0
42.95961 -53.22469 0.5718147 0
43.10961 -53.17469 0.5718147 0
43.05961 -53.22469 0.7218148 0
43.05961 -53.07469 0.8218147 0
43.05961 -52.92469 0.7218148 0
43.05961 -52.92469 0.7718147 0
43.15961 -53.47469 0.5718147 0
43.30961 -53.42469 0.5718147 0
43.45961 -53.37469 0.5718147 0
43.20961 -53.12469 0.5718147 0
43.20961 -53.02469 0.6218147 0
43.15961 -52.92469 0.6218147 0
43.35961 -53.17469 0.5718147 0
42.90961 -53.52469 1.221815 0
43.00961 -53.62469 0.9218147 0
42.95961 -53.62469 0.9718148 0
43.00961 -53.47469 0.9218147 0
42.95961 -53.47469 0.9718148 0
42.95961 -53.57469 1.071815 0
42.95961 -53.57469 1.121815 0
43.00961 -53.62469 1.171815 0
43.00961 -53.27469 0.8718147 0
43.00961 -53.27469 0.9718148 0
43.05961 -53.42469 1.021815 0
42.95961 -53.42469 1.071815 0
42.95961 -53.37469 1.121815 0
42.95961 -53.32469 1.221815 0
43.05961 -53.42469 1.121815 0
42.90961 -53.52469 1.321815 0
42.90961 -53.27469 1.321815 0
43.00961 -53.62469 1.271815 0
42.95961 -53.62469 1.421815 0
43.00961 -53.47469 1.271815 0
43.00961 -53.47469 1.421815 0
43.00961 -53.62469 1.471815 0
43.00961 -53.62469 1.571815 0
43.00961 -53.42469 1.321815 0
43.00961 -53.27469 1.271815 0
43.00961 -53.27469 1.371815 0
43.05961 -53.42469 1.271815 0
43.00961 -53.42469 1.521815 0
43.00961 -53.27469 1.521815 0
43.05961 -53.42469 1.471815 0
43.05961 -53.32469 1.621815 0
42.95961 -53.22469 1.021815 0
43.00961 -53.12469 0.8718147 0
43.00961 -53.12469 0.9718148 0
43.05961 -53.17469 1.021815 0
42.95961 -53.17469 1.121815 0
42.95961 -53.07469 1.221815 0
43.05961 -53.22469 1.121815 0
43.05961 -53.07469 1.121815 0
42.95961 -53.02469 1.021815 0
42.95961 -52.87469 1.021815 0
43.00961 -52.92469 0.9718148 0
43.05961 -52.97469 0.8718147 0
43.05961 -52.92469 1.021815 0
42.95961 -53.02469 1.121815 0
42.95961 -52.87469 1.221815 0
43.00961 -52.92469 1.221815 0
43.05961 -52.92469 1.121815 0
43.00961 -53.12469 1.271815 0
43.00961 -53.12469 1.371815 0
43.05961 -53.17469 1.321815 0
43.05961 -53.22469 1.421815 0
43.05961 -53.07469 1.421815 0
42.95961 -53.07469 1.521815 0
43.05961 -53.17469 1.621815 0
43.10961 -53.07469 1.571815 0
42.95961 -53.02469 1.321815 0
43.00961 -52.92469 1.371815 0
43.05961 -52.92469 1.271815 0
43.05961 -52.87469 1.421815 0
42.95961 -52.87469 1.521815 0
43.05961 -52.97469 1.621815 0
43.55961 -53.72469 0.5218147 0
43.65961 -53.67469 0.5218147 0
43.80961 -53.67469 0.5218147 0
44.05961 -54.42469 0.5218147 0
43.60961 -53.32469 0.5718147 0
42.95961 -54.42469 1.721815 0
43.05961 -54.27469 1.721815 0
42.95961 -54.42469 1.871815 0
43.00961 -54.27469 1.921815 0
43.05961 -54.32469 1.921815 0
