# .PCD v0.7 - Point Cloud Data file format
VERSION 0.7
FIELDS x y z intensity
SIZE 4 4 4 4
TYPE F F F F
COUNT 1 1 1 1
WIDTH 1563
HEIGHT 1
VIEWPOINT 0 0 0 1 0 0 0
POINTS 1563
DATA ascii
-13.49039 48.97531 0.1218147 0
-13.49039 49.12531 0.1218147 0
-13.39039 49.07531 0.1218147 0
-13.64039 49.32531 0.07181472 0
-13.54039 49.17531 0.1218147 0
-13.49039 49.22531 0.1218147 0
-13.49039 49.32531 0.07181472 0
-13.59039 49.37531 0.07181472 0
-13.49039 49.37531 0.07181472 0
-13.39039 49.32531 0.07181472 0
-13.29039 49.17531 0.1218147 0
-13.29039 49.22531 0.1218147 0
-13.34039 49.32531 0.07181472 0
-13.39039 49.37531 0.07181472 0
-13.34039 49.37531 0.07181472 0
-13.29039 49.37531 0.07181472 0
-13.24039 47.62531 0.07181472 0
-12.89039 47.62531 0.07181472 0
-12.54039 47.62531 0.07181472 0
-12.19039 47.62531 0.07181472 0
-11.84039 47.62531 0.07181472 0
-13.04039 48.57531 0.07181472 0
-12.64039 48.57531 0.07181472 0
-13.24039 48.92531 0.1218147 0
-13.14039 48.92531 0.07181472 0
-13.14039 49.07531 0.1218147 0
-12.94039 48.92531 0.1218147 0
-13.04039 49.02531 0.1218147 0
-13.24039 49.32531 0.07181472 0
-13.09039 49.22531 0.1218147 0
-13.14039 49.32531 0.07181472 0
-13.24039 49.37531 0.07181472 0
-13.09039 49.37531 0.07181472 0
-13.04039 49.17531 0.1218147 0
-12.99039 49.32531 0.07181472 0
-12.94039 49.32531 0.07181472 0
-12.99039 49.37531 0.07181472 0
-12.89039 49.37531 0.07181472 0
-12.79039 48.92531 0.07181472 0
-12.79039 49.07531 0.1218147 0
-12.74039 49.02531 0.1218147 0
-12.64039 48.87531 0.1218147 0
-12.49039 49.07531 0.1218147 0
-12.84039 49.22531 0.1218147 0
-12.84039 49.32531 0.07181472 0
-12.79039 49.27531 0.1218147 0
-12.74039 49.17531 0.1718147 0
-12.74039 49.32531 0.07181472 0
-12.79039 49.37531 0.07181472 0
-12.79039 49.47531 0.1218147 0
-12.74039 49.37531 0.07181472 0
-12.64039 49.32531 0.07181472 0
-12.59039 49.32531 0.07181472 0
-12.49039 49.17531 0.1718147 0
-12.49039 49.32531 0.07181472 0
-12.59039 49.37531 0.07181472 0
-12.49039 49.37531 0.07181472 0
-12.24039 48.52531 0.07181472 0
-11.84039 48.52531 0.07181472 0
-12.39039 48.92531 0.07181472 0
-12.34039 48.87531 0.1218147 0
-12.39039 48.97531 0.1218147 0
-12.14039 49.07531 0.1218147 0
-12.44039 49.32531 0.07181472 0
-12.39039 49.32531 0.07181472 0
-12.34039 49.17531 0.1718147 0
-12.34039 49.32531 0.07181472 0
-12.29039 49.27531 0.07181472 0
-12.39039 49.37531 0.07181472 0
-12.19039 49.32531 0.07181472 0
-12.24039 49.27531 0.1718147 0
-12.09039 49.32531 0.07181472 0
-12.19039 49.37531 0.07181472 0
-12.19039 49.37531 0.1718147 0
-12.14039 49.47531 0.1718147 0
-11.99039 48.82531 0.1218147 0
-12.04039 48.92531 0.07181472 0
-12.04039 48.97531 0.1218147 0
-11.69039 48.82531 0.1218147 0
-11.69039 48.92531 0.1218147 0
-11.84039 49.07531 0.1218147 0
-11.69039 48.97531 0.1218147 0
-12.04039 49.32531 0.07181472 0
-11.99039 49.32531 0.07181472 0
-11.94039 49.32531 0.07181472 0
-11.79039 49.27531 0.07181472 0
-11.69039 49.27531 0.07181472 0
-14.84039 50.07531 0.1718147 0
-14.74039 50.17531 0.1718147 0
-14.69039 50.27531 0.1718147 0
-14.64039 50.32531 0.1718147 0
-14.54039 50.42531 0.1718147 0
-14.44039 50.52531 0.1718147 0
-14.39039 50.62531 0.1718147 0
-14.29039 50.72531 0.1718147 0
-14.24039 50.82531 0.1718147 0
-14.14039 50.92531 0.1718147 0
-14.09039 51.02531 0.1718147 0
-13.99039 51.07531 0.1718147 0
-13.89039 51.17531 0.1718147 0
-13.79039 51.27531 0.1718147 0
-13.74039 51.37531 0.1718147 0
-13.64039 51.42531 0.1718147 0
-13.54039 51.52531 0.1718147 0
-13.44039 51.62531 0.1718147 0
-13.39039 51.72531 0.1718147 0
-13.29039 51.77531 0.1718147 0
-12.79039 49.67531 0.1218147 0
-12.79039 49.87531 0.1218147 0
-12.79039 50.02531 0.1218147 0
-12.79039 50.22531 0.1218147 0
-12.79039 50.42531 0.1218147 0
-12.79039 50.62531 0.1218147 0
-12.79039 50.82531 0.1218147 0
-12.79039 51.02531 0.1218147 0
-12.09039 49.62531 0.1718147 0
-11.99039 49.72531 0.1718147 0
-11.94039 49.82531 0.1718147 0
-11.89039 49.92531 0.1718147 0
-11.79039 50.02531 0.1718147 0
-11.74039 50.12531 0.1718147 0
-13.24039 51.87531 0.1718147 0
-13.14039 51.92531 0.1718147 0
-12.79039 51.27531 0.1218147 0
-12.79039 51.47531 0.1218147 0
-12.79039 51.67531 0.1218147 0
-12.79039 51.92531 0.1218147 0
-13.04039 52.02531 0.1718147 0
-12.94039 52.12531 0.1718147 0
-12.79039 52.12531 0.1218147 0
-12.84039 52.17531 0.1718147 0
-11.49039 47.62531 0.07181472 0
-11.19039 47.62531 0.07181472 0
-10.89039 47.62531 0.07181472 0
-10.59039 47.57531 0.07181472 0
-10.29039 47.57531 0.07181472 0
-11.49039 48.52531 0.07181472 0
-11.14039 48.52531 0.07181472 0
-11.59039 49.07531 0.1218147 0
-11.39039 48.87531 0.1218147 0
-11.34039 48.77531 0.07181472 0
-11.34039 48.92531 0.1218147 0
-11.29039 49.07531 0.1218147 0
-11.59039 49.27531 0.07181472 0
-11.54039 49.27531 0.07181472 0
-11.39039 49.32531 0.07181472 0
-11.29039 49.27531 0.07181472 0
-11.19039 48.82531 0.07181472 0
-10.99039 48.77531 0.07181472 0
-11.04039 48.87531 0.1218147 0
-10.94039 48.92531 0.07181472 0
-11.04039 49.07531 0.1218147 0
-11.19039 49.27531 0.07181472 0
-11.14039 49.27531 0.07181472 0
-10.99039 49.27531 0.07181472 0
-10.89039 49.27531 0.07181472 0
-10.79039 48.52531 0.1218147 0
-10.49039 48.52531 0.1218147 0
-10.64039 48.72531 0.07181472 0
-10.29039 48.72531 0.07181472 0
-10.19039 48.52531 0.1218147 0
-10.84039 48.77531 0.07181472 0
-10.79039 48.87531 0.1218147 0
-10.74039 49.02531 0.1218147 0
-10.54039 48.87531 0.07181472 0
-10.49039 48.87531 0.1218147 0
-10.54039 49.02531 0.1218147 0
-10.79039 49.27531 0.07181472 0
-10.74039 49.27531 0.07181472 0
-10.59039 49.27531 0.07181472 0
-10.49039 49.27531 0.07181472 0
-10.39039 49.12531 0.1218147 0
-10.19039 48.87531 0.1218147 0
-10.14039 48.82531 0.07181472 0
-10.39039 49.27531 0.07181472 0
-10.34039 49.22531 0.1218147 0
-10.29039 49.27531 0.07181472 0
-10.19039 49.22531 0.07181472 0
-10.24039 49.32531 0.1218147 0
-10.19039 49.27531 0.07181472 0
-10.09039 49.22531 0.07181472 0
-10.09039 49.27531 0.07181472 0
-10.19039 49.42531 0.1218147 0
-10.14039 49.52531 0.1218147 0
-10.04039 47.62531 0.07181472 0
-9.740388 47.57531 0.07181472 0
-9.440389 47.57531 0.1218147 0
-9.190389 47.57531 0.1218147 0
-8.940389 47.57531 0.1218147 0
-8.690389 47.57531 0.1218147 0
-9.890388 48.67531 0.07181472 0
-9.840388 48.52531 0.1218147 0
-9.590388 48.52531 0.1218147 0
-9.490388 48.67531 0.07181472 0
-9.290388 48.52531 0.1218147 0
-9.940389 48.87531 0.1218147 0
-9.690389 48.82531 0.07181472 0
-9.990388 49.22531 0.07181472 0
-10.04039 49.27531 0.07181472 0
-9.990388 49.27531 0.07181472 0
-9.890388 49.22531 0.07181472 0
-9.890388 49.27531 0.07181472 0
-9.790388 49.22531 0.07181472 0
-9.840388 49.27531 0.07181472 0
-9.790388 49.27531 0.07181472 0
-9.740388 49.22531 0.07181472 0
-9.690389 49.22531 0.07181472 0
-9.740388 49.27531 0.07181472 0
-9.640388 48.87531 0.1218147 0
-9.440389 48.87531 0.1218147 0
-9.590388 49.22531 0.07181472 0
-9.490388 49.17531 0.07181472 0
-9.490388 49.22531 0.07181472 0
-9.390388 49.17531 0.07181472 0
-9.390388 49.22531 0.07181472 0
-9.340388 49.17531 0.07181472 0
-9.290388 49.17531 0.07181472 0
-9.290388 49.22531 0.07181472 0
-8.990388 48.47531 0.1218147 0
-8.740388 48.47531 0.1218147 0
-8.490388 48.47531 0.1218147 0
-9.240388 48.77531 0.07181472 0
-9.190389 48.87531 0.1218147 0
-8.940389 48.82531 0.1218147 0
-9.190389 49.17531 0.07181472 0
-9.090388 49.17531 0.07181472 0
-8.990388 49.17531 0.07181472 0
-8.990388 49.22531 0.07181472 0
-8.890388 49.17531 0.07181472 0
-8.690389 48.82531 0.1218147 0
-8.690389 49.12531 0.07181472 0
-8.490388 48.87531 0.1218147 0
-8.790388 49.17531 0.07181472 0
-8.640388 49.22531 0.07181472 0
-8.590388 49.17531 0.07181472 0
-8.590388 49.22531 0.07181472 0
-8.490388 49.17531 0.07181472 0
-11.64039 50.22531 0.1718147 0
-11.59039 50.32531 0.1718147 0
-11.49039 50.42531 0.1718147 0
-11.44039 50.52531 0.1718147 0
-11.34039 50.62531 0.1718147 0
-11.29039 50.72531 0.1718147 0
-11.19039 50.82531 0.1718147 0
-11.14039 50.92531 0.1718147 0
-11.04039 51.02531 0.1718147 0
-10.94039 51.12531 0.1718147 0
-10.89039 51.22531 0.1218147 0
-10.79039 51.32531 0.1218147 0
-10.69039 51.42531 0.1218147 0
-10.64039 51.52531 0.1218147 0
-10.54039 51.57531 0.1218147 0
-10.44039 51.67531 0.1218147 0
-10.34039 51.77531 0.1218147 0
-10.24039 51.87531 0.1218147 0
-10.19039 51.97531 0.1218147 0
-10.09039 52.02531 0.1218147 0
-10.04039 49.62531 0.1218147 0
-9.990388 49.72531 0.1218147 0
-9.890388 49.82531 0.1218147 0
-9.840388 49.92531 0.1218147 0
-9.740388 50.02531 0.1218147 0
-9.640388 50.07531 0.1218147 0
-9.590388 50.22531 0.1218147 0
-9.490388 50.27531 0.1218147 0
-9.440389 50.37531 0.1218147 0
-9.340388 50.47531 0.1218147 0
-9.290388 50.57531 0.1218147 0
-9.190389 50.67531 0.1218147 0
-9.090388 50.77531 0.1218147 0
-9.040388 50.87531 0.1218147 0
-8.940389 50.92531 0.1218147 0
-8.840388 51.02531 0.1218147 0
-8.740388 51.12531 0.1218147 0
-8.640388 51.17531 0.1218147 0
-8.590388 51.27531 0.1218147 0
-8.490388 51.37531 0.1218147 0
-14.99039 54.97531 0.1218147 0
-14.89039 55.02531 0.1218147 0
-14.94039 55.12531 0.1218147 0
-14.89039 55.07531 0.1218147 0
-14.89039 55.07531 0.1718147 0
-14.89039 54.82531 0.6718147 0
-14.89039 55.02531 0.5718147 0
-14.94039 55.12531 0.5218147 0
-14.89039 55.07531 0.5218147 0
-14.99039 55.02531 1.021815 0
-14.89039 55.02531 0.9718148 0
-14.94039 55.12531 0.8718147 0
-14.89039 55.07531 0.8718147 0
-14.89039 55.07531 0.9718148 0
-14.94039 55.12531 1.221815 0
-14.89039 54.82531 1.321815 0
-14.89039 55.02531 1.421815 0
-14.89039 55.07531 1.271815 0
-14.89039 55.07531 1.371815 0
-14.94039 55.12531 1.621815 0
-14.89039 55.07531 1.621815 0
-14.99039 55.17531 0.1218147 0
-14.89039 55.22531 0.1218147 0
-14.99039 55.17531 0.5218147 0
-14.89039 55.17531 0.5218147 0
-14.99039 55.17531 0.8718147 0
-14.89039 55.17531 0.8718147 0
-14.99039 55.22531 1.271815 0
-14.89039 55.17531 1.271815 0
-14.99039 55.17531 1.621815 0
-14.89039 55.17531 1.621815 0
-14.89039 54.82531 1.971815 0
-14.89039 55.02531 1.771815 0
-14.99039 55.02531 1.971815 0
-14.89039 55.02531 1.871815 0
-14.94039 55.12531 1.971815 0
-14.89039 55.12531 2.021815 0
-14.99039 54.97531 2.171815 0
-14.89039 55.07531 2.171815 0
-14.94039 55.12531 2.321815 0
-14.99039 54.92531 2.621815 0
-14.89039 55.02531 2.471815 0
-14.89039 55.07531 2.471815 0
-14.89039 55.02531 2.671815 0
-14.89039 55.12531 2.771815 0
-14.89039 55.07531 2.921815 0
-14.94039 55.12531 3.021815 0
-14.89039 55.02531 3.071815 0
-14.94039 55.12531 3.221815 0
-14.89039 55.07531 3.221815 0
-14.99039 55.17531 2.021815 0
-14.89039 55.22531 2.021815 0
-14.99039 55.27531 2.371815 0
-14.94039 55.22531 2.371815 0
-14.89039 55.17531 2.421815 0
-14.94039 55.17531 2.621815 0
-14.99039 55.27531 2.771815 0
-14.94039 55.22531 2.771815 0
-14.89039 55.17531 2.821815 0
-14.99039 55.27531 3.171815 0
-14.94039 55.22531 3.121815 0
-14.89039 55.17531 3.221815 0
-14.99039 54.92531 3.321815 0
-14.94039 55.12531 3.421815 0
-14.89039 55.07531 3.421815 0
-14.89039 55.02531 3.621815 0
-14.89039 54.87531 3.971815 0
-14.99039 54.97531 3.771815 0
-14.89039 55.02531 3.771815 0
-14.99039 55.02531 3.921815 0
-14.94039 54.62531 4.621815 0
-14.94039 55.07531 5.021815 0
-14.84039 54.97531 0.07181472 0
-14.84039 54.97531 0.1218147 0
-14.79039 55.02531 0.1718147 0
-14.84039 55.12531 0.1218147 0
-14.79039 55.07531 0.1218147 0
-14.74039 55.02531 0.1218147 0
-14.69039 54.97531 0.1218147 0
-14.69039 55.12531 0.1718147 0
-14.64039 55.02531 0.07181472 0
-14.64039 55.07531 0.1218147 0
-14.49039 55.02531 0.07181472 0
-14.54039 55.07531 0.1218147 0
-14.54039 55.12531 0.1218147 0
-14.49039 55.07531 0.1218147 0
-14.54039 55.12531 0.1718147 0
-14.79039 54.92531 0.6718147 0
-14.69039 54.92531 0.6718147 0
-14.84039 54.97531 0.5718147 0
-14.79039 54.97531 0.6218147 0
-14.79039 55.02531 0.5718147 0
-14.84039 55.12531 0.5218147 0
-14.79039 55.12531 0.5218147 0
-14.74039 55.02531 0.5718147 0
-14.69039 54.97531 0.5718147 0
-14.69039 55.12531 0.5718147 0
-14.64039 55.02531 0.6218147 0
-14.64039 55.07531 0.5718147 0
-14.49039 55.02531 0.6218147 0
-14.49039 55.12531 0.5218147 0
-14.54039 55.07531 0.5718147 0
-14.54039 55.12531 0.5718147 0
-14.59039 54.97531 0.6718147 0
-14.39039 55.07531 0.1218147 0
-14.44039 55.12531 0.1718147 0
-14.34039 55.12531 0.1218147 0
-14.29039 55.12531 0.1718147 0
-14.24039 55.02531 0.07181472 0
-14.24039 55.07531 0.1218147 0
-14.19039 55.07531 0.1218147 0
-14.19039 55.12531 0.1718147 0
-14.09039 55.02531 0.07181472 0
-14.39039 54.92531 0.6718147 0
-14.44039 55.12531 0.5718147 0
-14.39039 55.07531 0.5718147 0
-14.29039 55.02531 0.5718147 0
-14.34039 55.07531 0.5218147 0
-14.29039 55.12531 0.5718147 0
-14.34039 54.97531 0.6718147 0
-14.09039 54.87531 0.6718147 0
-14.19039 55.07531 0.5218147 0
-14.24039 55.07531 0.5718147 0
-14.19039 55.12531 0.5718147 0
-14.09039 54.97531 0.6218147 0
-14.84039 54.97531 1.021815 0
-14.79039 55.02531 0.9718148 0
-14.84039 55.12531 0.8718147 0
-14.79039 55.12531 0.8718147 0
-14.74039 55.02531 0.9718148 0
-14.69039 55.12531 0.9718148 0
-14.79039 54.97531 1.121815 0
-14.84039 55.12531 1.221815 0
-14.64039 54.97531 1.021815 0
-14.64039 55.07531 0.9718148 0
-14.54039 55.07531 1.021815 0
-14.54039 55.12531 0.9718148 0
-14.49039 55.12531 0.9718148 0
-14.64039 55.02531 1.121815 0
-14.79039 54.92531 1.271815 0
-14.69039 54.92531 1.321815 0
-14.79039 55.12531 1.271815 0
-14.79039 55.07531 1.371815 0
-14.74039 55.02531 1.421815 0
-14.69039 55.12531 1.371815 0
-14.84039 54.97531 1.521815 0
-14.84039 54.97531 1.621815 0
-14.84039 55.12531 1.621815 0
-14.79039 55.07531 1.621815 0
-14.69039 54.97531 1.471815 0
-14.59039 54.97531 1.271815 0
-14.64039 55.07531 1.421815 0
-14.54039 55.12531 1.371815 0
-14.49039 55.07531 1.421815 0
-14.64039 55.02531 1.621815 0
-14.54039 55.07531 1.471815 0
-14.44039 55.12531 0.9718148 0
-14.39039 55.07531 1.021815 0
-14.34039 55.12531 0.8718147 0
-14.34039 55.12531 0.9718148 0
-14.29039 55.12531 0.9718148 0
-14.44039 55.02531 1.121815 0
-14.34039 54.97531 1.221815 0
-14.24039 55.07531 1.021815 0
-14.19039 55.07531 0.9718148 0
-14.19039 55.12531 0.9718148 0
-14.24039 55.02531 1.121815 0
-14.09039 55.02531 1.071815 0
-14.09039 54.97531 1.221815 0
-14.39039 54.92531 1.271815 0
-14.44039 55.12531 1.371815 0
-14.34039 55.07531 1.421815 0
-14.29039 55.12531 1.371815 0
-14.44039 55.02531 1.621815 0
-14.39039 55.07531 1.471815 0
-14.29039 55.02531 1.621815 0
-14.34039 55.12531 1.621815 0
-14.09039 54.92531 1.271815 0
-14.19039 55.12531 1.321815 0
-14.19039 55.07531 1.371815 0
-14.19039 55.07531 1.471815 0
-14.09039 55.02531 1.571815 0
-14.74039 55.17531 0.1218147 0
-14.69039 55.17531 0.1218147 0
-14.69039 55.22531 0.1218147 0
-14.59039 55.22531 0.1218147 0
-14.59039 55.27531 0.1218147 0
-14.49039 55.22531 0.1218147 0
-14.49039 55.27531 0.1218147 0
-14.74039 55.17531 0.5218147 0
-14.69039 55.17531 0.5218147 0
-14.69039 55.22531 0.5218147 0
-14.59039 55.22531 0.5218147 0
-14.59039 55.27531 0.5218147 0
-14.54039 55.17531 0.5218147 0
-14.49039 55.22531 0.5218147 0
-14.49039 55.27531 0.5218147 0
-14.44039 55.17531 0.1218147 0
-14.34039 55.17531 0.1218147 0
-14.34039 55.22531 0.1218147 0
-14.34039 55.27531 0.1218147 0
-14.24039 55.22531 0.1218147 0
-14.19039 55.17531 0.1218147 0
-14.24039 55.27531 0.1218147 0
-14.14039 55.22531 0.1218147 0
-14.09039 55.17531 0.1218147 0
-14.14039 55.27531 0.1218147 0
-14.44039 55.17531 0.5218147 0
-14.39039 55.27531 0.5218147 0
-14.34039 55.17531 0.5218147 0
-14.34039 55.22531 0.5218147 0
-14.24039 55.22531 0.5218147 0
-14.19039 55.17531 0.5218147 0
-14.24039 55.27531 0.5218147 0
-14.14039 55.22531 0.5218147 0
-14.09039 55.17531 0.5218147 0
-14.09039 55.27531 0.5218147 0
-14.74039 55.17531 0.8718147 0
-14.69039 55.17531 0.8718147 0
-14.69039 55.22531 0.8718147 0
-14.69039 55.22531 1.221815 0
-14.59039 55.22531 0.8718147 0
-14.59039 55.27531 0.8718147 0
-14.54039 55.17531 0.8718147 0
-14.49039 55.22531 0.8718147 0
-14.49039 55.27531 0.8718147 0
-14.59039 55.22531 1.221815 0
-14.49039 55.22531 1.221815 0
-14.74039 55.17531 1.271815 0
-14.69039 55.17531 1.271815 0
-14.74039 55.17531 1.621815 0
-14.69039 55.22531 1.621815 0
-14.59039 55.27531 1.271815 0
-14.54039 55.17531 1.271815 0
-14.49039 55.27531 1.271815 0
-14.59039 55.22531 1.621815 0
-14.54039 55.17531 1.621815 0
-14.49039 55.22531 1.621815 0
-14.44039 55.17531 0.8718147 0
-14.34039 55.22531 0.8718147 0
-14.34039 55.27531 0.8718147 0
-14.34039 55.22531 1.221815 0
-14.24039 55.22531 0.8718147 0
-14.19039 55.17531 0.8718147 0
-14.24039 55.27531 0.9218147 0
-14.14039 55.17531 0.8718147 0
-14.09039 55.17531 0.8718147 0
-14.14039 55.27531 0.9218147 0
-14.24039 55.22531 1.221815 0
-14.14039 55.22531 1.221815 0
-14.44039 55.17531 1.271815 0
-14.34039 55.17531 1.271815 0
-14.34039 55.27531 1.271815 0
-14.34039 55.22531 1.621815 0
-14.19039 55.17531 1.271815 0
-14.24039 55.27531 1.271815 0
-14.09039 55.17531 1.271815 0
-14.14039 55.27531 1.271815 0
-14.24039 55.22531 1.621815 0
-14.19039 55.17531 1.621815 0
-14.14039 55.22531 1.621815 0
-14.09039 55.17531 1.621815 0
-14.04039 55.07531 0.1218147 0
-14.04039 55.12531 0.1718147 0
-13.89039 55.07531 0.1218147 0
-13.69039 54.92531 0.1218147 0
-13.84039 54.97531 0.07181472 0
-13.84039 54.97531 0.1218147 0
-13.69039 55.02531 0.07181472 0
-14.04039 55.02531 0.5718147 0
-14.04039 55.07531 0.5218147 0
-14.04039 55.07531 0.5718147 0
-14.04039 55.12531 0.5718147 0
-13.89039 55.02531 0.5718147 0
-13.89039 55.02531 0.6218147 0
-13.89039 55.07531 0.5218147 0
-13.89039 55.07531 0.5718147 0
-13.94039 55.02531 0.6718147 0
-14.04039 55.02531 1.021815 0
-14.04039 55.12531 0.9218147 0
-14.04039 55.07531 0.9718148 0
-13.89039 55.07531 0.9718148 0
-13.89039 55.07531 1.021815 0
-13.89039 55.02531 1.221815 0
-13.89039 55.07531 1.071815 0
-14.04039 55.12531 1.321815 0
-14.04039 55.07531 1.371815 0
-13.94039 55.02531 1.271815 0
-13.89039 55.07531 1.371815 0
-14.04039 55.07531 1.471815 0
-13.89039 55.07531 1.471815 0
-13.89039 55.07531 1.571815 0
-13.99039 55.17531 0.1218147 0
-13.99039 55.22531 0.1218147 0
-13.99039 55.27531 0.1218147 0
-13.94039 55.17531 0.1718147 0
-13.89039 55.37531 0.1218147 0
-13.69039 55.22531 0.1218147 0
-13.69039 55.27531 0.07181472 0
-13.79039 55.42531 0.1218147 0
-13.99039 55.17531 0.5218147 0
-13.99039 55.22531 0.5218147 0
-13.99039 55.27531 0.5218147 0
-13.94039 55.22531 0.5718147 0
-13.89039 55.32531 0.5718147 0
-13.94039 55.27531 0.6718147 0
-13.89039 55.27531 0.6718147 0
-13.89039 55.37531 0.5218147 0
-13.89039 55.52531 0.6718147 0
-13.69039 55.47531 0.5718147 0
-13.89039 55.57531 0.1718147 0
-13.84039 55.57531 0.1218147 0
-13.79039 55.62531 0.1218147 0
-13.74039 55.57531 0.1218147 0
-13.69039 55.57531 0.1218147 0
-13.74039 55.57531 0.1718147 0
-13.84039 55.77531 0.07181472 0
-13.69039 55.82531 0.1218147 0
-13.89039 55.57531 0.5718147 0
-13.89039 55.72531 0.5718147 0
-13.94039 55.57531 0.6718147 0
-13.94039 55.77531 0.5718147 0
-13.79039 55.67531 0.5718147 0
-13.74039 55.67531 0.5718147 0
-13.74039 55.72531 0.5718147 0
-13.69039 55.62531 0.6718147 0
-13.84039 55.77531 0.5218147 0
-13.79039 55.82531 0.5218147 0
-13.79039 55.77531 0.5718147 0
-13.74039 55.82531 0.5218147 0
-13.69039 55.82531 0.5718147 0
-13.64039 55.47531 0.1218147 0
-13.64039 55.72531 0.07181472 0
-13.64039 55.77531 0.1218147 0
-13.64039 55.82531 0.1218147 0
-13.64039 55.92531 0.1218147 0
-13.59039 55.87531 0.1218147 0
-13.54039 55.82531 0.1218147 0
-13.49039 55.77531 0.1218147 0
-13.49039 55.82531 0.1218147 0
-13.49039 55.87531 0.1218147 0
-13.49039 55.92531 0.1218147 0
-13.44039 55.77531 0.07181472 0
-13.44039 55.82531 0.1218147 0
-13.39039 55.92531 0.1218147 0
-13.34039 55.77531 0.1218147 0
-13.29039 55.82531 0.1218147 0
-13.34039 55.87531 0.1218147 0
-13.54039 55.67531 0.6718147 0
-13.64039 55.77531 0.5718147 0
-13.59039 55.77531 0.5718147 0
-13.64039 55.92531 0.5218147 0
-13.59039 55.87531 0.5218147 0
-13.49039 55.77531 0.5718147 0
-13.49039 55.82531 0.5718147 0
-13.49039 55.87531 0.5218147 0
-13.49039 55.92531 0.5218147 0
-13.54039 55.87531 0.5718147 0
-13.44039 55.72531 0.5718147 0
-13.29039 55.67531 0.6218147 0
-13.44039 55.62531 0.6718147 0
-13.44039 55.82531 0.5718147 0
-13.39039 55.92531 0.5218147 0
-13.34039 55.77531 0.5218147 0
-13.34039 55.77531 0.5718147 0
-13.29039 55.82531 0.5718147 0
-13.34039 55.87531 0.5218147 0
-14.04039 55.22531 0.8718147 0
-13.99039 55.17531 0.8718147 0
-13.99039 55.27531 0.9218147 0
-13.94039 55.17531 0.9718148 0
-13.89039 55.27531 1.021815 0
-13.89039 55.32531 1.071815 0
-13.89039 55.27531 1.221815 0
-13.89039 55.37531 0.9718148 0
-13.89039 55.52531 1.221815 0
-13.99039 55.17531 1.271815 0
-13.99039 55.22531 1.271815 0
-13.99039 55.27531 1.271815 0
-13.94039 55.22531 1.321815 0
-13.94039 55.27531 1.271815 0
-14.04039 55.17531 1.621815 0
-13.99039 55.17531 1.621815 0
-13.89039 55.32531 1.471815 0
-13.89039 55.32531 1.621815 0
-13.89039 55.37531 1.421815 0
-13.69039 55.47531 1.271815 0
-13.89039 55.57531 1.021815 0
-13.89039 55.57531 1.121815 0
-13.94039 55.82531 0.9718148 0
-13.89039 55.77531 0.9718148 0
-13.79039 55.67531 1.021815 0
-13.79039 55.72531 0.9718148 0
-13.74039 55.72531 0.9718148 0
-13.69039 55.62531 1.221815 0
-13.74039 55.67531 1.121815 0
-13.84039 55.77531 0.9218147 0
-13.79039 55.82531 0.9218147 0
-13.74039 55.82531 0.9218147 0
-13.69039 55.87531 0.9718148 0
-13.94039 55.57531 1.321815 0
-13.89039 55.57531 1.471815 0
-13.89039 55.57531 1.621815 0
-13.94039 55.82531 1.421815 0
-13.89039 55.77531 1.421815 0
-13.69039 55.62531 1.271815 0
-13.74039 55.72531 1.421815 0
-13.79039 55.67531 1.471815 0
-13.74039 55.67531 1.621815 0
-13.84039 55.77531 1.321815 0
-13.79039 55.82531 1.321815 0
-13.79039 55.77531 1.371815 0
-13.74039 55.77531 1.321815 0
-13.69039 55.87531 1.421815 0
-13.54039 55.67531 1.221815 0
-13.64039 55.77531 1.021815 0
-13.64039 55.82531 0.9718148 0
-13.64039 55.92531 0.9218147 0
-13.59039 55.87531 0.9218147 0
-13.54039 55.82531 0.9718148 0
-13.49039 55.77531 1.021815 0
-13.49039 55.82531 0.9718148 0
-13.49039 55.87531 0.9218147 0
-13.49039 55.92531 0.9218147 0
-13.64039 55.77531 1.121815 0
-13.44039 55.72531 1.121815 0
-13.29039 55.67531 1.221815 0
-13.39039 55.82531 0.9718148 0
-13.39039 55.92531 0.9218147 0
-13.34039 55.77531 1.021815 0
-13.34039 55.82531 0.9718148 0
-13.29039 55.82531 0.9718148 0
-13.34039 55.87531 0.9218147 0
-13.64039 55.82531 1.421815 0
-13.64039 55.92531 1.321815 0
-13.59039 55.92531 1.321815 0
-13.49039 55.82531 1.421815 0
-13.49039 55.87531 1.321815 0
-13.49039 55.92531 1.321815 0
-13.54039 55.87531 1.371815 0
-13.64039 55.77531 1.471815 0
-13.64039 55.77531 1.621815 0
-13.49039 55.77531 1.471815 0
-13.44039 55.62531 1.271815 0
-13.44039 55.72531 1.621815 0
-13.44039 55.82531 1.271815 0
-13.39039 55.92531 1.321815 0
-13.44039 55.87531 1.371815 0
-13.34039 55.82531 1.421815 0
-13.29039 55.82531 1.371815 0
-13.34039 55.92531 1.321815 0
-13.34039 55.77531 1.471815 0
-14.79039 54.92531 1.871815 0
-14.69039 54.92531 1.971815 0
-14.79039 55.07531 1.771815 0
-14.74039 55.02531 1.821815 0
-14.69039 55.12531 1.771815 0
-14.84039 54.97531 1.971815 0
-14.84039 55.12531 1.971815 0
-14.79039 55.12531 2.021815 0
-14.59039 54.97531 1.821815 0
-14.64039 55.12531 1.821815 0
-14.54039 55.12531 1.771815 0
-14.49039 55.12531 1.821815 0
-14.64039 54.97531 1.971815 0
-14.54039 55.07531 1.971815 0
-14.79039 54.97531 2.171815 0
-14.79039 55.07531 2.171815 0
-14.69039 55.12531 2.171815 0
-14.79039 55.07531 2.271815 0
-14.74039 55.07531 2.421815 0
-14.64039 55.02531 2.171815 0
-14.49039 55.02531 2.121815 0
-14.54039 55.12531 2.171815 0
-14.64039 55.12531 2.271815 0
-14.49039 55.12531 2.271815 0
-14.54039 55.07531 2.421815 0
-14.39039 54.92531 1.921815 0
-14.44039 55.12531 1.771815 0
-14.34039 54.97531 1.821815 0
-14.34039 55.12531 1.821815 0
-14.29039 55.12531 1.771815 0
-14.39039 55.07531 1.921815 0
-14.09039 54.87531 1.921815 0
-14.19039 55.12531 1.721815 0
-14.19039 55.07531 1.821815 0
-14.09039 54.97531 1.821815 0
-14.19039 55.07531 1.921815 0
-14.44039 55.12531 2.171815 0
-14.29039 55.12531 2.171815 0
-14.39039 55.07531 2.421815 0
-14.34039 54.97531 2.421815 0
-14.34039 55.07531 2.271815 0
-14.24039 55.02531 2.121815 0
-14.19039 55.12531 2.121815 0
-14.19039 55.07531 2.271815 0
-14.19039 55.07531 2.371815 0
-14.09039 54.97531 2.421815 0
-14.69039 54.92531 2.621815 0
-14.79039 55.12531 2.571815 0
-14.69039 55.12531 2.571815 0
-14.79039 55.12531 2.721815 0
-14.69039 55.02531 2.671815 0
-14.59039 54.97531 2.471815 0
-14.54039 55.12531 2.571815 0
-14.64039 55.12531 2.721815 0
-14.49039 55.02531 2.671815 0
-14.49039 55.07531 2.721815 0
-14.74039 55.07531 2.921815 0
-14.69039 55.12531 3.021815 0
-14.79039 55.12531 3.171815 0
-14.69039 55.02531 3.221815 0
-14.54039 55.07531 2.871815 0
-14.59039 54.97531 3.071815 0
-14.64039 55.12531 3.171815 0
-14.49039 55.07531 3.171815 0
-14.39039 54.92531 2.571815 0
-14.44039 55.12531 2.571815 0
-14.29039 55.12531 2.571815 0
-14.34039 55.07531 2.721815 0
-14.09039 54.87531 2.521815 0
-14.24039 55.02531 2.621815 0
-14.19039 55.12531 2.571815 0
-14.19039 55.07531 2.671815 0
-14.39039 54.92531 3.221815 0
-14.39039 55.07531 2.871815 0
-14.44039 55.12531 2.971815 0
-14.34039 54.97531 3.021815 0
-14.29039 55.12531 2.971815 0
-14.44039 55.02531 3.171815 0
-14.34039 55.12531 3.171815 0
-14.09039 54.92531 3.171815 0
-14.19039 55.07531 2.871815 0
-14.19039 55.12531 2.971815 0
-14.09039 54.97531 2.971815 0
-14.24039 55.02531 3.171815 0
-14.19039 55.12531 3.121815 0
-14.69039 55.17531 1.671815 0
-14.74039 55.17531 2.021815 0
-14.69039 55.17531 2.021815 0
-14.69039 55.22531 1.971815 0
-14.59039 55.27531 1.671815 0
-14.49039 55.27531 1.671815 0
-14.59039 55.22531 1.971815 0
-14.59039 55.27531 2.021815 0
-14.54039 55.17531 2.021815 0
-14.49039 55.22531 1.971815 0
-14.49039 55.27531 2.021815 0
-14.84039 55.22531 2.371815 0
-14.79039 55.17531 2.421815 0
-14.84039 55.27531 2.421815 0
-14.69039 55.17531 2.421815 0
-14.69039 55.22531 2.371815 0
-14.74039 55.27531 2.421815 0
-14.59039 55.22531 2.371815 0
-14.59039 55.27531 2.421815 0
-14.54039 55.17531 2.421815 0
-14.49039 55.22531 2.371815 0
-14.49039 55.27531 2.421815 0
-14.44039 55.17531 1.671815 0
-14.39039 55.27531 1.671815 0
-14.44039 55.17531 2.021815 0
-14.34039 55.17531 2.021815 0
-14.34039 55.22531 1.971815 0
-14.34039 55.27531 2.021815 0
-14.24039 55.27531 1.671815 0
-14.09039 55.27531 1.671815 0
-14.24039 55.22531 1.971815 0
-14.19039 55.17531 2.021815 0
-14.14039 55.22531 2.021815 0
-14.09039 55.17531 2.021815 0
-14.44039 55.17531 2.421815 0
-14.34039 55.17531 2.421815 0
-14.34039 55.22531 2.371815 0
-14.34039 55.27531 2.421815 0
-14.24039 55.27531 2.071815 0
-14.09039 55.27531 2.071815 0
-14.24039 55.22531 2.371815 0
-14.19039 55.17531 2.421815 0
-14.24039 55.27531 2.421815 0
-14.14039 55.17531 2.371815 0
-14.09039 55.17531 2.421815 0
-14.84039 55.22531 2.771815 0
-14.79039 55.17531 2.821815 0
-14.84039 55.27531 2.771815 0
-14.69039 55.17531 2.821815 0
-14.69039 55.22531 2.771815 0
-14.74039 55.27531 2.821815 0
-14.59039 55.22531 2.771815 0
-14.59039 55.27531 2.821815 0
-14.54039 55.17531 2.821815 0
-14.49039 55.22531 2.771815 0
-14.49039 55.27531 2.821815 0
-14.79039 55.17531 3.021815 0
-14.84039 55.22531 3.121815 0
-14.79039 55.17531 3.221815 0
-14.84039 55.27531 3.171815 0
-14.69039 55.22531 3.121815 0
-14.69039 55.17531 3.221815 0
-14.74039 55.27531 3.221815 0
-14.54039 55.17531 2.971815 0
-14.59039 55.22531 3.171815 0
-14.59039 55.27531 3.221815 0
-14.54039 55.17531 3.221815 0
-14.49039 55.22531 3.171815 0
-14.49039 55.27531 3.221815 0
-14.44039 55.17531 2.821815 0
-14.39039 55.27531 2.821815 0
-14.34039 55.17531 2.821815 0
-14.34039 55.22531 2.771815 0
-14.09039 55.27531 2.471815 0
-14.24039 55.22531 2.771815 0
-14.19039 55.17531 2.821815 0
-14.24039 55.27531 2.821815 0
-14.14039 55.22531 2.771815 0
-14.09039 55.17531 2.821815 0
-14.44039 55.17531 3.221815 0
-14.34039 55.17531 3.221815 0
-14.34039 55.22531 3.171815 0
-14.34039 55.27531 3.221815 0
-14.09039 55.27531 2.871815 0
-14.24039 55.22531 3.171815 0
-14.19039 55.17531 3.221815 0
-14.24039 55.27531 3.221815 0
-14.14039 55.22531 3.171815 0
-14.09039 55.17531 3.221815 0
-14.04039 55.12531 1.721815 0
-14.04039 55.07531 1.821815 0
-13.89039 55.02531 1.821815 0
-13.89039 55.07531 1.821815 0
-14.04039 55.07531 1.921815 0
-13.94039 55.02531 1.921815 0
-13.89039 55.07531 1.921815 0
-14.04039 55.02531 2.121815 0
-14.04039 55.12531 2.121815 0
-14.04039 55.07531 2.221815 0
-13.89039 55.07531 2.071815 0
-13.89039 55.07531 2.221815 0
-14.04039 55.07531 2.371815 0
-13.89039 55.02531 2.371815 0
-13.89039 55.07531 2.371815 0
-14.04039 55.02531 2.621815 0
-14.04039 55.12531 2.571815 0
-13.94039 55.02531 2.521815 0
-13.89039 55.07531 2.621815 0
-14.04039 55.07531 2.671815 0
-14.04039 55.07531 2.821815 0
-13.89039 55.07531 2.671815 0
-13.89039 55.07531 2.821815 0
-13.74039 55.12531 2.521815 0
-14.04039 55.12531 2.971815 0
-13.89039 55.02531 2.971815 0
-14.04039 55.02531 3.121815 0
-14.04039 55.07531 3.121815 0
-13.94039 55.02531 3.171815 0
-13.89039 55.07531 3.121815 0
-13.99039 55.27531 1.671815 0
-13.94039 55.17531 1.721815 0
-13.89039 55.27531 1.821815 0
-13.99039 55.17531 2.021815 0
-13.94039 55.27531 1.921815 0
-13.89039 55.32531 1.921815 0
-13.89039 55.42531 1.821815 0
-13.89039 55.52531 1.821815 0
-13.84039 55.47531 2.021815 0
-13.99039 55.27531 2.071815 0
-13.94039 55.22531 2.171815 0
-13.89039 55.32531 2.121815 0
-13.99039 55.17531 2.421815 0
-13.99039 55.22531 2.371815 0
-13.89039 55.32531 2.371815 0
-13.89039 55.42531 2.271815 0
-13.89039 55.52531 2.421815 0
-13.84039 55.32531 2.171815 0
-13.69039 55.27531 2.071815 0
-13.79039 55.17531 2.371815 0
-13.69039 55.22531 2.371815 0
-13.69039 55.27531 2.271815 0
-13.84039 55.42531 2.071815 0
-13.79039 55.47531 2.121815 0
-13.74039 55.42531 2.071815 0
-13.74039 55.37531 2.171815 0
-13.84039 55.37531 2.421815 0
-13.94039 55.57531 1.921815 0
-13.89039 55.57531 1.971815 0
-13.94039 55.82531 1.821815 0
-13.89039 55.77531 1.871815 0
-13.69039 55.62531 1.821815 0
-13.69039 55.62531 1.921815 0
-13.74039 55.72531 1.871815 0
-13.74039 55.67531 1.971815 0
-13.84039 55.77531 1.721815 0
-13.79039 55.82531 1.721815 0
-13.79039 55.77531 1.821815 0
-13.74039 55.82531 1.721815 0
-13.69039 55.87531 1.821815 0
-13.69039 55.57531 2.121815 0
-13.79039 55.67531 2.421815 0
-13.69039 55.87531 2.221815 0
-13.74039 55.82531 2.321815 0
-13.54039 55.67531 1.821815 0
-13.49039 55.57531 1.971815 0
-13.64039 55.92531 1.721815 0
-13.59039 55.87531 1.721815 0
-13.54039 55.82531 1.821815 0
-13.49039 55.87531 1.721815 0
-13.49039 55.92531 1.721815 0
-13.64039 55.82531 1.871815 0
-13.64039 55.77531 1.971815 0
-13.49039 55.82531 1.871815 0
-13.49039 55.77531 1.971815 0
-13.29039 55.67531 1.821815 0
-13.44039 55.62531 1.921815 0
-13.39039 55.82531 1.821815 0
-13.39039 55.92531 1.721815 0
-13.34039 55.87531 1.721815 0
-13.29039 55.87531 1.821815 0
-13.34039 55.77531 1.921815 0
-13.34039 55.82531 1.871815 0
-13.54039 55.67531 2.421815 0
-13.64039 55.77531 2.121815 0
-13.64039 55.92531 2.121815 0
-13.59039 55.87531 2.121815 0
-13.49039 55.87531 2.121815 0
-13.49039 55.92531 2.121815 0
-13.54039 55.87531 2.221815 0
-13.59039 55.82531 2.321815 0
-13.64039 55.77531 2.421815 0
-13.49039 55.82531 2.321815 0
-13.49039 55.77531 2.421815 0
-13.29039 55.67531 2.421815 0
-13.44039 55.77531 2.121815 0
-13.39039 55.82531 2.221815 0
-13.39039 55.92531 2.121815 0
-13.29039 55.82531 2.221815 0
-13.34039 55.87531 2.121815 0
-13.34039 55.82531 2.321815 0
-13.34039 55.77531 2.421815 0
-13.99039 55.27531 2.471815 0
-13.94039 55.17531 2.571815 0
-13.89039 55.32531 2.621815 0
-13.99039 55.17531 2.821815 0
-13.99039 55.22531 2.771815 0
-13.89039 55.37531 2.721815 0
-13.69039 55.32531 2.621815 0
-13.84039 55.37531 2.471815 0
-13.84039 55.42531 2.571815 0
-13.79039 55.47531 2.521815 0
-13.74039 55.37531 2.471815 0
-13.74039 55.42531 2.571815 0
-13.69039 55.52531 2.471815 0
-13.99039 55.27531 2.871815 0
-13.94039 55.17531 2.971815 0
-13.89039 55.32531 2.871815 0
-13.89039 55.27531 3.021815 0
-13.99039 55.17531 3.221815 0
-13.99039 55.22531 3.171815 0
-13.94039 55.27531 3.221815 0
-13.89039 55.32531 3.171815 0
-13.89039 55.52531 3.021815 0
-13.89039 55.37531 3.171815 0
-13.89039 55.52531 3.221815 0
-13.84039 55.62531 2.771815 0
-13.69039 55.62531 2.771815 0
-13.84039 55.77531 2.471815 0
-13.89039 55.57531 3.171815 0
-13.89039 55.72531 3.221815 0
-13.89039 55.87531 3.221815 0
-13.84039 55.57531 2.921815 0
-13.84039 55.87531 2.971815 0
-13.69039 55.82531 2.921815 0
-13.84039 55.77531 3.071815 0
-13.59039 55.27531 2.571815 0
-13.54039 55.17531 2.521815 0
-13.64039 55.47531 2.471815 0
-13.64039 55.47531 2.521815 0
-13.59039 55.52531 2.471815 0
-13.49039 55.47531 2.471815 0
-13.44039 55.22531 2.571815 0
-13.44039 55.32531 2.571815 0
-13.34039 55.27531 2.571815 0
-13.39039 55.47531 2.471815 0
-13.34039 55.47531 2.471815 0
-13.54039 55.57531 2.721815 0
-13.39039 55.57531 2.721815 0
-13.49039 55.82531 2.921815 0
-13.29039 55.67531 2.871815 0
-13.39039 55.92531 2.971815 0
-13.34039 55.87531 2.971815 0
-13.04039 55.47531 0.6718147 0
-13.24039 55.72531 0.07181472 0
-13.19039 55.77531 0.1218147 0
-13.24039 55.87531 0.1218147 0
-13.24039 55.92531 0.1218147 0
-13.14039 55.82531 0.1218147 0
-13.14039 55.87531 0.1218147 0
-13.14039 55.92531 0.1218147 0
-13.04039 55.72531 0.07181472 0
-12.89039 55.72531 0.07181472 0
-13.04039 55.77531 0.1218147 0
-13.04039 55.82531 0.1218147 0
-12.99039 55.87531 0.1218147 0
-12.99039 55.92531 0.1218147 0
-12.89039 55.77531 0.1218147 0
-12.89039 55.82531 0.1218147 0
-12.89039 55.87531 0.1218147 0
-12.89039 55.92531 0.1218147 0
-13.09039 55.72531 0.5718147 0
-13.14039 55.62531 0.6718147 0
-13.19039 55.82531 0.5218147 0
-13.24039 55.77531 0.5718147 0
-13.19039 55.77531 0.5718147 0
-13.24039 55.87531 0.5218147 0
-13.24039 55.92531 0.5218147 0
-13.19039 55.92531 0.5718147 0
-13.14039 55.87531 0.5218147 0
-13.14039 55.92531 0.5218147 0
-13.14039 55.87531 0.5718147 0
-13.04039 55.67531 0.6218147 0
-12.89039 55.57531 0.6218147 0
-12.89039 55.72531 0.5718147 0
-13.04039 55.82531 0.5218147 0
-13.04039 55.77531 0.5718147 0
-13.04039 55.82531 0.5718147 0
-12.99039 55.87531 0.5218147 0
-12.99039 55.92531 0.5218147 0
-12.89039 55.82531 0.5218147 0
-12.89039 55.82531 0.5718147 0
-12.89039 55.87531 0.5218147 0
-12.89039 55.92531 0.5218147 0
-12.74039 55.42531 0.6718147 0
-12.79039 55.67531 0.07181472 0
-12.69039 55.72531 0.07181472 0
-12.84039 55.77531 0.1218147 0
-12.79039 55.82531 0.1218147 0
-12.69039 55.77531 0.1218147 0
-12.74039 55.87531 0.1218147 0
-12.74039 55.92531 0.1218147 0
-12.59039 55.67531 0.07181472 0
-12.54039 55.72531 0.07181472 0
-12.54039 55.72531 0.1218147 0
-12.64039 55.77531 0.1218147 0
-12.64039 55.82531 0.1218147 0
-12.64039 55.87531 0.1218147 0
-12.59039 55.92531 0.1218147 0
-12.54039 55.82531 0.1218147 0
-12.49039 55.77531 0.1218147 0
-12.49039 55.87531 0.1218147 0
-12.49039 55.92531 0.1218147 0
-12.84039 55.67531 0.6218147 0
-12.84039 55.72531 0.5718147 0
-12.69039 55.72531 0.5718147 0
-12.79039 55.77531 0.5218147 0
-12.79039 55.82531 0.5718147 0
-12.79039 55.87531 0.5718147 0
-12.74039 55.77531 0.5718147 0
-12.74039 55.87531 0.5218147 0
-12.74039 55.92531 0.5218147 0
-12.59039 55.57531 0.6218147 0
-12.59039 55.67531 0.6218147 0
-12.54039 55.72531 0.5718147 0
-12.64039 55.77531 0.5218147 0
-12.64039 55.82531 0.5718147 0
-12.64039 55.87531 0.5218147 0
-12.59039 55.92531 0.5218147 0
-12.49039 55.77531 0.5218147 0
-12.54039 55.77531 0.5718147 0
-12.54039 55.82531 0.5718147 0
-12.49039 55.87531 0.5218147 0
-12.49039 55.92531 0.5218147 0
-13.04039 55.47531 1.371815 0
-13.24039 55.72531 1.071815 0
-13.09039 55.72531 1.071815 0
-13.19039 55.77531 1.021815 0
-13.19039 55.82531 0.9718148 0
-13.24039 55.87531 0.9218147 0
-13.24039 55.92531 0.9218147 0
-13.14039 55.82531 0.9718148 0
-13.14039 55.87531 0.9218147 0
-13.14039 55.92531 0.9218147 0
-13.04039 55.67531 1.221815 0
-12.89039 55.72531 1.071815 0
-13.04039 55.77531 0.9718148 0
-13.04039 55.77531 1.021815 0
-13.04039 55.82531 0.9718148 0
-12.99039 55.87531 0.9218147 0
-12.99039 55.92531 0.9218147 0
-12.89039 55.82531 0.9718148 0
-12.89039 55.87531 0.9218147 0
-13.14039 55.62531 1.271815 0
-13.24039 55.72531 1.621815 0
-13.19039 55.82531 1.421815 0
-13.24039 55.87531 1.321815 0
-13.24039 55.92531 1.321815 0
-13.19039 55.92531 1.271815 0
-13.14039 55.82531 1.371815 0
-13.14039 55.92531 1.321815 0
-13.09039 55.87531 1.321815 0
-13.19039 55.77531 1.471815 0
-12.89039 55.62531 1.271815 0
-13.04039 55.72531 1.571815 0
-12.89039 55.72531 1.571815 0
-13.04039 55.77531 1.421815 0
-13.04039 55.82531 1.371815 0
-12.99039 55.87531 1.321815 0
-12.99039 55.92531 1.321815 0
-12.89039 55.77531 1.421815 0
-12.89039 55.82531 1.371815 0
-12.89039 55.87531 1.321815 0
-12.89039 55.92531 1.321815 0
-12.99039 55.77531 1.471815 0
-12.74039 55.42531 1.371815 0
-12.69039 55.72531 1.021815 0
-12.84039 55.67531 1.221815 0
-12.69039 55.72531 1.071815 0
-12.84039 55.77531 1.021815 0
-12.79039 55.77531 0.9718148 0
-12.79039 55.82531 0.9718148 0
-12.84039 55.92531 0.9218147 0
-12.74039 55.87531 0.9218147 0
-12.74039 55.92531 0.9218147 0
-12.59039 55.67531 1.221815 0
-12.54039 55.72531 1.071815 0
-12.64039 55.77531 0.9718148 0
-12.64039 55.82531 0.9718148 0
-12.64039 55.87531 0.9218147 0
-12.59039 55.87531 0.9218147 0
-12.54039 55.77531 1.021815 0
-12.54039 55.82531 0.9718148 0
-12.49039 55.82531 0.9718148 0
-12.49039 55.87531 0.9218147 0
-12.49039 55.92531 0.9218147 0
-12.69039 55.72531 1.571815 0
-12.79039 55.77531 1.421815 0
-12.79039 55.82531 1.371815 0
-12.79039 55.87531 1.271815 0
-12.74039 55.87531 1.321815 0
-12.74039 55.92531 1.321815 0
-12.84039 55.77531 1.471815 0
-12.69039 55.77531 1.471815 0
-12.64039 55.62531 1.271815 0
-12.54039 55.72531 1.571815 0
-12.64039 55.77531 1.421815 0
-12.64039 55.82531 1.371815 0
-12.64039 55.87531 1.321815 0
-12.59039 55.92531 1.321815 0
-12.54039 55.82531 1.371815 0
-12.49039 55.77531 1.421815 0
-12.49039 55.87531 1.321815 0
-12.49039 55.92531 1.321815 0
-12.54039 55.77531 1.471815 0
-12.29039 55.52531 0.6218147 0
-12.39039 55.37531 0.6718147 0
-12.09039 55.37531 0.6718147 0
-12.34039 55.62531 0.07181472 0
-12.34039 55.67531 0.07181472 0
-12.34039 55.72531 0.1218147 0
-12.44039 55.77531 0.1218147 0
-12.39039 55.77531 0.1218147 0
-12.39039 55.82531 0.1218147 0
-12.34039 55.87531 0.1218147 0
-12.24039 55.67531 0.1218147 0
-12.24039 55.72531 0.1218147 0
-12.14039 55.62531 0.07181472 0
-12.14039 55.67531 0.07181472 0
-12.09039 55.67531 0.1218147 0
-12.09039 55.72531 0.1218147 0
-12.24039 55.77531 0.1218147 0
-12.24039 55.82531 0.1218147 0
-12.24039 55.87531 0.1218147 0
-12.14039 55.77531 0.1218147 0
-12.14039 55.82531 0.1218147 0
-12.09039 55.87531 0.1218147 0
-12.34039 55.62531 0.6218147 0
-12.34039 55.72531 0.5218147 0
-12.34039 55.67531 0.5718147 0
-12.39039 55.82531 0.5218147 0
-12.39039 55.77531 0.5718147 0
-12.44039 55.87531 0.5718147 0
-12.34039 55.87531 0.5218147 0
-12.19039 55.72531 0.5218147 0
-12.24039 55.72531 0.5718147 0
-12.14039 55.62531 0.6218147 0
-12.09039 55.72531 0.5218147 0
-12.14039 55.67531 0.5718147 0
-12.09039 55.72531 0.5718147 0
-12.24039 55.82531 0.5218147 0
-12.24039 55.77531 0.5718147 0
-12.24039 55.87531 0.5218147 0
-12.14039 55.82531 0.5218147 0
-12.14039 55.77531 0.5718147 0
-12.09039 55.87531 0.5218147 0
-12.04039 55.52531 0.6218147 0
-11.84039 55.52531 0.6218147 0
-11.79039 55.37531 0.6718147 0
-11.99039 55.67531 0.07181472 0
-11.89039 55.62531 0.07181472 0
-11.94039 55.67531 0.1218147 0
-11.94039 55.72531 0.1218147 0
-11.99039 55.77531 0.1218147 0
-11.99039 55.82531 0.1218147 0
-11.89039 55.77531 0.1218147 0
-11.89039 55.82531 0.1218147 0
-11.94039 55.87531 0.1218147 0
-11.84039 55.72531 0.1218147 0
-11.79039 55.67531 0.07181472 0
-11.79039 55.67531 0.1218147 0
-11.69039 55.62531 0.07181472 0
-11.69039 55.72531 0.1218147 0
-11.84039 55.87531 0.1218147 0
-11.74039 55.77531 0.1218147 0
-11.74039 55.82531 0.1218147 0
-11.69039 55.87531 0.1218147 0
-11.99039 55.67531 0.5718147 0
-11.89039 55.62531 0.6218147 0
-11.94039 55.72531 0.5218147 0
-11.94039 55.72531 0.5718147 0
-11.99039 55.82531 0.5218147 0
-12.04039 55.82531 0.5718147 0
-11.99039 55.77531 0.5718147 0
-11.99039 55.82531 0.5718147 0
-11.89039 55.82531 0.5218147 0
-11.89039 55.77531 0.5718147 0
-11.94039 55.87531 0.5218147 0
-11.79039 55.67531 0.5218147 0
-11.79039 55.72531 0.5218147 0
-11.79039 55.67531 0.5718147 0
-11.69039 55.62531 0.6218147 0
-11.69039 55.72531 0.5218147 0
-11.84039 55.87531 0.5218147 0
-11.74039 55.82531 0.5218147 0
-11.74039 55.77531 0.5718147 0
-11.69039 55.82531 0.5718147 0
-11.69039 55.87531 0.5218147 0
-12.29039 55.52531 1.221815 0
-12.39039 55.37531 1.371815 0
-12.09039 55.37531 1.321815 0
-12.34039 55.72531 0.9718148 0
-12.34039 55.62531 1.171815 0
-12.29039 55.67531 1.071815 0
-12.39039 55.82531 0.9218147 0
-12.39039 55.77531 0.9718148 0
-12.39039 55.77531 1.021815 0
-12.34039 55.87531 0.9218147 0
-12.44039 55.87531 1.221815 0
-12.24039 55.72531 0.9718148 0
-12.19039 55.72531 0.9718148 0
-12.09039 55.72531 0.9718148 0
-12.14039 55.62531 1.171815 0
-12.14039 55.67531 1.071815 0
-12.24039 55.82531 0.9218147 0
-12.24039 55.77531 0.9718148 0
-12.24039 55.87531 0.9218147 0
-12.14039 55.82531 0.9218147 0
-12.14039 55.77531 0.9718148 0
-12.09039 55.87531 0.9218147 0
-12.34039 55.72531 1.371815 0
-12.34039 55.67531 1.571815 0
-12.39039 55.82531 1.321815 0
-12.39039 55.77531 1.371815 0
-12.39039 55.77531 1.421815 0
-12.34039 55.87531 1.321815 0
-12.24039 55.67531 1.421815 0
-12.19039 55.72531 1.371815 0
-12.09039 55.72531 1.371815 0
-12.09039 55.72531 1.421815 0
-12.14039 55.67531 1.521815 0
-12.24039 55.82531 1.321815 0
-12.24039 55.77531 1.371815 0
-12.24039 55.87531 1.321815 0
-12.14039 55.82531 1.321815 0
-12.09039 55.82531 1.321815 0
-12.14039 55.77531 1.371815 0
-12.04039 55.52531 1.221815 0
-11.79039 55.52531 1.221815 0
-11.79039 55.37531 1.321815 0
-11.94039 55.72531 0.9718148 0
-11.99039 55.67531 1.071815 0
-11.89039 55.62531 1.171815 0
-11.99039 55.82531 0.9218147 0
-11.99039 55.77531 0.9718148 0
-11.89039 55.82531 0.9218147 0
-11.89039 55.77531 0.9718148 0
-11.94039 55.87531 0.9218147 0
-11.99039 55.82531 1.221815 0
-11.79039 55.67531 0.9718148 0
-11.79039 55.67531 1.021815 0
-11.79039 55.72531 0.9718148 0
-11.69039 55.72531 0.9718148 0
-11.69039 55.62531 1.171815 0
-11.84039 55.87531 0.9218147 0
-11.74039 55.82531 0.9218147 0
-11.74039 55.77531 0.9718148 0
-11.69039 55.87531 0.9218147 0
-11.94039 55.67531 1.421815 0
-11.94039 55.72531 1.371815 0
-11.99039 55.67531 1.521815 0
-12.04039 55.82531 1.271815 0
-11.99039 55.82531 1.321815 0
-11.99039 55.77531 1.371815 0
-11.89039 55.82531 1.321815 0
-11.89039 55.77531 1.371815 0
-11.94039 55.87531 1.371815 0
-11.79039 55.72531 1.371815 0
-11.79039 55.72531 1.421815 0
-11.69039 55.72531 1.371815 0
-11.79039 55.67531 1.521815 0
-11.84039 55.87531 1.371815 0
-11.74039 55.82531 1.321815 0
-11.69039 55.82531 1.271815 0
-11.74039 55.77531 1.371815 0
-11.69039 55.87531 1.371815 0
-12.69039 55.12531 2.721815 0
-13.14039 55.62531 1.871815 0
-13.24039 55.87531 1.721815 0
-13.24039 55.92531 1.721815 0
-13.14039 55.82531 1.821815 0
-13.14039 55.87531 1.721815 0
-13.14039 55.92531 1.721815 0
-13.19039 55.77531 1.921815 0
-13.19039 55.82531 1.871815 0
-13.19039 55.92531 1.971815 0
-13.04039 55.67531 1.821815 0
-12.89039 55.62531 1.871815 0
-13.04039 55.82531 1.821815 0
-12.99039 55.87531 1.721815 0
-12.99039 55.92531 1.721815 0
-12.89039 55.77531 1.821815 0
-12.89039 55.82531 1.821815 0
-12.89039 55.87531 1.721815 0
-13.04039 55.77531 1.871815 0
-12.99039 55.77531 1.921815 0
-13.24039 55.72531 2.121815 0
-13.24039 55.87531 2.121815 0
-13.24039 55.92531 2.121815 0
-13.14039 55.82531 2.221815 0
-13.14039 55.92531 2.121815 0
-13.09039 55.87531 2.121815 0
-13.19039 55.82531 2.321815 0
-13.14039 55.77531 2.421815 0
-13.04039 55.72531 2.071815 0
-13.04039 55.67531 2.371815 0
-13.04039 55.82531 2.221815 0
-12.99039 55.87531 2.121815 0
-12.99039 55.92531 2.171815 0
-12.89039 55.77531 2.071815 0
-12.89039 55.82531 2.221815 0
-12.89039 55.87531 2.121815 0
-13.04039 55.82531 2.271815 0
-13.04039 55.77531 2.371815 0
-12.89039 55.77531 2.271815 0
-12.74039 55.42531 2.071815 0
-12.84039 55.67531 1.771815 0
-12.79039 55.77531 1.821815 0
-12.79039 55.82531 1.821815 0
-12.84039 55.92531 1.721815 0
-12.74039 55.87531 1.721815 0
-12.74039 55.92531 1.721815 0
-12.84039 55.77531 1.921815 0
-12.79039 55.92531 1.921815 0
-12.69039 55.77531 1.921815 0
-12.59039 55.67531 1.771815 0
-12.64039 55.62531 1.871815 0
-12.64039 55.77531 1.821815 0
-12.64039 55.82531 1.821815 0
-12.64039 55.87531 1.721815 0
-12.59039 55.92531 1.721815 0
-12.54039 55.82531 1.821815 0
-12.49039 55.77531 1.821815 0
-12.49039 55.87531 1.721815 0
-12.49039 55.92531 1.771815 0
-12.54039 55.77531 1.921815 0
-12.69039 55.72531 2.071815 0
-12.84039 55.67531 2.371815 0
-12.79039 55.82531 2.221815 0
-12.84039 55.92531 2.171815 0
-12.74039 55.87531 2.121815 0
-12.74039 55.92531 2.171815 0
-12.79039 55.77531 2.271815 0
-12.84039 55.77531 2.371815 0
-12.69039 55.77531 2.371815 0
-12.54039 55.72531 2.071815 0
-12.59039 55.67531 2.321815 0
-12.64039 55.82531 2.221815 0
-12.64039 55.87531 2.171815 0
-12.59039 55.92531 2.171815 0
-12.54039 55.82531 2.221815 0
-12.49039 55.87531 2.171815 0
-12.49039 55.92531 2.171815 0
-12.64039 55.82531 2.271815 0
-12.49039 55.77531 2.271815 0
-12.54039 55.77531 2.371815 0
-13.24039 55.17531 2.471815 0
-13.24039 55.22531 2.571815 0
-13.19039 55.32531 2.571815 0
-13.09039 55.17531 2.521815 0
-13.09039 55.27531 2.471815 0
-13.09039 55.32531 2.571815 0
-13.24039 55.47531 2.471815 0
-13.14039 55.47531 2.471815 0
-13.09039 55.47531 2.471815 0
-13.24039 55.52531 2.721815 0
-13.09039 55.47531 2.671815 0
-12.99039 55.27531 2.521815 0
-12.89039 55.22531 2.521815 0
-13.04039 55.42531 2.471815 0
-12.99039 55.47531 2.471815 0
-12.94039 55.37531 2.471815 0
-12.89039 55.42531 2.471815 0
-12.94039 55.47531 2.671815 0
-12.99039 55.72531 2.821815 0
-13.14039 55.67531 2.871815 0
-13.24039 55.87531 2.971815 0
-13.09039 55.87531 2.971815 0
-13.19039 55.92531 3.221815 0
-12.99039 55.62531 2.971815 0
-12.99039 55.87531 2.971815 0
-12.84039 55.32531 2.521815 0
-12.79039 55.27531 2.521815 0
-12.74039 55.32531 2.521815 0
-12.79039 55.42531 2.471815 0
-12.84039 55.47531 2.471815 0
-12.79039 55.52531 2.471815 0
-12.69039 55.42531 2.471815 0
-12.74039 55.47531 2.471815 0
-12.79039 55.47531 2.671815 0
-12.69039 55.42531 2.671815 0
-12.59039 55.27531 2.521815 0
-12.49039 55.27531 2.521815 0
-12.59039 55.47531 2.521815 0
-12.54039 55.42531 2.471815 0
-12.49039 55.37531 2.471815 0
-12.54039 55.42531 2.621815 0
-12.79039 55.67531 2.821815 0
-12.64039 55.62531 2.471815 0
-12.64039 55.62531 2.821815 0
-12.49039 55.57531 2.771815 0
-12.74039 55.57531 2.921815 0
-12.84039 55.87531 2.971815 0
-12.84039 55.87531 3.171815 0
-12.64039 55.72531 2.921815 0
-12.34039 55.07531 2.671815 0
-11.99039 54.97531 2.621815 0
-11.69039 54.97531 2.621815 0
-12.29039 55.52531 1.821815 0
-12.39039 55.42531 2.021815 0
-12.09039 55.37531 2.021815 0
-12.34039 55.62531 1.771815 0
-12.34039 55.72531 1.821815 0
-12.29039 55.67531 2.021815 0
-12.39039 55.82531 1.721815 0
-12.39039 55.82531 1.771815 0
-12.34039 55.87531 1.771815 0
-12.39039 55.77531 1.871815 0
-12.44039 55.87531 1.921815 0
-12.19039 55.72531 1.821815 0
-12.09039 55.62531 1.721815 0
-12.09039 55.72531 1.821815 0
-12.24039 55.72531 1.871815 0
-12.09039 55.72531 1.871815 0
-12.14039 55.67531 2.021815 0
-12.24039 55.82531 1.721815 0
-12.24039 55.77531 1.771815 0
-12.24039 55.87531 1.771815 0
-12.14039 55.82531 1.721815 0
-12.14039 55.77531 1.771815 0
-12.09039 55.87531 1.771815 0
-12.34039 55.62531 2.321815 0
-12.34039 55.72531 2.271815 0
-12.39039 55.82531 2.121815 0
-12.39039 55.77531 2.221815 0
-12.34039 55.87531 2.171815 0
-12.39039 55.77531 2.321815 0
-12.09039 55.72531 2.221815 0
-12.24039 55.67531 2.321815 0
-12.19039 55.72531 2.271815 0
-12.14039 55.62531 2.321815 0
-12.09039 55.57531 2.421815 0
-12.09039 55.67531 2.321815 0
-12.24039 55.82531 2.121815 0
-12.24039 55.77531 2.221815 0
-12.24039 55.87531 2.171815 0
-12.14039 55.82531 2.121815 0
-12.14039 55.77531 2.221815 0
-12.09039 55.87531 2.171815 0
-12.04039 55.52531 1.821815 0
