# .PCD v0.7 - Point Cloud Data file format
VERSION 0.7
FIELDS x y z intensity
SIZE 4 4 4 4
TYPE F F F F
COUNT 1 1 1 1
WIDTH 1577
HEIGHT 1
VIEWPOINT 0 0 0 1 0 0 0
POINTS 1577
DATA ascii
47.70961 -12.32469 3.121815 0
47.55961 -12.22469 3.121815 0
47.55961 -12.12469 3.171815 0
47.55961 -12.07469 3.221815 0
47.70961 -12.17469 3.171815 0
47.65961 -12.07469 3.171815 0
47.70961 -12.12469 3.171815 0
47.70961 -12.07469 3.171815 0
47.75961 -12.37469 2.921815 0
47.75961 -12.37469 2.971815 0
47.75961 -12.32469 2.921815 0
47.85961 -12.37469 2.971815 0
47.85961 -12.37469 3.021815 0
47.90961 -12.42469 3.021815 0
47.90961 -12.32469 2.921815 0
47.85961 -12.32469 2.971815 0
47.80961 -12.42469 3.071815 0
47.80961 -12.37469 3.121815 0
47.80961 -12.32469 3.121815 0
47.85961 -12.32469 3.121815 0
47.90961 -12.32469 3.121815 0
47.90961 -12.32469 3.171815 0
47.75961 -12.12469 3.171815 0
47.80961 -12.12469 3.171815 0
47.80961 -12.07469 3.171815 0
47.85961 -12.22469 3.121815 0
47.90961 -12.17469 3.121815 0
47.85961 -12.22469 3.171815 0
47.85961 -12.07469 3.171815 0
48.00961 -12.52469 2.521815 0
48.00961 -12.47469 2.521815 0
48.00961 -12.47469 2.571815 0
47.95961 -12.52469 2.821815 0
48.05961 -12.57469 2.771815 0
48.05961 -12.52469 2.721815 0
48.05961 -12.52469 2.821815 0
48.10961 -12.52469 2.821815 0
48.20961 -12.52469 2.521815 0
48.20961 -12.47469 2.571815 0
48.30961 -12.52469 2.471815 0
48.20961 -12.52469 2.821815 0
48.30961 -12.62469 2.771815 0
48.25961 -12.52469 2.671815 0
48.25961 -12.52469 2.821815 0
48.00961 -12.57469 2.871815 0
48.10961 -12.57469 2.871815 0
48.05961 -12.57469 3.071815 0
48.10961 -12.47469 3.171815 0
48.15961 -12.57469 2.871815 0
48.15961 -12.57469 3.021815 0
48.25961 -12.57469 2.871815 0
48.20961 -12.57469 3.171815 0
48.25961 -12.57469 3.071815 0
48.25961 -12.57469 3.121815 0
47.95961 -12.37469 2.571815 0
48.00961 -12.27469 2.521815 0
47.95961 -12.32469 2.571815 0
48.00961 -12.32469 2.571815 0
48.10961 -12.37469 2.571815 0
48.05961 -12.32469 2.471815 0
48.05961 -12.32469 2.571815 0
48.10961 -12.32469 2.571815 0
48.10961 -12.32469 2.621815 0
47.95961 -12.37469 2.671815 0
48.00961 -12.32469 2.721815 0
48.05961 -12.37469 2.671815 0
48.05961 -12.37469 2.721815 0
48.10961 -12.27469 2.721815 0
48.15961 -12.37469 2.621815 0
48.20961 -12.37469 2.571815 0
48.15961 -12.32469 2.521815 0
48.15961 -12.32469 2.571815 0
48.20961 -12.32469 2.571815 0
48.30961 -12.37469 2.621815 0
48.25961 -12.32469 2.471815 0
48.30961 -12.32469 2.521815 0
48.25961 -12.32469 2.571815 0
48.30961 -12.32469 2.571815 0
48.15961 -12.32469 2.721815 0
48.25961 -12.37469 2.671815 0
48.25961 -12.27469 2.721815 0
48.30961 -12.32469 2.721815 0
47.95961 -12.37469 2.921815 0
47.95961 -12.42469 3.021815 0
47.95961 -12.37469 2.971815 0
48.10961 -12.37469 2.921815 0
48.05961 -12.42469 3.021815 0
48.10961 -12.42469 3.021815 0
48.10961 -12.37469 2.971815 0
48.05961 -12.32469 2.971815 0
47.95961 -12.42469 3.121815 0
48.00961 -12.37469 3.071815 0
47.95961 -12.27469 3.121815 0
48.00961 -12.32469 3.121815 0
48.05961 -12.37469 3.121815 0
48.10961 -12.42469 3.121815 0
48.00961 -12.12469 3.121815 0
47.95961 -12.12469 3.171815 0
47.95961 -12.07469 3.221815 0
48.10961 -12.17469 3.121815 0
48.05961 -12.17469 3.171815 0
48.20961 -12.37469 2.921815 0
48.15961 -12.42469 3.021815 0
48.15961 -12.37469 2.971815 0
48.30961 -12.37469 2.921815 0
48.25961 -12.42469 3.021815 0
48.25961 -12.37469 2.971815 0
48.30961 -12.37469 2.971815 0
48.15961 -12.42469 3.071815 0
48.15961 -12.32469 3.121815 0
48.20961 -12.32469 3.171815 0
48.25961 -12.37469 3.121815 0
48.30961 -12.37469 3.171815 0
48.15961 -12.22469 3.171815 0
48.15961 -12.12469 3.121815 0
48.20961 -12.12469 3.121815 0
48.15961 -12.12469 3.221815 0
48.25961 -12.12469 3.121815 0
48.30961 -12.07469 3.121815 0
47.60961 -11.87469 3.221815 0
47.75961 -12.02469 3.121815 0
47.75961 -11.92469 3.221815 0
48.40961 -12.57469 1.671815 0
48.35961 -12.52469 1.671815 0
48.40961 -12.52469 1.821815 0
48.45961 -12.57469 1.671815 0
48.35961 -12.47469 1.921815 0
48.35961 -12.52469 1.971815 0
48.40961 -12.52469 2.021815 0
48.40961 -12.47469 2.021815 0
48.50961 -12.52469 1.921815 0
48.60961 -12.57469 1.671815 0
48.60961 -12.47469 1.721815 0
48.60961 -12.52469 1.771815 0
48.60961 -12.52469 1.821815 0
48.70961 -12.57469 1.771815 0
48.70961 -12.52469 1.671815 0
48.70961 -12.47469 1.721815 0
48.60961 -12.57469 1.971815 0
48.55961 -12.47469 2.021815 0
48.65961 -12.47469 1.921815 0
48.70961 -12.52469 1.921815 0
48.65961 -12.47469 1.971815 0
48.70961 -12.52469 1.971815 0
48.40961 -12.57469 2.221815 0
48.35961 -12.52469 2.071815 0
48.40961 -12.52469 2.071815 0
48.40961 -12.52469 2.171815 0
48.40961 -12.52469 2.221815 0
48.45961 -12.57469 2.071815 0
48.35961 -12.47469 2.371815 0
48.35961 -12.47469 2.421815 0
48.40961 -12.47469 2.371815 0
48.50961 -12.52469 2.421815 0
48.60961 -12.52469 2.071815 0
48.60961 -12.52469 2.121815 0
48.60961 -12.47469 2.121815 0
48.60961 -12.52469 2.221815 0
48.65961 -12.57469 2.071815 0
48.70961 -12.57469 2.071815 0
48.65961 -12.57469 2.171815 0
48.70961 -12.62469 2.221815 0
48.70961 -12.47469 2.121815 0
48.60961 -12.52469 2.421815 0
48.65961 -12.47469 2.271815 0
48.65961 -12.47469 2.371815 0
48.70961 -12.52469 2.421815 0
48.35961 -12.37469 1.771815 0
48.40961 -12.32469 1.721815 0
48.50961 -12.37469 1.771815 0
48.40961 -12.37469 1.921815 0
48.35961 -12.32469 1.871815 0
48.40961 -12.32469 1.871815 0
48.35961 -12.27469 1.971815 0
48.50961 -12.42469 1.921815 0
48.50961 -12.37469 1.921815 0
48.45961 -12.32469 1.871815 0
48.50961 -12.32469 1.871815 0
48.45961 -12.32469 2.021815 0
48.55961 -12.32469 1.721815 0
48.65961 -12.42469 1.771815 0
48.70961 -12.37469 1.771815 0
48.60961 -12.37469 1.921815 0
48.60961 -12.32469 1.871815 0
48.60961 -12.32469 2.021815 0
48.65961 -12.37469 1.871815 0
48.70961 -12.42469 1.871815 0
48.70961 -12.37469 1.921815 0
48.70961 -12.37469 2.021815 0
48.35961 -12.37469 2.171815 0
48.40961 -12.32469 2.121815 0
48.35961 -12.32469 2.221815 0
48.40961 -12.32469 2.221815 0
48.50961 -12.37469 2.171815 0
48.50961 -12.32469 2.221815 0
48.40961 -12.37469 2.271815 0
48.35961 -12.32469 2.371815 0
48.50961 -12.42469 2.271815 0
48.50961 -12.37469 2.271815 0
48.45961 -12.32469 2.271815 0
48.45961 -12.32469 2.371815 0
48.55961 -12.32469 2.171815 0
48.60961 -12.32469 2.221815 0
48.65961 -12.42469 2.071815 0
48.65961 -12.42469 2.221815 0
48.70961 -12.37469 2.171815 0
48.70961 -12.37469 2.221815 0
48.60961 -12.37469 2.271815 0
48.55961 -12.42469 2.371815 0
48.60961 -12.27469 2.371815 0
48.65961 -12.37469 2.321815 0
48.70961 -12.37469 2.271815 0
48.70961 -12.37469 2.421815 0
48.80961 -12.57469 1.671815 0
48.90961 -12.57469 1.721815 0
48.85961 -12.62469 1.771815 0
48.85961 -12.62469 1.821815 0
48.85961 -12.47469 1.721815 0
48.80961 -12.62469 1.971815 0
48.75961 -12.52469 1.971815 0
48.90961 -12.57469 1.971815 0
48.85961 -12.47469 1.871815 0
48.90961 -12.47469 1.871815 0
48.90961 -12.52469 1.971815 0
48.95961 -12.57469 1.671815 0
48.95961 -12.57469 1.721815 0
49.00961 -12.62469 1.771815 0
48.95961 -12.52469 1.721815 0
49.10961 -12.62469 1.771815 0
49.05961 -12.52469 1.671815 0
49.05961 -12.52469 1.721815 0
49.05961 -12.47469 1.821815 0
48.95961 -12.62469 1.971815 0
49.00961 -12.57469 1.971815 0
49.00961 -12.52469 1.971815 0
49.10961 -12.57469 1.971815 0
49.05961 -12.47469 1.871815 0
48.80961 -12.52469 2.071815 0
48.85961 -12.57469 2.121815 0
48.90961 -12.57469 2.071815 0
48.85961 -12.62469 2.171815 0
48.85961 -12.62469 2.221815 0
48.85961 -12.47469 2.121815 0
48.85961 -12.47469 2.221815 0
48.90961 -12.47469 2.221815 0
48.75961 -12.52469 2.371815 0
48.85961 -12.62469 2.421815 0
48.90961 -12.57469 2.371815 0
48.90961 -12.57469 2.421815 0
48.90961 -12.52469 2.371815 0
49.00961 -12.62469 2.171815 0
48.95961 -12.52469 2.071815 0
48.95961 -12.52469 2.121815 0
49.05961 -12.57469 2.071815 0
49.05961 -12.57469 2.121815 0
49.10961 -12.62469 2.121815 0
49.10961 -12.52469 2.071815 0
49.05961 -12.47469 2.171815 0
48.95961 -12.57469 2.271815 0
49.00961 -12.62469 2.421815 0
49.05961 -12.52469 2.321815 0
48.75961 -12.42469 1.771815 0
48.85961 -12.37469 1.671815 0
48.85961 -12.37469 1.771815 0
48.90961 -12.42469 1.771815 0
48.80961 -12.42469 1.871815 0
48.80961 -12.42469 1.921815 0
48.80961 -12.37469 1.871815 0
48.80961 -12.37469 1.921815 0
48.90961 -12.42469 1.871815 0
48.90961 -12.42469 1.921815 0
48.85961 -12.37469 2.021815 0
48.95961 -12.37469 1.671815 0
49.00961 -12.37469 1.771815 0
49.05961 -12.37469 1.671815 0
49.05961 -12.42469 1.821815 0
48.95961 -12.37469 1.871815 0
49.00961 -12.42469 1.871815 0
49.00961 -12.37469 1.921815 0
48.95961 -12.37469 2.021815 0
49.10961 -12.42469 1.871815 0
49.10961 -12.37469 1.921815 0
49.05961 -12.37469 2.021815 0
48.75961 -12.42469 2.221815 0
48.80961 -12.42469 2.221815 0
48.90961 -12.42469 2.071815 0
48.85961 -12.37469 2.171815 0
48.90961 -12.42469 2.221815 0
48.90961 -12.37469 2.221815 0
48.80961 -12.42469 2.271815 0
48.80961 -12.37469 2.271815 0
48.80961 -12.37469 2.321815 0
48.90961 -12.37469 2.271815 0
48.85961 -12.37469 2.421815 0
49.00961 -12.42469 2.221815 0
49.00961 -12.37469 2.171815 0
49.10961 -12.42469 2.071815 0
49.05961 -12.42469 2.221815 0
49.10961 -12.42469 2.221815 0
49.00961 -12.37469 2.271815 0
48.95961 -12.37469 2.371815 0
48.95961 -12.37469 2.421815 0
49.10961 -12.37469 2.271815 0
49.05961 -12.37469 2.421815 0
48.40961 -12.52469 2.471815 0
48.40961 -12.52469 2.571815 0
48.45961 -12.57469 2.471815 0
48.35961 -12.52469 2.671815 0
48.40961 -12.52469 2.671815 0
48.35961 -12.52469 2.771815 0
48.35961 -12.52469 2.821815 0
48.45961 -12.57469 2.821815 0
48.60961 -12.57469 2.471815 0
48.60961 -12.47469 2.521815 0
48.70961 -12.57469 2.471815 0
48.65961 -12.57469 2.621815 0
48.65961 -12.52469 2.471815 0
48.70961 -12.47469 2.521815 0
48.70961 -12.52469 2.621815 0
48.55961 -12.57469 2.821815 0
48.60961 -12.57469 2.821815 0
48.60961 -12.52469 2.671815 0
48.55961 -12.47469 2.771815 0
48.65961 -12.57469 2.721815 0
48.70961 -12.62469 2.671815 0
48.70961 -12.57469 2.821815 0
48.70961 -12.47469 2.721815 0
48.40961 -12.57469 2.871815 0
48.35961 -12.62469 2.971815 0
48.35961 -12.57469 3.121815 0
48.45961 -12.57469 3.121815 0
48.50961 -12.47469 3.071815 0
48.50961 -12.47469 3.171815 0
48.55961 -12.57469 2.871815 0
48.55961 -12.62469 2.971815 0
48.60961 -12.52469 2.921815 0
48.70961 -12.57469 2.921815 0
48.70961 -12.52469 2.921815 0
48.65961 -12.47469 2.971815 0
48.55961 -12.62469 3.071815 0
48.55961 -12.57469 3.121815 0
48.55961 -12.47469 3.121815 0
48.70961 -12.62469 3.071815 0
48.65961 -12.52469 3.121815 0
48.65961 -12.47469 3.071815 0
48.35961 -12.37469 2.621815 0
48.40961 -12.37469 2.621815 0
48.35961 -12.32469 2.571815 0
48.40961 -12.32469 2.571815 0
48.50961 -12.42469 2.621815 0
48.50961 -12.37469 2.621815 0
48.45961 -12.32469 2.521815 0
48.45961 -12.32469 2.571815 0
48.50961 -12.32469 2.571815 0
48.35961 -12.32469 2.771815 0
48.50961 -12.37469 2.771815 0
48.45961 -12.32469 2.771815 0
48.60961 -12.37469 2.571815 0
48.60961 -12.37469 2.621815 0
48.55961 -12.32469 2.571815 0
48.60961 -12.32469 2.571815 0
48.65961 -12.42469 2.621815 0
48.70961 -12.42469 2.571815 0
48.70961 -12.37469 2.571815 0
48.70961 -12.37469 2.621815 0
48.60961 -12.37469 2.771815 0
48.65961 -12.37469 2.771815 0
48.70961 -12.37469 2.771815 0
48.40961 -12.37469 2.921815 0
48.35961 -12.42469 2.971815 0
48.35961 -12.37469 2.971815 0
48.40961 -12.42469 3.021815 0
48.50961 -12.37469 2.921815 0
48.45961 -12.37469 2.971815 0
48.50961 -12.42469 2.971815 0
48.50961 -12.37469 2.971815 0
48.50961 -12.37469 3.021815 0
48.35961 -12.42469 3.071815 0
48.40961 -12.42469 3.171815 0
48.35961 -12.32469 3.121815 0
48.45961 -12.32469 3.121815 0
48.35961 -12.17469 3.121815 0
48.45961 -12.17469 3.121815 0
48.60961 -12.37469 2.921815 0
48.55961 -12.37469 3.021815 0
48.60961 -12.42469 2.971815 0
48.60961 -12.37469 2.971815 0
48.70961 -12.37469 2.921815 0
48.70961 -12.42469 2.971815 0
48.70961 -12.42469 3.021815 0
48.70961 -12.37469 2.971815 0
48.70961 -12.37469 3.021815 0
48.55961 -12.27469 3.121815 0
48.70961 -12.37469 3.121815 0
48.70961 -12.27469 3.121815 0
48.60961 -12.22469 3.221815 0
48.60961 -12.12469 3.121815 0
48.70961 -12.17469 3.121815 0
48.70961 -12.12469 3.221815 0
48.75961 -12.62469 2.471815 0
48.80961 -12.57469 2.471815 0
48.85961 -12.62469 2.621815 0
48.85961 -12.57469 2.621815 0
48.85961 -12.47469 2.471815 0
48.85961 -12.47469 2.571815 0
48.90961 -12.47469 2.571815 0
48.85961 -12.62469 2.671815 0
48.90961 -12.57469 2.721815 0
48.90961 -12.52469 2.721815 0
48.95961 -12.57469 2.471815 0
49.00961 -12.57469 2.621815 0
48.95961 -12.52469 2.521815 0
49.10961 -12.62469 2.471815 0
49.05961 -12.57469 2.621815 0
49.05961 -12.52469 2.471815 0
49.05961 -12.52469 2.521815 0
49.05961 -12.47469 2.521815 0
49.00961 -12.52469 2.721815 0
49.05961 -12.62469 2.671815 0
49.10961 -12.62469 2.671815 0
48.75961 -12.62469 2.921815 0
48.80961 -12.57469 2.871815 0
48.90961 -12.57469 2.921815 0
48.85961 -12.62469 3.021815 0
48.85961 -12.52469 2.921815 0
48.85961 -12.47469 2.921815 0
48.90961 -12.47469 2.971815 0
48.75961 -12.52469 3.121815 0
48.80961 -12.47469 3.071815 0
48.85961 -12.62469 3.071815 0
48.90961 -12.52469 3.121815 0
48.95961 -12.57469 2.871815 0
49.00961 -12.62469 2.921815 0
49.00961 -12.62469 3.021815 0
48.95961 -12.52469 2.921815 0
49.05961 -12.57469 2.871815 0
49.10961 -12.57469 2.921815 0
49.05961 -12.52469 2.921815 0
49.05961 -12.47469 2.871815 0
49.05961 -12.47469 2.921815 0
48.95961 -12.47469 3.121815 0
49.00961 -12.52469 3.071815 0
49.05961 -12.47469 3.121815 0
48.75961 -12.42469 2.621815 0
48.75961 -12.37469 2.571815 0
48.80961 -12.42469 2.571815 0
48.80961 -12.42469 2.621815 0
48.80961 -12.37469 2.621815 0
48.85961 -12.37469 2.621815 0
48.90961 -12.42469 2.571815 0
48.90961 -12.37469 2.621815 0
48.80961 -12.37469 2.771815 0
48.90961 -12.42469 2.671815 0
48.85961 -12.37469 2.771815 0
49.00961 -12.42469 2.571815 0
49.00961 -12.37469 2.621815 0
49.05961 -12.42469 2.571815 0
49.10961 -12.42469 2.571815 0
49.10961 -12.42469 2.621815 0
48.95961 -12.37469 2.821815 0
49.05961 -12.42469 2.671815 0
49.05961 -12.37469 2.821815 0
48.80961 -12.42469 2.921815 0
48.80961 -12.42469 2.971815 0
48.80961 -12.37469 2.971815 0
48.90961 -12.42469 2.921815 0
48.85961 -12.37469 3.021815 0
48.90961 -12.37469 2.971815 0
48.80961 -12.27469 3.121815 0
48.90961 -12.42469 3.071815 0
48.80961 -12.22469 3.121815 0
48.80961 -12.17469 3.121815 0
48.80961 -12.12469 3.221815 0
48.90961 -12.17469 3.121815 0
48.85961 -12.22469 3.171815 0
48.90961 -12.22469 3.171815 0
48.90961 -12.12469 3.121815 0
48.90961 -12.12469 3.221815 0
49.00961 -12.42469 2.921815 0
49.00961 -12.37469 2.971815 0
49.00961 -12.37469 3.021815 0
49.10961 -12.42469 2.921815 0
49.10961 -12.37469 2.971815 0
49.10961 -12.42469 3.071815 0
49.00961 -12.17469 3.121815 0
49.10961 -12.22469 3.171815 0
49.05961 -12.12469 3.121815 0
49.05961 -12.12469 3.221815 0
49.10961 -12.12469 3.171815 0
48.40961 -11.97469 3.121815 0
48.55961 -11.97469 3.121815 0
48.70961 -11.97469 3.171815 0
48.85961 -11.97469 3.171815 0
49.05961 -11.97469 3.221815 0
45.95961 -12.12469 3.321815 0
46.10961 -12.17469 3.421815 0
45.95961 -12.07469 3.471815 0
46.30961 -12.17469 3.371815 0
46.25961 -12.12469 3.271815 0
46.15961 -12.07469 3.471815 0
46.50961 -12.17469 3.371815 0
46.45961 -12.07469 3.421815 0
46.70961 -12.17469 3.321815 0
46.65961 -12.07469 3.371815 0
46.20961 -11.87469 3.371815 0
46.30961 -12.02469 3.421815 0
46.20961 -11.97469 3.521815 0
46.00961 -11.82469 3.871815 0
46.15961 -11.82469 3.771815 0
46.25961 -11.82469 3.821815 0
46.20961 -11.82469 3.971815 0
46.15961 -11.57469 3.821815 0
46.40961 -11.87469 3.321815 0
46.45961 -11.87469 3.321815 0
46.50961 -11.87469 3.321815 0
46.55961 -11.97469 3.421815 0
46.65961 -11.87469 3.321815 0
46.40961 -11.82469 3.721815 0
46.45961 -11.82469 3.821815 0
46.65961 -11.82469 3.671815 0
46.65961 -11.82469 3.771815 0
46.60961 -11.82469 3.921815 0
46.45961 -11.57469 3.771815 0
46.65961 -11.67469 4.221815 0
46.80961 -12.07469 3.321815 0
46.90961 -12.17469 3.271815 0
46.95961 -12.07469 3.321815 0
47.10961 -12.17469 3.271815 0
47.10961 -12.07469 3.271815 0
47.25961 -12.07469 3.271815 0
47.30961 -12.12469 3.621815 0
47.50961 -12.07469 3.421815 0
47.50961 -12.17469 3.571815 0
46.75961 -11.92469 3.271815 0
46.80961 -11.87469 3.371815 0
46.85961 -11.97469 3.371815 0
46.75961 -12.02469 3.521815 0
46.90961 -12.02469 3.521815 0
46.90961 -11.87469 3.621815 0
46.95961 -11.92469 3.271815 0
46.95961 -11.87469 3.371815 0
47.10961 -11.92469 3.271815 0
47.05961 -11.87469 3.371815 0
47.05961 -12.02469 3.521815 0
47.10961 -11.87469 3.621815 0
46.85961 -11.82469 3.721815 0
47.05961 -11.87469 3.671815 0
47.00961 -11.62469 3.621815 0
46.75961 -11.57469 3.671815 0
47.20961 -11.97469 3.271815 0
47.20961 -11.92469 3.271815 0
47.20961 -11.92469 3.421815 0
47.20961 -12.02469 3.571815 0
47.20961 -12.02469 3.621815 0
47.25961 -11.87469 3.621815 0
47.30961 -11.87469 3.621815 0
47.20961 -11.67469 3.621815 0
47.25961 -11.77469 3.621815 0
47.35961 -11.92469 3.271815 0
47.35961 -11.92469 3.421815 0
47.45961 -11.97469 3.271815 0
47.45961 -11.92469 3.271815 0
47.50961 -11.92469 3.421815 0
47.35961 -12.02469 3.571815 0
47.45961 -12.02469 3.571815 0
47.50961 -11.97469 3.621815 0
47.45961 -11.87469 3.621815 0
47.50961 -11.92469 3.571815 0
47.30961 -11.77469 3.821815 0
47.45961 -11.77469 3.871815 0
47.20961 -11.62469 3.671815 0
47.35961 -11.62469 3.671815 0
46.85961 -11.72469 4.171815 0
47.05961 -11.77469 4.121815 0
47.20961 -11.82469 4.121815 0
47.40961 -11.87469 4.071815 0
47.50961 -12.62469 5.221815 0
47.60961 -12.07469 3.621815 0
47.70961 -12.17469 3.521815 0
47.70961 -12.07469 3.471815 0
47.70961 -12.12469 3.621815 0
47.85961 -12.17469 3.571815 0
47.90961 -12.12469 3.471815 0
47.95961 -12.17469 3.521815 0
48.05961 -12.17469 3.571815 0
48.10961 -12.12469 3.521815 0
48.15961 -12.12469 3.371815 0
48.30961 -12.17469 3.271815 0
48.30961 -12.12469 3.271815 0
48.15961 -12.17469 3.471815 0
48.20961 -12.17469 3.521815 0
48.30961 -12.12469 3.521815 0
47.85961 -12.12469 4.471815 0
47.60961 -11.97469 3.321815 0
47.60961 -11.92469 3.321815 0
47.70961 -11.97469 3.321815 0
47.60961 -11.92469 3.571815 0
47.65961 -11.92469 3.471815 0
47.70961 -11.87469 3.571815 0
47.80961 -11.97469 3.321815 0
47.85961 -11.97469 3.321815 0
47.85961 -11.92469 3.271815 0
47.75961 -11.92469 3.521815 0
47.80961 -11.92469 3.471815 0
47.80961 -11.82469 3.571815 0
47.65961 -11.87469 4.021815 0
47.65961 -11.77469 3.871815 0
47.90961 -11.87469 3.971815 0
47.85961 -11.77469 3.921815 0
47.55961 -11.62469 3.721815 0
47.70961 -11.62469 3.721815 0
47.90961 -11.62469 3.771815 0
47.95961 -11.97469 3.321815 0
47.95961 -11.97469 3.371815 0
48.00961 -11.92469 3.271815 0
48.10961 -11.97469 3.371815 0
47.95961 -11.97469 3.471815 0
47.95961 -11.92469 3.521815 0
48.10961 -11.92469 3.521815 0
47.95961 -11.77469 3.571815 0
48.10961 -11.77469 3.621815 0
48.15961 -11.97469 3.371815 0
48.20961 -11.97469 3.421815 0
48.15961 -11.92469 3.271815 0
48.25961 -12.02469 3.371815 0
48.25961 -11.92469 3.321815 0
48.25961 -11.97469 3.521815 0
48.25961 -11.77469 3.621815 0
48.10961 -11.87469 3.921815 0
48.05961 -11.82469 3.971815 0
48.30961 -11.87469 3.871815 0
48.20961 -11.82469 3.821815 0
48.25961 -11.82469 3.971815 0
48.25961 -11.82469 4.021815 0
48.05961 -11.62469 3.771815 0
48.25961 -11.62469 3.821815 0
47.95961 -11.77469 4.071815 0
48.40961 -12.17469 3.421815 0
48.50961 -12.17469 3.321815 0
48.45961 -12.12469 3.271815 0
48.40961 -12.17469 3.471815 0
48.50961 -12.12469 3.571815 0
48.60961 -12.22469 3.371815 0
48.65961 -12.17469 3.321815 0
48.70961 -12.17469 3.421815 0
48.55961 -12.17469 3.471815 0
48.80961 -12.17469 3.371815 0
48.80961 -12.12469 3.321815 0
48.75961 -12.07469 3.421815 0
48.85961 -12.17469 3.271815 0
48.85961 -12.17469 3.421815 0
48.90961 -12.07469 3.421815 0
48.95961 -12.17469 3.321815 0
49.00961 -12.17469 3.321815 0
49.05961 -12.17469 3.371815 0
49.05961 -12.17469 3.421815 0
49.10961 -12.17469 3.571815 0
49.05961 -12.07469 3.471815 0
48.80961 -12.22469 4.671815 0
49.10961 -12.37469 4.821815 0
48.35961 -12.02469 3.371815 0
48.35961 -11.97469 3.421815 0
48.40961 -11.97469 3.371815 0
48.40961 -11.92469 3.321815 0
48.50961 -12.02469 3.421815 0
48.50961 -11.92469 3.321815 0
48.40961 -11.92469 3.571815 0
48.60961 -11.97469 3.321815 0
48.65961 -11.97469 3.321815 0
48.65961 -12.02469 3.421815 0
48.55961 -11.97469 3.471815 0
48.55961 -11.97469 3.571815 0
48.60961 -12.02469 3.571815 0
48.60961 -11.87469 3.621815 0
48.70961 -11.97469 3.471815 0
48.65961 -11.87469 3.571815 0
48.40961 -11.82469 3.671815 0
48.40961 -11.82469 3.821815 0
48.45961 -11.82469 4.021815 0
48.55961 -11.87469 3.821815 0
48.60961 -11.87469 3.971815 0
48.60961 -11.82469 3.721815 0
48.65961 -11.82469 3.871815 0
48.65961 -11.67469 3.871815 0
48.45961 -11.62469 3.871815 0
48.80961 -11.97469 3.371815 0
48.75961 -11.97469 3.571815 0
48.90961 -11.97469 3.521815 0
48.85961 -11.87469 3.571815 0
48.75961 -11.82469 3.571815 0
48.90961 -11.77469 3.571815 0
48.95961 -11.97469 3.371815 0
49.10961 -11.97469 3.371815 0
49.00961 -12.02469 3.571815 0
49.10961 -12.02469 3.521815 0
49.05961 -11.87469 3.621815 0
49.00961 -11.67469 3.571815 0
48.75961 -11.87469 3.721815 0
48.75961 -11.87469 3.821815 0
48.75961 -11.82469 3.721815 0
48.85961 -11.67469 3.921815 0
49.00961 -11.87469 3.671815 0
48.95961 -11.87469 3.771815 0
49.10961 -11.87469 3.771815 0
48.95961 -11.87469 3.921815 0
48.95961 -11.82469 3.771815 0
48.95961 -11.82469 3.921815 0
49.05961 -11.67469 3.971815 0
48.60961 -11.82469 4.071815 0
48.80961 -11.77469 4.071815 0
48.85961 -11.67469 4.171815 0
48.95961 -11.77469 4.121815 0
49.00961 -11.72469 4.171815 0
49.10961 -11.72469 4.121815 0
47.95961 -12.57469 5.121815 0
48.35961 -12.52469 5.021815 0
48.75961 -12.42469 4.921815 0
50.95961 -14.97469 1.371815 0
51.00961 -14.92469 1.421815 0
50.95961 -14.92469 1.521815 0
50.95961 -14.92469 1.571815 0
51.05961 -14.87469 1.471815 0
51.05961 -14.87469 1.621815 0
51.00961 -14.82469 1.271815 0
50.95961 -14.77469 1.371815 0
51.00961 -14.82469 1.421815 0
51.00961 -14.67469 1.371815 0
51.00961 -14.67469 1.421815 0
51.05961 -14.77469 1.421815 0
51.05961 -14.67469 1.421815 0
50.95961 -14.77469 1.571815 0
50.95961 -14.67469 1.571815 0
51.10961 -14.77469 1.571815 0
51.10961 -14.67469 1.571815 0
50.95961 -14.57469 1.421815 0
51.00961 -14.62469 1.421815 0
51.00961 -14.57469 1.371815 0
51.00961 -14.52469 1.421815 0
51.00961 -14.47469 1.371815 0
51.05961 -14.62469 1.421815 0
51.05961 -14.47469 1.421815 0
50.95961 -14.62469 1.571815 0
51.00961 -14.52469 1.621815 0
51.10961 -14.57469 1.571815 0
51.10961 -14.47469 1.571815 0
51.20961 -14.87469 1.521815 0
51.15961 -14.82469 1.421815 0
51.15961 -14.52469 1.421815 0
51.20961 -14.62469 1.521815 0
51.05961 -14.97469 1.671815 0
51.10961 -14.97469 1.721815 0
51.05961 -14.92469 1.671815 0
51.10961 -14.87469 1.671815 0
51.05961 -14.82469 1.671815 0
51.10961 -14.77469 1.671815 0
51.05961 -14.72469 1.671815 0
51.05961 -14.67469 1.671815 0
51.10961 -14.67469 1.671815 0
51.05961 -14.62469 1.671815 0
51.10961 -14.57469 1.671815 0
51.05961 -14.52469 1.671815 0
51.05961 -14.47469 1.671815 0
51.10961 -14.47469 1.671815 0
51.10961 -14.97469 3.121815 0
50.95961 -14.77469 3.121815 0
51.00961 -14.62469 3.121815 0
51.10961 -14.52469 3.121815 0
51.20961 -14.87469 2.971815 0
51.25961 -14.87469 3.121815 0
51.20961 -14.62469 2.921815 0
51.15961 -14.47469 3.171815 0
51.30961 -14.52469 3.171815 0
51.35961 -14.67469 3.121815 0
51.40961 -14.62469 3.171815 0
51.50961 -14.62469 3.171815 0
51.50961 -14.47469 3.121815 0
51.65961 -14.97469 3.171815 0
51.60961 -14.82469 3.171815 0
51.60961 -14.82469 3.221815 0
51.65961 -14.72469 3.121815 0
51.60961 -14.57469 3.121815 0
51.60961 -14.52469 3.171815 0
52.10961 -14.87469 3.171815 0
51.95961 -14.72469 3.171815 0
51.30961 -14.82469 4.621815 0
51.40961 -14.47469 4.521815 0
51.65961 -14.72469 3.371815 0
51.65961 -14.67469 3.371815 0
51.60961 -14.72469 3.621815 0
51.65961 -14.72469 3.571815 0
51.55961 -14.62469 3.371815 0
51.60961 -14.47469 3.571815 0
51.90961 -14.52469 3.321815 0
51.85961 -14.47469 3.521815 0
51.90961 -14.47469 3.571815 0
51.85961 -14.52469 3.821815 0
51.90961 -14.62469 4.021815 0
52.05961 -14.97469 3.321815 0
52.20961 -14.87469 3.321815 0
52.25961 -14.97469 3.621815 0
52.30961 -14.87469 3.621815 0
52.25961 -14.97469 3.821815 0
52.05961 -14.77469 3.371815 0
52.05961 -14.77469 3.421815 0
51.95961 -14.47469 3.321815 0
52.00961 -14.52469 3.321815 0
51.95961 -14.47469 3.371815 0
52.05961 -14.47469 3.321815 0
52.10961 -14.52469 3.321815 0
52.00961 -14.47469 3.471815 0
52.00961 -14.47469 3.521815 0
52.00961 -14.52469 3.571815 0
52.05961 -14.52469 3.471815 0
52.10961 -14.52469 3.521815 0
52.15961 -14.67469 3.321815 0
52.25961 -14.77469 3.321815 0
52.25961 -14.67469 3.371815 0
52.20961 -14.67469 3.521815 0
52.30961 -14.77469 3.471815 0
52.30961 -14.67469 3.571815 0
52.20961 -14.62469 3.321815 0
52.15961 -14.52469 3.321815 0
52.15961 -14.47469 3.321815 0
52.20961 -14.62469 3.471815 0
52.20961 -14.57469 3.571815 0
52.05961 -14.77469 3.921815 0
52.10961 -14.72469 4.021815 0
51.95961 -14.52469 3.821815 0
52.10961 -14.57469 3.771815 0
52.10961 -14.52469 3.771815 0
52.25961 -14.72469 3.771815 0
52.30961 -14.72469 3.821815 0
52.20961 -14.62469 3.771815 0
52.00961 -14.87469 4.121815 0
52.10961 -14.97469 4.171815 0
52.05961 -14.77469 4.171815 0
51.95961 -14.62469 4.121815 0
52.00961 -14.57469 4.121815 0
50.90961 -14.97469 4.971815 0
51.05961 -14.57469 4.871815 0
49.15961 -12.47469 0.1218147 0
49.20961 -12.52469 0.07181472 0
49.20961 -12.47469 0.07181472 0
49.25961 -12.47469 0.1218147 0
49.30961 -12.52469 0.1218147 0
49.25961 -12.47469 0.1718147 0
49.35961 -12.47469 0.07181472 0
49.40961 -12.52469 0.1218147 0
49.45961 -12.52469 0.07181472 0
49.45961 -12.52469 0.1218147 0
49.15961 -12.47469 0.5218147 0
49.20961 -12.52469 0.5718147 0
49.20961 -12.47469 0.5718147 0
49.25961 -12.52469 0.5218147 0
49.25961 -12.47469 0.4718147 0
49.25961 -12.47469 0.5218147 0
49.25961 -12.52469 0.5718147 0
49.30961 -12.52469 0.5718147 0
49.25961 -12.47469 0.7718147 0
49.40961 -12.52469 0.5218147 0
49.40961 -12.47469 0.5218147 0
49.35961 -12.47469 0.5718147 0
49.40961 -12.52469 0.5718147 0
49.45961 -12.52469 0.5718147 0
49.45961 -12.52469 0.6218147 0
49.15961 -12.37469 0.1218147 0
49.15961 -12.37469 0.2218147 0
49.20961 -12.42469 0.1718147 0
49.20961 -12.32469 0.1218147 0
49.15961 -12.32469 0.2218147 0
49.15961 -12.27469 0.1718147 0
49.20961 -12.27469 0.1718147 0
49.30961 -12.42469 0.1218147 0
49.25961 -12.37469 0.1718147 0
49.30961 -12.42469 0.1718147 0
49.30961 -12.37469 0.2218147 0
49.25961 -12.32469 0.1218147 0
49.25961 -12.32469 0.2218147 0
49.30961 -12.27469 0.1718147 0
49.40961 -12.42469 0.1218147 0
49.35961 -12.42469 0.1718147 0
49.40961 -12.37469 0.2218147 0
49.35961 -12.27469 0.1218147 0
49.40961 -12.32469 0.1218147 0
49.35961 -12.32469 0.2218147 0
49.40961 -12.27469 0.1718147 0
49.45961 -12.42469 0.1218147 0
49.50961 -12.42469 0.1218147 0
49.45961 -12.42469 0.1718147 0
49.45961 -12.37469 0.1718147 0
49.50961 -12.37469 0.2218147 0
49.50961 -12.27469 0.1218147 0
49.45961 -12.32469 0.1718147 0
49.45961 -12.32469 0.2218147 0
49.50961 -12.27469 0.1718147 0
49.15961 -12.37469 0.5218147 0
49.20961 -12.42469 0.5218147 0
49.15961 -12.32469 0.5218147 0
49.15961 -12.27469 0.5218147 0
49.20961 -12.27469 0.5218147 0
49.20961 -12.32469 0.6218147 0
49.25961 -12.37469 0.5218147 0
49.30961 -12.42469 0.5218147 0
49.30961 -12.37469 0.5218147 0
49.25961 -12.32469 0.5218147 0
49.25961 -12.27469 0.5218147 0
49.30961 -12.32469 0.5218147 0
49.30961 -12.27469 0.5218147 0
49.25961 -12.32469 0.5718147 0
49.25961 -12.37469 0.8218147 0
49.35961 -12.42469 0.5218147 0
49.40961 -12.37469 0.5218147 0
49.35961 -12.32469 0.5218147 0
49.40961 -12.27469 0.5218147 0
49.40961 -12.32469 0.5718147 0
49.40961 -12.32469 0.6218147 0
49.45961 -12.42469 0.5218147 0
49.45961 -12.37469 0.5218147 0
49.50961 -12.42469 0.5218147 0
49.50961 -12.37469 0.5218147 0
49.45961 -12.32469 0.5218147 0
49.50961 -12.32469 0.5218147 0
49.50961 -12.27469 0.5218147 0
49.45961 -12.37469 0.8218147 0
49.55961 -12.52469 0.07181472 0
49.55961 -12.52469 0.1218147 0
49.55961 -12.47469 0.1718147 0
49.65961 -12.52469 0.1218147 0
49.70961 -12.52469 0.07181472 0
49.70961 -12.52469 0.1218147 0
49.75961 -12.52469 0.07181472 0
49.75961 -12.47469 0.1218147 0
49.85961 -12.52469 0.1218147 0
49.90961 -12.47469 0.1218147 0
49.85961 -12.47469 0.2218147 0
49.55961 -12.52469 0.5218147 0
49.55961 -12.47469 0.4718147 0
49.60961 -12.47469 0.5218147 0
49.55961 -12.52469 0.5718147 0
49.70961 -12.52469 0.5218147 0
49.65961 -12.52469 0.5718147 0
49.70961 -12.52469 0.5718147 0
49.55961 -12.47469 0.7718147 0
49.75961 -12.47469 0.5218147 0
49.75961 -12.52469 0.5718147 0
49.75961 -12.52469 0.6218147 0
49.80961 -12.52469 0.5718147 0
49.85961 -12.52469 0.5218147 0
49.85961 -12.47469 0.4718147 0
49.85961 -12.52469 0.5718147 0
49.90961 -12.52469 0.5718147 0
49.90961 -12.47469 0.6218147 0
49.85961 -12.47469 0.7718147 0
49.60961 -12.42469 0.1218147 0
49.60961 -12.37469 0.1218147 0
49.55961 -12.42469 0.1718147 0
49.60961 -12.37469 0.2218147 0
49.60961 -12.32469 0.1218147 0
49.55961 -12.32469 0.2218147 0
49.55961 -12.27469 0.1718147 0
49.65961 -12.37469 0.1718147 0
49.70961 -12.42469 0.1718147 0
49.70961 -12.37469 0.2218147 0
49.65961 -12.32469 0.1218147 0
49.65961 -12.32469 0.1718147 0
49.65961 -12.32469 0.2218147 0
49.75961 -12.42469 0.1218147 0
49.80961 -12.42469 0.1718147 0
49.80961 -12.37469 0.1718147 0
49.80961 -12.37469 0.2218147 0
49.75961 -12.32469 0.1218147 0
49.80961 -12.32469 0.1218147 0
49.75961 -12.32469 0.1718147 0
49.75961 -12.32469 0.2218147 0
49.85961 -12.42469 0.1218147 0
49.85961 -12.37469 0.1218147 0
49.90961 -12.42469 0.1718147 0
49.90961 -12.37469 0.2218147 0
49.85961 -12.32469 0.1718147 0
49.85961 -12.32469 0.2218147 0
49.90961 -12.32469 0.1718147 0
49.55961 -12.42469 0.5218147 0
49.60961 -12.42469 0.5218147 0
49.60961 -12.37469 0.5218147 0
49.60961 -12.37469 0.6218147 0
49.55961 -12.32469 0.5218147 0
49.60961 -12.32469 0.5718147 0
49.70961 -12.42469 0.5218147 0
49.70961 -12.37469 0.5218147 0
49.65961 -12.32469 0.5218147 0
49.65961 -12.27469 0.5218147 0
49.60961 -12.37469 0.8218147 0
49.80961 -12.42469 0.5218147 0
49.80961 -12.37469 0.4718147 0
49.80961 -12.37469 0.5218147 0
49.75961 -12.32469 0.5218147 0
49.75961 -12.27469 0.5218147 0
49.80961 -12.27469 0.5218147 0
49.75961 -12.32469 0.5718147 0
49.85961 -12.42469 0.5218147 0
49.90961 -12.42469 0.5218147 0
49.90961 -12.37469 0.5218147 0
49.85961 -12.37469 0.6218147 0
49.85961 -12.32469 0.5218147 0
49.90961 -12.32469 0.5218147 0
49.80961 -12.42469 0.8218147 0
49.25961 -12.52469 0.9218147 0
49.25961 -12.47469 0.9218147 0
49.30961 -12.47469 1.071815 0
49.40961 -12.52469 0.9218147 0
49.35961 -12.47469 1.021815 0
49.45961 -12.52469 1.021815 0
49.50961 -12.47469 1.021815 0
49.40961 -12.47469 1.071815 0
49.20961 -12.57469 1.371815 0
49.20961 -12.47469 1.371815 0
49.15961 -12.62469 1.471815 0
49.15961 -12.52469 1.621815 0
49.25961 -12.62469 1.521815 0
49.30961 -12.57469 1.621815 0
49.25961 -12.47469 1.471815 0
49.25961 -12.52469 1.571815 0
49.35961 -12.62469 1.321815 0
49.35961 -12.52469 1.421815 0
49.50961 -12.62469 1.321815 0
49.50961 -12.52469 1.421815 0
49.40961 -12.62469 1.471815 0
49.35961 -12.62469 1.571815 0
49.35961 -12.47469 1.521815 0
49.40961 -12.52469 1.571815 0
49.45961 -12.62469 1.521815 0
49.45961 -12.57469 1.621815 0
49.45961 -12.47469 1.471815 0
49.45961 -12.47469 1.521815 0
49.50961 -12.52469 1.571815 0
49.15961 -12.42469 0.9218147 0
49.20961 -12.42469 0.8718147 0
49.20961 -12.42469 0.9218147 0
49.15961 -12.42469 1.021815 0
49.20961 -12.37469 0.9718148 0
49.15961 -12.32469 0.8718147 0
49.15961 -12.27469 0.9218147 0
49.20961 -12.32469 0.8718147 0
49.25961 -12.37469 0.8718147 0
49.30961 -12.42469 0.8718147 0
49.30961 -12.42469 1.021815 0
49.25961 -12.32469 0.8718147 0
49.25961 -12.27469 0.9218147 0
49.30961 -12.32469 0.8718147 0
49.15961 -12.42469 1.071815 0
49.15961 -12.27469 1.071815 0
49.15961 -12.32469 1.171815 0
49.20961 -12.27469 1.171815 0
49.25961 -12.37469 1.221815 0
49.30961 -12.42469 1.171815 0
49.25961 -12.27469 1.171815 0
49.30961 -12.27469 1.171815 0
49.20961 -12.22469 1.021815 0
49.15961 -12.22469 1.171815 0
49.20961 -12.22469 1.171815 0
49.30961 -12.22469 1.221815 0
49.35961 -12.42469 0.9218147 0
49.40961 -12.42469 0.9218147 0
49.40961 -12.37469 0.8718147 0
49.35961 -12.42469 0.9718148 0
49.35961 -12.32469 0.8718147 0
49.35961 -12.27469 0.9218147 0
49.40961 -12.27469 0.8718147 0
49.40961 -12.27469 0.9218147 0
49.45961 -12.42469 0.8718147 0
49.45961 -12.42469 0.9218147 0
49.50961 -12.42469 0.9218147 0
49.50961 -12.37469 0.8718147 0
49.45961 -12.42469 0.9718148 0
49.45961 -12.32469 0.8718147 0
49.50961 -12.27469 0.9218147 0
49.35961 -12.42469 1.171815 0
49.35961 -12.37469 1.221815 0
49.35961 -12.32469 1.121815 0
49.35961 -12.27469 1.071815 0
49.35961 -12.27469 1.171815 0
49.40961 -12.27469 1.171815 0
49.45961 -12.42469 1.071815 0
49.50961 -12.37469 1.221815 0
49.45961 -12.27469 1.171815 0
49.50961 -12.32469 1.171815 0
49.35961 -12.22469 1.021815 0
49.40961 -12.22469 1.221815 0
49.50961 -12.22469 1.221815 0
49.15961 -12.37469 1.271815 0
49.20961 -12.37469 1.271815 0
49.15961 -12.37469 1.371815 0
49.25961 -12.37469 1.271815 0
49.30961 -12.37469 1.371815 0
49.15961 -12.42469 1.521815 0
49.15961 -12.37469 1.471815 0
49.20961 -12.42469 1.521815 0
49.20961 -12.37469 1.571815 0
49.25961 -12.42469 1.521815 0
49.30961 -12.42469 1.521815 0
49.30961 -12.37469 1.471815 0
49.30961 -12.42469 1.621815 0
49.15961 -12.22469 1.271815 0
49.25961 -12.22469 1.271815 0
49.35961 -12.37469 1.271815 0
49.40961 -12.37469 1.271815 0
49.45961 -12.37469 1.271815 0
49.50961 -12.42469 1.271815 0
49.50961 -12.37469 1.271815 0
49.45961 -12.37469 1.371815 0
49.40961 -12.42469 1.521815 0
49.35961 -12.42469 1.571815 0
49.50961 -12.42469 1.471815 0
49.50961 -12.42469 1.521815 0
49.45961 -12.37469 1.571815 0
49.50961 -12.42469 1.621815 0
49.40961 -12.22469 1.271815 0
49.50961 -12.22469 1.271815 0
49.55961 -12.52469 0.9218147 0
49.70961 -12.52469 0.9218147 0
49.65961 -12.52469 1.021815 0
49.70961 -12.47469 1.021815 0
49.55961 -12.47469 1.071815 0
49.60961 -12.47469 1.071815 0
49.60961 -12.47469 1.171815 0
49.75961 -12.47469 0.9718148 0
49.85961 -12.52469 0.9218147 0
49.85961 -12.47469 0.9218147 0
49.85961 -12.52469 0.9718148 0
49.90961 -12.47469 0.9718148 0
49.90961 -12.47469 1.021815 0
49.80961 -12.47469 1.071815 0
49.85961 -12.47469 1.121815 0
49.90961 -12.47469 1.171815 0
49.65961 -12.52469 1.421815 0
49.65961 -12.47469 1.421815 0
49.55961 -12.62469 1.471815 0
49.55961 -12.62469 1.571815 0
49.55961 -12.47469 1.521815 0
49.65961 -12.62469 1.521815 0
49.70961 -12.57469 1.621815 0
49.65961 -12.47469 1.521815 0
49.65961 -12.52469 1.571815 0
49.70961 -12.52469 1.621815 0
49.75961 -12.62469 1.421815 0
49.75961 -12.47469 1.321815 0
49.80961 -12.52469 1.421815 0
49.80961 -12.47469 1.421815 0
49.80961 -12.62469 1.521815 0
49.80961 -12.62469 1.571815 0
49.80961 -12.57469 1.621815 0
49.75961 -12.47469 1.521815 0
49.75961 -12.52469 1.571815 0
49.85961 -12.47469 1.521815 0
49.85961 -12.52469 1.571815 0
49.55961 -12.42469 0.9218147 0
49.60961 -12.42469 0.8718147 0
49.60961 -12.42469 0.9218147 0
49.60961 -12.37469 0.8718147 0
49.60961 -12.42469 0.9718148 0
49.55961 -12.32469 0.8718147 0
49.70961 -12.42469 0.8718147 0
49.70961 -12.42469 0.9218147 0
49.70961 -12.37469 0.8718147 0
49.65961 -12.32469 0.8718147 0
49.65961 -12.32469 0.9218147 0
49.65961 -12.32469 0.9718148 0
49.70961 -12.27469 1.021815 0
49.60961 -12.42469 1.171815 0
49.60961 -12.37469 1.221815 0
49.55961 -12.32469 1.121815 0
49.55961 -12.27469 1.121815 0
49.55961 -12.27469 1.171815 0
49.60961 -12.27469 1.171815 0
49.70961 -12.37469 1.221815 0
49.65961 -12.27469 1.171815 0
49.70961 -12.32469 1.171815 0
49.55961 -12.22469 1.021815 0
49.65961 -12.22469 1.221815 0
49.75961 -12.42469 0.9218147 0
49.80961 -12.42469 0.8718147 0
49.80961 -12.42469 0.9218147 0
49.80961 -12.37469 0.8718147 0
49.75961 -12.42469 1.021815 0
49.75961 -12.32469 0.8718147 0
49.75961 -12.27469 0.8718147 0
49.75961 -12.27469 0.9218147 0
49.80961 -12.32469 0.9718148 0
49.90961 -12.42469 0.8718147 0
49.90961 -12.42469 0.9218147 0
49.90961 -12.37469 0.8718147 0
49.85961 -12.32469 0.8718147 0
49.90961 -12.32469 0.9218147 0
49.90961 -12.27469 1.021815 0
49.75961 -12.32469 1.121815 0
49.75961 -12.27469 1.121815 0
49.75961 -12.27469 1.221815 0
49.80961 -12.32469 1.171815 0
49.80961 -12.27469 1.171815 0
49.85961 -12.42469 1.171815 0
49.85961 -12.37469 1.221815 0
49.90961 -12.32469 1.121815 0
49.90961 -12.32469 1.171815 0
49.85961 -12.22469 1.221815 0
49.55961 -12.37469 1.271815 0
49.60961 -12.37469 1.271815 0
49.60961 -12.42469 1.371815 0
49.70961 -12.37469 1.271815 0
49.70961 -12.37469 1.371815 0
49.60961 -12.42469 1.521815 0
49.55961 -12.42469 1.571815 0
49.65961 -12.42469 1.471815 0
49.70961 -12.42469 1.521815 0
49.65961 -12.42469 1.571815 0
49.65961 -12.37469 1.621815 0
49.60961 -12.22469 1.271815 0
49.75961 -12.37469 1.271815 0
49.80961 -12.37469 1.271815 0
49.85961 -12.42469 1.271815 0
49.85961 -12.37469 1.271815 0
49.90961 -12.42469 1.321815 0
49.85961 -12.42469 1.371815 0
49.85961 -12.27469 1.271815 0
49.80961 -12.42469 1.521815 0
49.75961 -12.42469 1.571815 0
49.85961 -12.42469 1.471815 0
49.85961 -12.42469 1.571815 0
49.90961 -12.42469 1.621815 0
49.75961 -12.22469 1.271815 0
49.95961 -12.52469 0.07181472 0
50.00961 -12.52469 0.1218147 0
50.00961 -12.52469 0.1718147 0
50.05961 -12.47469 0.1218147 0
50.10961 -12.47469 0.2218147 0
50.15961 -12.57469 0.07181472 0
50.15961 -12.52469 0.07181472 0
50.20961 -12.52469 0.1218147 0
50.15961 -12.52469 0.1718147 0
50.25961 -12.47469 0.1218147 0
50.30961 -12.52469 0.1718147 0
50.00961 -12.52469 0.5218147 0
49.95961 -12.52469 0.5718147 0
50.00961 -12.52469 0.5718147 0
50.05961 -12.47469 0.5218147 0
50.10961 -12.47469 0.4718147 0
50.05961 -12.52469 0.6218147 0
50.10961 -12.52469 0.5718147 0
50.10961 -12.47469 0.7218148 0
50.15961 -12.57469 0.5718147 0
50.15961 -12.52469 0.5218147 0
50.20961 -12.47469 0.5218147 0
50.15961 -12.52469 0.5718147 0
50.20961 -12.52469 0.5718147 0
50.30961 -12.57469 0.5718147 0
50.25961 -12.47469 0.5218147 0
50.30961 -12.52469 0.5218147 0
50.25961 -12.52469 0.5718147 0
50.25961 -12.47469 0.6218147 0
49.95961 -12.42469 0.1218147 0
50.00961 -12.42469 0.1718147 0
50.00961 -12.37469 0.2218147 0
49.95961 -12.32469 0.1218147 0
49.95961 -12.32469 0.1718147 0
49.95961 -12.32469 0.2218147 0
50.00961 -12.32469 0.1718147 0
50.05961 -12.37469 0.1218147 0
50.10961 -12.42469 0.1218147 0
50.05961 -12.42469 0.1718147 0
50.10961 -12.37469 0.2218147 0
50.10961 -12.32469 0.07181472 0
50.10961 -12.32469 0.1218147 0
50.05961 -12.32469 0.1718147 0
50.05961 -12.32469 0.2218147 0
50.20961 -12.42469 0.1218147 0
50.15961 -12.42469 0.1718147 0
50.20961 -12.37469 0.2218147 0
50.15961 -12.32469 0.1718147 0
50.15961 -12.32469 0.2218147 0
50.20961 -12.32469 0.1718147 0
50.25961 -12.37469 0.07181472 0
50.30961 -12.42469 0.1218147 0
50.30961 -12.37469 0.07181472 0
50.25961 -12.42469 0.1718147 0
50.30961 -12.42469 0.2218147 0
50.30961 -12.37469 0.2218147 0
50.30961 -12.32469 0.1218147 0
50.25961 -12.32469 0.1718147 0
50.25961 -12.32469 0.2218147 0
50.30961 -12.32469 0.1718147 0
49.95961 -12.42469 0.5218147 0
50.00961 -12.42469 0.4718147 0
50.00961 -12.37469 0.5218147 0
49.95961 -12.32469 0.5218147 0
50.00961 -12.32469 0.5218147 0
49.95961 -12.32469 0.5718147 0
50.05961 -12.42469 0.5218147 0
50.10961 -12.42469 0.5218147 0
50.10961 -12.37469 0.5218147 0
50.05961 -12.37469 0.6218147 0
50.05961 -12.32469 0.5218147 0
50.10961 -12.32469 0.5218147 0
50.00961 -12.42469 0.7718147 0
50.15961 -12.42469 0.4718147 0
50.15961 -12.42469 0.5218147 0
50.20961 -12.37469 0.5218147 0
50.15961 -12.32469 0.5218147 0
50.20961 -12.32469 0.5218147 0
50.15961 -12.32469 0.5718147 0
50.25961 -12.42469 0.5218147 0
50.30961 -12.42469 0.4718147 0
50.30961 -12.42469 0.5218147 0
50.30961 -12.37469 0.5218147 0
50.30961 -12.37469 0.6218147 0
50.25961 -12.32469 0.5218147 0
50.30961 -12.32469 0.5218147 0
50.30961 -12.32469 0.5718147 0
50.15961 -12.42469 0.7718147 0
50.30961 -12.42469 0.7718147 0
50.35961 -12.57469 0.07181472 0
50.35961 -12.52469 0.1218147 0
50.40961 -12.52469 0.07181472 0
50.40961 -12.47469 0.1218147 0
50.35961 -12.52469 0.2218147 0
50.40961 -12.52469 0.1718147 0
50.55961 -12.57469 0.07181472 0
50.60961 -12.57469 0.07181472 0
50.55961 -12.52469 0.1218147 0
50.55961 -12.52469 0.1718147 0
50.60961 -12.52469 0.2218147 0
50.60961 -12.47469 0.1718147 0
50.70961 -12.52469 0.1218147 0
50.70961 -12.52469 0.1718147 0
50.70961 -12.47469 0.1718147 0
50.35961 -12.57469 0.5718147 0
50.35961 -12.52469 0.4718147 0
50.35961 -12.47469 0.5218147 0
50.35961 -12.52469 0.5718147 0
50.35961 -12.52469 0.6218147 0
50.40961 -12.52469 0.5718147 0
50.40961 -12.47469 0.5718147 0
50.45961 -12.52469 0.5218147 0
50.45961 -12.47469 0.5218147 0
50.50961 -12.52469 0.5718147 0
50.35961 -12.47469 0.7218148 0
50.50961 -12.47469 0.8218147 0
50.55961 -12.57469 0.5718147 0
50.60961 -12.57469 0.5718147 0
50.55961 -12.52469 0.5218147 0
50.60961 -12.52469 0.4718147 0
50.60961 -12.47469 0.5218147 0
50.55961 -12.52469 0.5718147 0
50.60961 -12.52469 0.6218147 0
50.65961 -12.57469 0.5718147 0
50.70961 -12.52469 0.5218147 0
50.70961 -12.47469 0.5218147 0
50.65961 -12.52469 0.6218147 0
50.70961 -12.52469 0.5718147 0
50.60961 -12.52469 0.7218148 0
50.35961 -12.42469 0.1718147 0
50.40961 -12.42469 0.1718147 0
50.40961 -12.37469 0.2218147 0
50.40961 -12.32469 0.1718147 0
50.40961 -12.32469 0.2218147 0
50.45961 -12.42469 0.1218147 0
50.50961 -12.37469 0.07181472 0
50.50961 -12.42469 0.1718147 0
50.50961 -12.42469 0.2218147 0
50.50961 -12.37469 0.2218147 0
50.45961 -12.32469 0.1218147 0
50.50961 -12.32469 0.1718147 0
50.55961 -12.42469 0.1218147 0
50.60961 -12.42469 0.1718147 0
50.60961 -12.37469 0.2218147 0
50.60961 -12.32469 0.1218147 0
50.55961 -12.32469 0.1718147 0
50.55961 -12.32469 0.2218147 0
50.60961 -12.32469 0.1718147 0
50.70961 -12.42469 0.1218147 0
50.70961 -12.37469 0.07181472 0
50.65961 -12.42469 0.2218147 0
50.70961 -12.37469 0.2218147 0
50.65961 -12.32469 0.1718147 0
50.40961 -12.42469 0.5218147 0
50.40961 -12.37469 0.5218147 0
50.40961 -12.32469 0.5218147 0
50.40961 -12.32469 0.5718147 0
50.50961 -12.42469 0.4718147 0
50.50961 -12.42469 0.5218147 0
50.50961 -12.37469 0.5218147 0
50.50961 -12.37469 0.6218147 0
50.45961 -12.32469 0.5218147 0
50.50961 -12.32469 0.5218147 0
50.50961 -12.32469 0.5718147 0
50.50961 -12.42469 0.7718147 0
50.55961 -12.42469 0.5218147 0
50.55961 -12.37469 0.5218147 0
50.60961 -12.42469 0.5218147 0
50.60961 -12.37469 0.5218147 0
50.60961 -12.32469 0.5218147 0
50.55961 -12.32469 0.5718147 0
50.65961 -12.42469 0.4718147 0
50.65961 -12.37469 0.5218147 0
50.70961 -12.42469 0.5218147 0
50.70961 -12.37469 0.5218147 0
50.70961 -12.37469 0.5718147 0
50.65961 -12.32469 0.5718147 0
50.60961 -12.42469 0.8218147 0
50.65961 -12.42469 0.7718147 0
50.70961 -12.42469 0.8218147 0
49.95961 -12.47469 0.9218147 0
50.00961 -12.52469 0.9218147 0
50.00961 -12.52469 0.9718148 0
50.10961 -12.47469 0.9718148 0
50.10961 -12.47469 1.021815 0
50.00961 -12.47469 1.071815 0
50.05961 -12.47469 1.121815 0
50.10961 -12.47469 1.071815 0
50.15961 -12.52469 0.9218147 0
50.20961 -12.52469 0.9718148 0
50.30961 -12.52469 0.9218147 0
50.25961 -12.47469 0.9718148 0
50.25961 -12.47469 1.021815 0
50.15961 -12.47469 1.171815 0
50.15961 -12.47469 1.221815 0
50.30961 -12.52469 1.071815 0
50.30961 -12.52469 1.121815 0
50.00961 -12.67469 1.571815 0
50.05961 -12.67469 1.571815 0
49.95961 -12.62469 1.421815 0
49.95961 -12.57469 1.421815 0
50.00961 -12.47469 1.421815 0
50.10961 -12.57469 1.321815 0
50.10961 -12.62469 1.421815 0
50.10961 -12.57469 1.421815 0
50.05961 -12.47469 1.321815 0
50.00961 -12.47469 1.521815 0
50.00961 -12.52469 1.571815 0
50.05961 -12.57469 1.571815 0
50.10961 -12.47469 1.521815 0
50.10961 -12.52469 1.571815 0
50.20961 -12.67469 1.571815 0
50.20961 -12.47469 1.271815 0
50.15961 -12.52469 1.371815 0
50.30961 -12.62469 1.421815 0
50.30961 -12.57469 1.421815 0
50.30961 -12.47469 1.271815 0
50.20961 -12.52469 1.521815 0
50.20961 -12.47469 1.521815 0
50.25961 -12.62469 1.521815 0
50.30961 -12.57469 1.521815 0
50.30961 -12.47469 1.521815 0
50.00961 -12.37469 0.8718147 0
49.95961 -12.32469 0.8718147 0
50.00961 -12.32469 0.9218147 0
49.95961 -12.32469 0.9718148 0
50.05961 -12.42469 0.8718147 0
50.05961 -12.42469 0.9218147 0
50.10961 -12.42469 0.9218147 0
50.10961 -12.37469 0.8718147 0
50.05961 -12.42469 1.021815 0
50.05961 -12.32469 0.8718147 0
50.05961 -12.27469 1.021815 0
50.10961 -12.32469 0.9718148 0
49.95961 -12.37469 1.171815 0
50.00961 -12.32469 1.121815 0
49.95961 -12.27469 1.171815 0
49.95961 -12.27469 1.221815 0
50.00961 -12.32469 1.171815 0
50.05961 -12.37469 1.171815 0
50.10961 -12.32469 1.071815 0
50.05961 -12.27469 1.171815 0
50.05961 -12.27469 1.221815 0
50.10961 -12.32469 1.171815 0
50.15961 -12.42469 0.8718147 0
50.15961 -12.42469 0.9218147 0
50.20961 -12.42469 0.9218147 0
50.20961 -12.37469 0.8718147 0
50.15961 -12.32469 0.8718147 0
50.15961 -12.32469 0.9218147 0
50.20961 -12.32469 0.8718147 0
50.25961 -12.42469 0.8718147 0
50.25961 -12.42469 0.9218147 0
50.30961 -12.37469 0.8718147 0
50.25961 -12.32469 0.8718147 0
50.25961 -12.32469 0.9218147 0
50.30961 -12.32469 0.8718147 0
50.25961 -12.27469 1.021815 0
50.30961 -12.32469 0.9718148 0
50.15961 -12.37469 1.171815 0
50.20961 -12.32469 1.121815 0
50.15961 -12.27469 1.171815 0
50.20961 -12.32469 1.171815 0
50.30961 -12.37469 1.171815 0
50.25961 -12.32469 1.071815 0
50.25961 -12.27469 1.171815 0
50.25961 -12.27469 1.221815 0
50.30961 -12.32469 1.171815 0
50.15961 -12.22469 1.221815 0
49.95961 -12.37469 1.271815 0
50.00961 -12.42469 1.271815 0
50.00961 -12.42469 1.371815 0
50.05961 -12.37469 1.271815 0
50.10961 -12.37469 1.271815 0
49.95961 -12.42469 1.521815 0
50.00961 -12.42469 1.521815 0
50.00961 -12.42469 1.571815 0
50.05961 -12.42469 1.521815 0
50.10961 -12.42469 1.571815 0
50.10961 -12.42469 1.621815 0
50.00961 -12.22469 1.321815 0
50.10961 -12.22469 1.321815 0
50.20961 -12.37469 1.271815 0
50.20961 -12.42469 1.421815 0
50.15961 -12.32469 1.271815 0
50.30961 -12.42469 1.271815 0
50.30961 -12.37469 1.271815 0
50.25961 -12.27469 1.321815 0
50.15961 -12.42469 1.521815 0
50.20961 -12.42469 1.521815 0
50.20961 -12.42469 1.571815 0
50.25961 -12.42469 1.521815 0
50.30961 -12.42469 1.571815 0
50.35961 -12.47469 0.9218147 0
50.40961 -12.52469 0.9218147 0
50.35961 -12.52469 0.9718148 0
50.40961 -12.47469 0.9718148 0
50.45961 -12.47469 1.021815 0
50.40961 -12.47469 1.121815 0
50.50961 -12.52469 1.071815 0
50.45961 -12.47469 1.221815 0
50.55961 -12.52469 0.9218147 0
50.55961 -12.52469 0.9718148 0
50.60961 -12.52469 0.9718148 0
50.70961 -12.52469 0.9218147 0
50.65961 -12.47469 1.021815 0
50.70961 -12.52469 0.9718148 0
50.55961 -12.52469 1.121815 0
50.65961 -12.47469 1.121815 0
50.70961 -12.52469 1.071815 0
50.40961 -12.67469 1.571815 0
50.35961 -12.52469 1.371815 0
50.45961 -12.62469 1.321815 0
50.45961 -12.62469 1.421815 0
50.45961 -12.47469 1.271815 0
50.50961 -12.52469 1.371815 0
50.40961 -12.47469 1.521815 0
50.50961 -12.62469 1.521815 0
50.45961 -12.52469 1.521815 0
50.50961 -12.47469 1.521815 0
50.60961 -12.72469 1.571815 0
50.70961 -12.67469 1.521815 0
50.60961 -12.47469 1.271815 0
50.65961 -12.62469 1.421815 0
50.55961 -12.62469 1.471815 0
50.60961 -12.62469 1.471815 0
50.55961 -12.52469 1.521815 0
50.60961 -12.47469 1.521815 0
50.60961 -12.47469 1.621815 0
50.65961 -12.52469 1.521815 0
50.65961 -12.47469 1.521815 0
50.70961 -12.47469 1.521815 0
50.65961 -12.52469 1.621815 0
50.35961 -12.42469 0.8718147 0
50.35961 -12.37469 0.8718147 0
50.40961 -12.42469 0.9218147 0
50.40961 -12.37469 0.8718147 0
50.40961 -12.32469 0.8718147 0
50.40961 -12.32469 0.9218147 0
50.45961 -12.42469 0.9218147 0
50.45961 -12.37469 0.8718147 0
50.50961 -12.42469 0.9218147 0
50.50961 -12.37469 0.8718147 0
50.50961 -12.42469 0.9718148 0
50.50961 -12.32469 0.8718147 0
50.45961 -12.32469 0.9718148 0
50.45961 -12.27469 1.021815 0
50.40961 -12.37469 1.071815 0
