# .PCD v0.7 - Point Cloud Data file format
VERSION 0.7
FIELDS x y z intensity
SIZE 4 4 4 4
TYPE F F F F
COUNT 1 1 1 1
WIDTH 1568
HEIGHT 1
VIEWPOINT 0 0 0 1 0 0 0
POINTS 1568
DATA ascii
52.40961 -62.72469 2.371815 0
52.45961 -62.77469 2.321815 0
52.60961 -62.77469 2.321815 0
52.55961 -62.77469 2.421815 0
52.60961 -62.77469 2.371815 0
52.60961 -62.72469 2.321815 0
52.55961 -62.72469 2.371815 0
52.75961 -62.77469 1.771815 0
52.75961 -62.77469 1.821815 0
52.80961 -62.77469 1.771815 0
52.80961 -62.72469 1.721815 0
52.75961 -62.72469 1.771815 0
52.80961 -62.72469 1.921815 0
53.00961 -62.77469 1.721815 0
52.95961 -62.77469 1.771815 0
52.95961 -62.77469 1.821815 0
52.95961 -62.72469 1.821815 0
53.10961 -62.77469 1.771815 0
53.00961 -62.77469 1.921815 0
52.75961 -62.77469 2.321815 0
52.80961 -62.77469 2.321815 0
52.75961 -62.77469 2.421815 0
52.80961 -62.77469 2.371815 0
52.75961 -62.72469 2.371815 0
52.95961 -62.77469 2.321815 0
53.00961 -62.77469 2.321815 0
52.95961 -62.82469 2.371815 0
52.95961 -62.77469 2.371815 0
52.95961 -62.77469 2.421815 0
53.10961 -62.77469 2.321815 0
53.10961 -62.77469 2.371815 0
52.50961 -62.72469 2.471815 0
52.50961 -62.67469 2.521815 0
52.50961 -62.72469 2.621815 0
52.40961 -62.62469 2.671815 0
52.70961 -62.72469 2.471815 0
52.65961 -62.62469 2.671815 0
52.75961 -62.77469 2.621815 0
52.75961 -62.72469 2.521815 0
52.90961 -62.77469 2.471815 0
52.95961 -62.72469 2.571815 0
53.05961 -62.77469 2.621815 0
53.10961 -62.47469 3.221815 0
53.20961 -62.77469 1.721815 0
53.15961 -62.82469 1.771815 0
53.15961 -62.82469 1.821815 0
53.15961 -62.77469 1.771815 0
53.15961 -62.77469 1.821815 0
53.30961 -62.77469 1.771815 0
53.20961 -62.72469 1.921815 0
53.25961 -62.77469 1.921815 0
53.40961 -62.77469 1.721815 0
53.35961 -62.82469 1.771815 0
53.35961 -62.77469 1.771815 0
53.35961 -62.77469 1.821815 0
53.45961 -62.82469 1.771815 0
53.45961 -62.77469 1.771815 0
53.50961 -62.82469 1.771815 0
53.40961 -62.72469 1.921815 0
53.50961 -62.77469 1.921815 0
53.15961 -62.82469 2.321815 0
53.20961 -62.77469 2.321815 0
53.15961 -62.82469 2.371815 0
53.30961 -62.77469 2.321815 0
53.40961 -62.77469 2.321815 0
53.35961 -62.82469 2.371815 0
53.35961 -62.77469 2.421815 0
53.45961 -62.77469 2.321815 0
53.50961 -62.82469 2.371815 0
53.65961 -62.92469 1.771815 0
53.70961 -62.92469 1.771815 0
53.70961 -62.92469 1.821815 0
53.65961 -62.92469 1.921815 0
53.75961 -62.97469 1.821815 0
53.75961 -62.92469 1.721815 0
53.80961 -62.92469 1.771815 0
53.80961 -62.92469 1.821815 0
53.90961 -62.97469 1.771815 0
53.85961 -62.92469 1.871815 0
53.90961 -62.92469 1.871815 0
53.65961 -62.92469 2.371815 0
53.70961 -62.92469 2.371815 0
53.70961 -62.92469 2.421815 0
53.75961 -62.97469 2.421815 0
53.75961 -62.92469 2.321815 0
53.80961 -62.92469 2.371815 0
53.80961 -62.92469 2.421815 0
53.85961 -62.97469 2.371815 0
53.90961 -62.97469 2.371815 0
53.60961 -62.77469 1.721815 0
53.55961 -62.82469 1.771815 0
53.55961 -62.82469 1.821815 0
53.55961 -62.77469 1.821815 0
53.60961 -62.82469 1.821815 0
53.65961 -62.82469 1.771815 0
53.65961 -62.72469 1.921815 0
53.60961 -62.77469 2.321815 0
53.55961 -62.82469 2.421815 0
53.55961 -62.77469 2.421815 0
53.60961 -62.82469 2.421815 0
53.65961 -62.82469 2.321815 0
53.15961 -62.82469 2.471815 0
53.15961 -62.77469 2.471815 0
53.20961 -62.72469 2.571815 0
53.25961 -62.77469 2.571815 0
53.35961 -62.77469 2.471815 0
53.40961 -62.72469 2.571815 0
53.50961 -62.82469 2.571815 0
53.35961 -62.67469 3.221815 0
53.35961 -62.57469 3.221815 0
53.65961 -62.92469 2.571815 0
53.85961 -62.97469 2.471815 0
53.90961 -62.92469 2.571815 0
53.55961 -62.82469 2.471815 0
53.65961 -62.72469 2.571815 0
53.70961 -62.57469 3.171815 0
54.05961 -62.87469 1.171815 0
54.15961 -62.87469 1.171815 0
54.25961 -62.87469 1.171815 0
54.30961 -62.92469 1.271815 0
53.95961 -62.82469 1.121815 0
54.00961 -62.82469 1.171815 0
54.00961 -62.82469 1.221815 0
54.15961 -62.82469 1.121815 0
54.20961 -62.82469 1.171815 0
54.20961 -62.82469 1.221815 0
54.35961 -62.87469 1.171815 0
54.45961 -62.87469 1.171815 0
54.45961 -62.87469 1.221815 0
54.50961 -62.87469 1.171815 0
54.55961 -62.87469 1.171815 0
54.60961 -62.87469 1.171815 0
54.70961 -62.87469 1.121815 0
54.65961 -62.87469 1.221815 0
54.70961 -62.87469 1.171815 0
54.60961 -62.97469 1.271815 0
54.35961 -62.82469 1.121815 0
54.35961 -62.82469 1.171815 0
54.40961 -62.82469 1.171815 0
54.45961 -62.82469 1.221815 0
54.55961 -62.82469 1.121815 0
54.55961 -62.82469 1.171815 0
54.60961 -62.82469 1.171815 0
54.70961 -62.82469 1.221815 0
54.75961 -62.92469 1.221815 0
54.75961 -62.87469 1.171815 0
54.80961 -62.92469 1.171815 0
54.80961 -62.87469 1.171815 0
54.90961 -62.87469 1.121815 0
54.85961 -62.87469 1.221815 0
54.90961 -62.87469 1.171815 0
54.90961 -62.87469 1.221815 0
54.95961 -62.87469 1.171815 0
54.95961 -62.87469 1.221815 0
55.00961 -62.92469 1.171815 0
55.00961 -62.87469 1.171815 0
55.10961 -62.87469 1.121815 0
55.10961 -62.92469 1.221815 0
55.10961 -62.87469 1.171815 0
54.75961 -62.82469 1.171815 0
54.95961 -62.82469 1.271815 0
55.20961 -62.87469 1.121815 0
55.15961 -62.92469 1.221815 0
55.15961 -62.87469 1.171815 0
55.20961 -62.92469 1.171815 0
55.20961 -62.87469 1.221815 0
55.25961 -62.87469 1.121815 0
55.25961 -62.92469 1.171815 0
55.25961 -62.87469 1.171815 0
55.30961 -62.87469 1.171815 0
55.40961 -62.87469 1.121815 0
55.35961 -62.92469 1.221815 0
55.35961 -62.87469 1.171815 0
55.40961 -62.92469 1.171815 0
55.45961 -62.87469 1.121815 0
55.45961 -62.92469 1.171815 0
55.45961 -62.87469 1.221815 0
55.50961 -62.92469 1.171815 0
53.95961 -62.97469 1.821815 0
54.00961 -62.97469 1.771815 0
53.95961 -62.92469 1.721815 0
53.95961 -62.92469 1.771815 0
54.00961 -62.92469 1.771815 0
54.00961 -62.92469 1.821815 0
54.10961 -62.97469 1.771815 0
54.10961 -62.92469 1.721815 0
53.95961 -62.87469 1.921815 0
54.05961 -62.97469 1.871815 0
54.15961 -62.97469 1.821815 0
54.20961 -62.97469 1.771815 0
54.15961 -62.92469 1.771815 0
54.30961 -62.97469 1.721815 0
54.25961 -62.97469 1.771815 0
54.15961 -62.97469 1.871815 0
54.20961 -62.87469 1.971815 0
54.25961 -62.97469 1.871815 0
53.95961 -62.97469 2.421815 0
54.00961 -62.97469 2.371815 0
53.95961 -62.92469 2.321815 0
53.95961 -62.92469 2.421815 0
54.00961 -62.92469 2.371815 0
54.00961 -62.92469 2.421815 0
54.10961 -62.97469 2.371815 0
54.10961 -62.92469 2.321815 0
54.15961 -62.97469 2.421815 0
54.20961 -62.97469 2.371815 0
54.15961 -62.92469 2.421815 0
54.30961 -62.97469 2.271815 0
54.25961 -62.97469 2.371815 0
54.35961 -63.02469 1.821815 0
54.35961 -62.97469 1.771815 0
54.35961 -62.92469 1.771815 0
54.45961 -62.97469 1.771815 0
54.50961 -62.92469 1.721815 0
54.40961 -62.97469 1.871815 0
54.50961 -62.97469 1.871815 0
54.45961 -62.87469 1.971815 0
54.55961 -63.02469 1.821815 0
54.55961 -62.97469 1.771815 0
54.55961 -62.92469 1.771815 0
54.70961 -62.97469 1.671815 0
54.65961 -63.02469 1.771815 0
54.70961 -62.97469 1.771815 0
54.60961 -62.97469 1.871815 0
54.60961 -62.92469 1.971815 0
54.70961 -62.97469 1.871815 0
54.70961 -62.92469 1.971815 0
54.35961 -63.02469 2.421815 0
54.35961 -62.97469 2.371815 0
54.35961 -62.97469 2.421815 0
54.50961 -62.97469 2.271815 0
54.45961 -62.97469 2.371815 0
54.55961 -62.97469 2.321815 0
54.55961 -62.97469 2.371815 0
54.70961 -62.97469 2.271815 0
54.70961 -62.97469 2.321815 0
54.65961 -63.02469 2.371815 0
53.95961 -62.87469 2.621815 0
54.05961 -62.97469 2.521815 0
54.15961 -62.97469 2.521815 0
54.20961 -62.87469 2.621815 0
54.25961 -62.97469 2.521815 0
54.00961 -62.47469 3.171815 0
54.35961 -62.97469 2.521815 0
54.50961 -62.97469 2.521815 0
54.45961 -62.92469 2.671815 0
54.55961 -63.02469 2.471815 0
54.60961 -62.97469 2.521815 0
54.70961 -63.02469 2.521815 0
54.60961 -62.97469 2.671815 0
54.45961 -62.47469 2.621815 0
54.75961 -63.02469 1.821815 0
54.75961 -62.97469 1.771815 0
54.85961 -62.97469 1.671815 0
54.85961 -63.02469 1.771815 0
54.90961 -63.02469 1.771815 0
54.90961 -62.97469 1.771815 0
54.80961 -62.97469 1.871815 0
54.85961 -62.97469 1.921815 0
54.90961 -62.92469 1.971815 0
54.95961 -63.02469 1.821815 0
54.95961 -62.97469 1.771815 0
55.05961 -62.97469 1.671815 0
55.05961 -63.02469 1.771815 0
55.05961 -62.97469 1.821815 0
55.10961 -63.02469 1.771815 0
55.10961 -62.97469 1.771815 0
54.95961 -63.02469 1.871815 0
55.10961 -62.97469 1.921815 0
54.75961 -62.97469 2.371815 0
54.85961 -62.97469 2.271815 0
54.90961 -62.97469 2.321815 0
54.85961 -63.02469 2.371815 0
54.90961 -62.97469 2.371815 0
54.95961 -62.97469 2.371815 0
55.00961 -63.02469 2.421815 0
55.05961 -62.97469 2.271815 0
55.10961 -62.97469 2.321815 0
55.10961 -63.02469 2.371815 0
55.15961 -62.97469 1.771815 0
55.20961 -63.02469 1.771815 0
55.20961 -63.02469 1.821815 0
55.25961 -63.02469 1.671815 0
55.25961 -63.02469 1.771815 0
55.25961 -63.02469 1.821815 0
55.25961 -62.97469 1.771815 0
55.30961 -63.02469 1.771815 0
55.15961 -63.02469 1.921815 0
55.40961 -62.87469 1.721815 0
55.35961 -62.92469 1.821815 0
55.40961 -62.92469 1.771815 0
55.45961 -62.87469 1.671815 0
55.45961 -62.87469 1.721815 0
55.45961 -62.92469 1.771815 0
55.50961 -62.87469 1.771815 0
55.35961 -62.92469 1.921815 0
55.45961 -62.87469 1.921815 0
55.15961 -63.02469 2.371815 0
55.20961 -63.02469 2.421815 0
55.25961 -63.02469 2.321815 0
55.25961 -62.97469 2.271815 0
55.25961 -63.02469 2.371815 0
55.30961 -63.02469 2.371815 0
55.45961 -62.92469 2.221815 0
55.40961 -62.87469 2.321815 0
55.40961 -62.92469 2.371815 0
55.45961 -62.92469 2.321815 0
55.45961 -62.92469 2.371815 0
55.50961 -62.87469 2.371815 0
54.75961 -63.02469 2.471815 0
54.85961 -62.97469 2.471815 0
54.85961 -62.97469 2.621815 0
54.95961 -63.02469 2.471815 0
54.95961 -63.02469 2.571815 0
55.05961 -63.02469 2.471815 0
55.10961 -62.97469 2.621815 0
54.95961 -62.52469 3.171815 0
55.20961 -63.02469 2.471815 0
55.15961 -63.02469 2.571815 0
55.30961 -63.02469 2.471815 0
55.35961 -62.92469 2.471815 0
55.35961 -62.92469 2.571815 0
55.45961 -62.87469 2.571815 0
55.20961 -62.62469 3.171815 0
55.45961 -62.72469 3.221815 0
52.45961 -64.47469 3.871815 0
52.50961 -64.47469 3.921815 0
52.70961 -64.57469 3.921815 0
52.40961 -64.27469 3.871815 0
52.50961 -64.07469 3.771815 0
52.70961 -64.37469 3.871815 0
52.65961 -64.22469 3.821815 0
52.70961 -64.12469 3.771815 0
52.95961 -64.62469 3.921815 0
53.10961 -64.62469 3.971815 0
52.85961 -64.22469 3.821815 0
52.90961 -64.17469 3.821815 0
52.95961 -64.27469 3.821815 0
53.05961 -64.22469 3.821815 0
53.10961 -64.17469 3.821815 0
53.85961 -64.87469 4.021815 0
53.15961 -64.67469 3.971815 0
53.30961 -64.57469 3.971815 0
53.35961 -64.72469 3.971815 0
53.20961 -64.22469 3.771815 0
53.30961 -64.22469 3.821815 0
53.25961 -64.12469 3.821815 0
53.50961 -64.27469 3.821815 0
53.45961 -64.17469 3.821815 0
53.45961 -64.12469 3.771815 0
53.60961 -64.82469 4.021815 0
53.55961 -64.52469 3.971815 0
53.85961 -64.82469 4.021815 0
53.75961 -64.47469 3.921815 0
53.70961 -64.32469 3.821815 0
53.70961 -64.07469 3.721815 0
53.65961 -64.12469 3.771815 0
53.90961 -64.32469 3.871815 0
53.80961 -64.07469 3.771815 0
53.85961 -64.12469 3.771815 0
52.45961 -64.02469 3.771815 0
52.65961 -64.02469 3.771815 0
52.85961 -64.02469 3.771815 0
53.05961 -64.02469 3.771815 0
53.00961 -62.77469 3.271815 0
53.25961 -64.02469 3.771815 0
53.45961 -64.02469 3.771815 0
53.65961 -64.02469 3.771815 0
53.65961 -62.67469 3.271815 0
53.90961 -62.82469 3.321815 0
54.05961 -64.97469 4.071815 0
54.30961 -65.02469 4.071815 0
54.15961 -64.72469 3.971815 0
54.30961 -64.47469 3.871815 0
54.00961 -64.42469 3.921815 0
54.10961 -64.37469 3.871815 0
54.00961 -64.07469 3.771815 0
54.05961 -64.07469 3.771815 0
54.20961 -64.37469 3.871815 0
54.20961 -64.07469 3.771815 0
54.25961 -64.07469 3.771815 0
54.40961 -64.62469 3.921815 0
54.50961 -64.47469 3.871815 0
54.70961 -64.57469 3.921815 0
54.65961 -64.52469 3.871815 0
54.40961 -64.37469 3.871815 0
54.40961 -64.07469 3.771815 0
54.65961 -64.32469 3.871815 0
54.60961 -64.12469 3.771815 0
54.60961 -64.07469 3.771815 0
54.95961 -64.62469 3.921815 0
54.85961 -64.32469 3.871815 0
54.80961 -64.17469 3.771815 0
54.80961 -64.07469 3.771815 0
55.05961 -64.27469 3.821815 0
54.95961 -64.42469 3.871815 0
54.95961 -64.17469 3.771815 0
55.00961 -64.07469 3.771815 0
55.15961 -64.67469 3.921815 0
55.35961 -64.72469 3.971815 0
55.35961 -64.67469 3.971815 0
55.20961 -64.32469 3.821815 0
55.15961 -64.22469 3.771815 0
55.20961 -64.07469 3.721815 0
55.25961 -64.22469 3.821815 0
55.45961 -64.27469 3.771815 0
55.35961 -64.22469 3.821815 0
55.40961 -64.07469 3.721815 0
55.45961 -64.22469 3.821815 0
53.95961 -63.97469 3.671815 0
54.15961 -63.92469 3.671815 0
54.40961 -63.82469 3.621815 0
54.60961 -63.77469 3.621815 0
54.20961 -62.87469 3.321815 0
54.80961 -63.72469 3.571815 0
55.00961 -63.67469 3.571815 0
55.25961 -63.62469 3.571815 0
55.45961 -63.57469 3.521815 0
55.20961 -62.82469 3.271815 0
45.00961 -56.12469 0.5718147 0
45.00961 -56.07469 0.6218147 0
47.30961 -61.77469 2.771815 0
47.30961 -61.77469 2.821815 0
47.40961 -61.77469 2.821815 0
47.45961 -61.77469 2.821815 0
47.50961 -61.82469 2.821815 0
47.25961 -61.77469 2.871815 0
47.40961 -61.77469 2.871815 0
47.60961 -62.17469 2.621815 0
47.60961 -61.77469 2.821815 0
47.65961 -61.82469 2.821815 0
47.80961 -61.82469 2.821815 0
47.60961 -61.77469 2.871815 0
47.75961 -61.77469 2.871815 0
47.80961 -61.77469 2.871815 0
47.95961 -61.82469 2.821815 0
48.00961 -61.82469 2.821815 0
48.15961 -61.87469 2.821815 0
48.30961 -61.87469 2.821815 0
48.15961 -61.82469 2.821815 0
47.95961 -61.77469 2.871815 0
48.10961 -61.82469 2.871815 0
48.15961 -61.77469 2.871815 0
48.30961 -61.82469 2.871815 0
48.45961 -61.87469 2.821815 0
48.50961 -61.87469 2.821815 0
48.35961 -61.82469 2.821815 0
48.45961 -61.82469 2.821815 0
48.65961 -61.87469 2.821815 0
48.70961 -61.87469 2.821815 0
48.50961 -61.82469 2.871815 0
48.65961 -61.82469 2.871815 0
48.80961 -61.87469 2.821815 0
48.85961 -61.87469 2.821815 0
48.80961 -61.82469 2.821815 0
49.00961 -61.87469 2.821815 0
49.05961 -61.87469 2.821815 0
48.85961 -61.82469 2.871815 0
49.05961 -61.82469 2.871815 0
47.50961 -56.62469 0.4718147 0
47.40961 -56.42469 0.4718147 0
47.50961 -56.27469 0.4718147 0
47.90961 -57.32469 0.07181472 0
47.60961 -57.12469 0.5218147 0
47.95961 -57.47469 0.07181472 0
47.95961 -57.27469 0.07181472 0
48.05961 -57.32469 0.07181472 0
48.10961 -57.27469 0.07181472 0
48.15961 -57.32469 0.07181472 0
48.25961 -57.27469 0.07181472 0
48.00961 -57.22469 0.07181472 0
48.20961 -57.22469 0.07181472 0
47.70961 -57.12469 0.9718148 0
47.55961 -56.77469 0.5218147 0
47.55961 -56.47469 0.5218147 0
47.60961 -56.17469 0.5218147 0
47.75961 -56.07469 0.4718147 0
47.80961 -56.07469 0.4718147 0
48.30961 -56.07469 0.4718147 0
47.70961 -56.77469 0.9218147 0
47.65961 -56.72469 0.8718147 0
47.70961 -56.47469 0.9218147 0
47.85961 -56.62469 1.271815 0
47.65961 -56.27469 0.8718147 0
47.70961 -56.12469 1.171815 0
47.75961 -56.22469 0.9218147 0
47.90961 -56.27469 1.271815 0
48.05961 -56.52469 1.371815 0
48.05961 -56.27469 1.321815 0
48.05961 -56.07469 1.321815 0
48.40961 -57.27469 0.07181472 0
48.45961 -57.22469 0.07181472 0
49.10961 -56.07469 1.221815 0
49.05961 -56.07469 1.271815 0
45.00961 -55.82469 0.1218147 0
45.00961 -55.92469 0.5718147 0
45.05961 -56.02469 0.5718147 0
45.00961 -55.82469 0.4718147 0
45.00961 -55.82469 0.6218147 0
45.00961 -55.67469 0.5718147 0
45.05961 -55.77469 0.5718147 0
45.05961 -55.72469 0.5718147 0
45.00961 -55.82469 0.8218147 0
45.00961 -55.32469 0.1218147 0
45.10961 -55.32469 0.1218147 0
45.00961 -55.62469 0.6218147 0
45.00961 -55.47469 0.5718147 0
45.05961 -55.52469 0.5718147 0
45.05961 -55.47469 0.5718147 0
45.00961 -55.37469 0.6218147 0
45.00961 -55.27469 0.4718147 0
45.00961 -55.32469 0.5718147 0
45.00961 -55.82469 1.221815 0
45.00961 -55.57469 1.121815 0
45.00961 -55.52469 1.221815 0
45.00961 -55.37469 1.121815 0
45.00961 -55.27469 1.221815 0
45.00961 -55.12469 0.5718147 0
45.00961 -54.92469 0.5718147 0
45.00961 -54.87469 0.5718147 0
45.05961 -55.02469 0.5718147 0
45.05961 -54.97469 0.5718147 0
45.00961 -54.72469 0.5718147 0
45.00961 -54.67469 0.5718147 0
45.05961 -54.72469 0.5718147 0
45.00961 -54.47469 0.5718147 0
45.05961 -54.47469 0.5718147 0
45.00961 -54.57469 0.7718147 0
45.00961 -55.12469 1.121815 0
45.00961 -55.07469 1.171815 0
45.00961 -55.02469 1.171815 0
45.00961 -54.92469 1.121815 0
45.00961 -54.87469 1.171815 0
45.00961 -55.02469 1.271815 0
45.00961 -54.67469 1.121815 0
45.00961 -54.67469 1.171815 0
45.05961 -54.72469 1.171815 0
45.00961 -54.57469 1.071815 0
45.00961 -54.47469 1.121815 0
45.05961 -54.47469 1.121815 0
45.05961 -54.47469 1.171815 0
45.00961 -54.72469 1.271815 0
45.00961 -54.57469 1.421815 0
45.05961 -54.47469 1.271815 0
45.00961 -54.47469 1.921815 0
45.05961 -54.42469 0.5718147 0
45.05961 -54.27469 0.5718147 0
45.00961 -54.07469 0.5718147 0
45.00961 -54.07469 0.6218147 0
45.05961 -54.22469 0.5718147 0
45.05961 -54.07469 0.5218147 0
45.05961 -54.12469 0.5718147 0
45.00961 -54.12469 0.7718147 0
45.00961 -53.87469 0.5718147 0
45.05961 -54.02469 0.5718147 0
45.05961 -53.87469 0.5718147 0
45.00961 -53.82469 0.6218147 0
45.05961 -53.82469 0.5218147 0
45.05961 -53.77469 0.5718147 0
45.05961 -53.67469 0.5718147 0
45.00961 -53.72469 0.7218148 0
45.00961 -54.27469 1.121815 0
45.05961 -54.27469 1.121815 0
45.00961 -54.17469 1.071815 0
45.00961 -54.07469 1.121815 0
45.05961 -54.22469 1.171815 0
45.05961 -54.07469 1.121815 0
45.05961 -54.12469 1.221815 0
45.00961 -54.17469 1.371815 0
45.00961 -54.07469 1.271815 0
45.05961 -53.97469 1.171815 0
45.05961 -53.87469 1.121815 0
45.05961 -53.87469 1.221815 0
45.05961 -53.72469 1.021815 0
45.05961 -53.82469 1.121815 0
45.05961 -53.77469 1.171815 0
45.05961 -53.67469 1.071815 0
45.05961 -53.67469 1.121815 0
45.00961 -53.82469 1.271815 0
45.00961 -53.77469 1.321815 0
45.00961 -53.82469 1.621815 0
45.00961 -53.42469 0.1218147 0
45.05961 -53.32469 0.1218147 0
45.00961 -53.62469 0.6218147 0
45.05961 -53.62469 0.5218147 0
45.10961 -53.57469 0.5718147 0
45.05961 -53.47469 0.5718147 0
45.10961 -53.52469 0.5718147 0
45.00961 -53.42469 0.6218147 0
45.10961 -53.42469 0.5218147 0
45.05961 -53.27469 0.5718147 0
45.10961 -53.27469 0.5718147 0
45.05961 -53.37469 0.7218148 0
45.00961 -53.22469 0.6218147 0
45.00961 -53.12469 0.5718147 0
45.10961 -53.22469 0.5218147 0
45.05961 -53.07469 0.5718147 0
45.00961 -53.02469 0.6218147 0
45.00961 -53.62469 1.221815 0
45.05961 -53.57469 1.221815 0
45.05961 -53.52469 1.121815 0
45.05961 -53.47469 1.121815 0
45.05961 -53.37469 1.021815 0
45.00961 -53.42469 1.221815 0
45.05961 -53.42469 1.071815 0
45.05961 -53.32469 1.121815 0
45.05961 -53.27469 1.071815 0
45.05961 -53.27469 1.121815 0
45.10961 -53.27469 1.221815 0
45.00961 -53.57469 1.571815 0
45.00961 -53.47469 1.621815 0
45.05961 -53.42469 1.271815 0
45.05961 -53.27469 1.621815 0
45.00961 -53.22469 1.221815 0
45.05961 -53.12469 1.121815 0
45.10961 -53.07469 1.071815 0
45.10961 -53.07469 1.121815 0
45.05961 -52.97469 1.221815 0
45.10961 -53.02469 1.221815 0
45.05961 -52.92469 1.121815 0
45.10961 -52.87469 1.071815 0
45.10961 -53.07469 1.271815 0
45.00961 -53.07469 1.621815 0
45.05961 -52.87469 1.621815 0
45.15961 -53.27469 0.1218147 0
45.25961 -53.17469 0.1218147 0
45.30961 -53.07469 0.1218147 0
45.15961 -53.02469 0.5718147 0
45.00961 -54.27469 1.671815 0
45.00961 -54.32469 1.771815 0
45.00961 -54.07469 1.671815 0
45.00961 -54.07469 1.771815 0
45.00961 -54.17469 1.921815 0
45.00961 -53.87469 1.671815 0
45.00961 -53.87469 1.721815 0
45.00961 -53.92469 1.921815 0
45.05961 -53.87469 1.871815 0
45.00961 -53.82469 1.771815 0
45.00961 -53.67469 1.671815 0
45.00961 -53.57469 1.721815 0
45.00961 -53.52469 1.721815 0
45.00961 -53.62469 1.871815 0
45.00961 -53.32469 1.671815 0
45.00961 -53.32469 1.721815 0
45.00961 -53.37469 1.871815 0
45.00961 -53.12469 1.671815 0
45.00961 -53.12469 1.721815 0
45.00961 -53.12469 1.821815 0
45.05961 -53.12469 1.971815 0
45.05961 -52.92469 1.671815 0
45.05961 -52.87469 1.721815 0
45.10961 -52.57469 0.6218147 0
45.10961 -52.37469 0.6218147 0
45.10961 -52.17469 0.6218147 0
45.10961 -52.82469 1.121815 0
45.05961 -52.77469 1.221815 0
45.10961 -52.77469 1.171815 0
45.05961 -52.72469 1.121815 0
45.10961 -52.62469 1.121815 0
45.05961 -52.57469 1.221815 0
45.10961 -52.52469 1.121815 0
45.10961 -52.47469 1.071815 0
45.10961 -52.52469 1.171815 0
45.10961 -52.72469 1.271815 0
45.05961 -52.67469 1.621815 0
45.10961 -52.47469 1.621815 0
45.00961 -52.37469 1.071815 0
45.10961 -52.37469 1.121815 0
45.05961 -52.37469 1.221815 0
45.10961 -52.42469 1.221815 0
45.10961 -52.27469 1.171815 0
45.10961 -52.17469 1.221815 0
45.10961 -52.32469 1.571815 0
45.10961 -52.12469 1.571815 0
45.00961 -51.97469 0.2218147 0
45.00961 -51.92469 0.1718147 0
45.00961 -51.87469 0.1718147 0
45.10961 -51.97469 0.2218147 0
45.10961 -51.92469 0.2218147 0
45.00961 -51.92469 0.4218147 0
45.00961 -51.87469 0.4218147 0
45.05961 -51.87469 0.4218147 0
45.10961 -51.92469 0.4218147 0
45.00961 -51.97469 0.5718147 0
45.00961 -51.97469 0.6218147 0
45.05961 -51.97469 0.5218147 0
45.10961 -51.97469 0.6218147 0
45.05961 -51.87469 0.4718147 0
45.00961 -51.82469 0.4718147 0
45.00961 -51.82469 0.5718147 0
45.10961 -51.82469 0.4718147 0
45.00961 -51.67469 0.6718147 0
45.05961 -51.72469 0.6718147 0
45.05961 -51.57469 0.7218148 0
45.05961 -51.52469 0.8218147 0
45.05961 -51.42469 0.8218147 0
45.10961 -52.02469 1.121815 0
45.05961 -51.97469 1.221815 0
45.10961 -52.02469 1.171815 0
45.10961 -51.92469 1.071815 0
45.10961 -51.82469 1.121815 0
45.10961 -51.77469 1.071815 0
45.10961 -51.77469 1.221815 0
45.05961 -51.67469 1.121815 0
45.05961 -51.67469 1.221815 0
45.10961 -51.92469 1.571815 0
45.05961 -51.67469 1.271815 0
45.10961 -51.77469 1.571815 0
45.05961 -51.67469 1.471815 0
45.00961 -51.62469 1.021815 0
45.00961 -51.57469 0.9718148 0
45.00961 -51.47469 0.8718147 0
45.05961 -51.62469 1.021815 0
45.10961 -51.57469 0.9718148 0
45.10961 -51.47469 0.8718147 0
45.10961 -51.52469 1.021815 0
45.00961 -51.62469 1.071815 0
45.00961 -51.57469 1.221815 0
45.05961 -51.57469 1.121815 0
45.10961 -51.62469 1.121815 0
45.05961 -51.42469 0.9218147 0
45.05961 -51.62469 1.321815 0
45.05961 -51.57469 1.271815 0
45.10961 -51.62469 1.321815 0
45.10961 -51.57469 1.271815 0
45.00961 -51.62469 1.521815 0
45.00961 -51.62469 1.571815 0
45.05961 -51.57469 1.471815 0
45.10961 -51.62469 1.521815 0
45.10961 -51.57469 1.471815 0
45.10961 -51.62469 1.571815 0
45.15961 -52.82469 0.5218147 0
45.15961 -52.77469 0.5718147 0
45.15961 -52.72469 0.5718147 0
45.15961 -52.67469 0.5718147 0
45.20961 -52.72469 0.5718147 0
45.15961 -52.62469 0.5218147 0
45.20961 -52.57469 0.5218147 0
45.15961 -52.47469 0.5218147 0
45.15961 -52.52469 0.5718147 0
45.20961 -52.47469 0.5718147 0
45.20961 -52.37469 0.5218147 0
45.20961 -52.37469 0.5718147 0
45.20961 -52.27469 0.5218147 0
45.15961 -52.32469 0.5718147 0
45.15961 -52.17469 0.5718147 0
45.20961 -52.22469 0.5718147 0
45.20961 -52.12469 0.5218147 0
45.20961 -52.07469 0.5218147 0
45.20961 -52.07469 0.5718147 0
45.85961 -52.32469 0.1218147 0
45.15961 -52.67469 1.071815 0
45.15961 -52.37469 1.121815 0
45.15961 -52.17469 1.121815 0
45.15961 -52.12469 1.071815 0
45.20961 -51.97469 0.2218147 0
45.15961 -51.92469 0.1218147 0
45.15961 -51.92469 0.1718147 0
45.15961 -51.92469 0.2218147 0
45.25961 -51.92469 0.1718147 0
45.25961 -51.92469 0.2218147 0
45.15961 -51.87469 0.4218147 0
45.20961 -51.92469 0.4218147 0
45.15961 -51.97469 0.5218147 0
45.15961 -51.97469 0.5718147 0
45.15961 -51.97469 0.6218147 0
45.20961 -51.97469 0.6218147 0
45.20961 -51.87469 0.4718147 0
45.20961 -51.87469 0.5218147 0
45.20961 -51.92469 0.5718147 0
45.20961 -51.82469 0.4718147 0
45.15961 -51.72469 0.6718147 0
45.20961 -51.57469 0.7218148 0
45.15961 -51.52469 0.8218147 0
45.20961 -51.52469 0.8218147 0
45.25961 -51.47469 0.8218147 0
45.15961 -51.97469 1.121815 0
45.20961 -52.02469 1.071815 0
45.15961 -51.87469 1.221815 0
45.15961 -51.67469 1.021815 0
45.15961 -51.77469 1.071815 0
45.15961 -51.77469 1.171815 0
45.20961 -51.67469 1.121815 0
45.15961 -51.67469 1.271815 0
45.20961 -51.67469 1.321815 0
45.15961 -51.67469 1.471815 0
45.20961 -51.52469 0.8718147 0
45.05961 -52.82469 1.821815 0
45.05961 -52.72469 1.671815 0
45.00961 -52.82469 1.871815 0
45.05961 -52.77469 1.921815 0
45.05961 -52.57469 1.671815 0
45.10961 -52.62469 1.671815 0
45.10961 -52.52469 1.821815 0
45.00961 -52.62469 1.871815 0
45.05961 -52.47469 1.921815 0
45.05961 -52.37469 1.671815 0
45.10961 -52.42469 1.671815 0
45.10961 -52.27469 1.771815 0
45.00961 -52.37469 1.871815 0
45.10961 -52.22469 1.671815 0
45.10961 -52.17469 1.671815 0
45.05961 -52.17469 1.871815 0
45.10961 -52.02469 1.671815 0
45.10961 -51.97469 1.671815 0
45.10961 -52.02469 1.771815 0
45.05961 -51.97469 1.871815 0
45.10961 -51.92469 1.871815 0
45.00961 -51.67469 1.671815 0
45.00961 -51.67469 1.771815 0
45.10961 -51.82469 1.671815 0
45.10961 -51.77469 1.671815 0
45.10961 -51.77469 1.771815 0
45.05961 -51.67469 1.671815 0
45.10961 -51.67469 1.821815 0
45.00961 -51.72469 1.921815 0
45.00961 -51.72469 2.021815 0
45.05961 -51.77469 1.871815 0
45.10961 -51.72469 1.921815 0
45.05961 -51.72469 2.021815 0
45.00961 -51.67469 2.071815 0
45.10961 -51.77469 2.071815 0
45.10961 -51.62469 1.671815 0
45.05961 -51.62469 1.771815 0
45.15961 -51.72469 1.671815 0
45.15961 -51.67469 1.821815 0
45.15961 -51.77469 1.921815 0
45.15961 -51.62469 1.771815 0
45.00961 -50.62469 0.07181472 0
45.10961 -50.62469 0.07181472 0
45.20961 -50.62469 0.07181472 0
45.20961 -50.52469 0.1218147 0
45.25961 -50.62469 0.07181472 0
45.35961 -50.62469 0.07181472 0
45.45961 -50.62469 0.07181472 0
45.50961 -50.52469 0.1218147 0
45.55961 -50.67469 0.07181472 0
45.65961 -50.67469 0.07181472 0
45.70961 -50.62469 0.07181472 0
45.75961 -50.67469 0.07181472 0
45.85961 -50.67469 0.07181472 0
45.90961 -50.62469 0.07181472 0
45.85961 -50.52469 0.1218147 0
47.40961 -56.02469 0.4718147 0
47.50961 -55.97469 0.4718147 0
47.15961 -53.62469 0.1218147 0
47.25961 -53.52469 0.1218147 0
47.30961 -53.42469 0.1218147 0
47.40961 -53.32469 0.1218147 0
47.50961 -53.22469 0.1218147 0
47.90961 -55.92469 0.1218147 0
47.80961 -55.77469 0.1218147 0
47.90961 -55.77469 0.1218147 0
47.55961 -55.97469 0.4718147 0
47.60961 -55.97469 0.5218147 0
47.60961 -55.87469 0.4718147 0
47.65961 -55.87469 0.4718147 0
47.70961 -55.87469 0.5218147 0
47.60961 -55.97469 0.8218147 0
47.65961 -55.87469 0.8218147 0
47.70961 -55.87469 0.8218147 0
47.55961 -55.82469 0.4718147 0
47.70961 -55.82469 0.4718147 0
47.70961 -55.77469 0.4718147 0
47.80961 -55.87469 0.8218147 0
47.75961 -55.82469 0.4718147 0
47.80961 -55.77469 0.5218147 0
47.85961 -55.77469 0.4718147 0
47.90961 -55.82469 0.5218147 0
47.90961 -55.77469 0.4718147 0
47.90961 -55.72469 0.5218147 0
47.90961 -55.82469 0.8218147 0
47.95961 -55.87469 0.1218147 0
47.95961 -55.77469 0.1218147 0
48.00961 -55.77469 0.1218147 0
48.00961 -55.67469 0.1218147 0
48.10961 -55.77469 0.1218147 0
48.10961 -55.72469 0.1218147 0
48.15961 -55.77469 0.1218147 0
48.20961 -55.77469 0.1218147 0
48.15961 -55.67469 0.1218147 0
48.20961 -55.67469 0.07181472 0
48.25961 -55.77469 0.1218147 0
48.30961 -55.77469 0.1218147 0
48.30961 -55.72469 0.1218147 0
48.05961 -55.87469 0.8218147 0
48.00961 -55.77469 0.4718147 0
48.05961 -55.77469 0.5218147 0
48.10961 -55.77469 0.4718147 0
48.10961 -55.77469 0.5218147 0
48.00961 -55.82469 0.8218147 0
48.10961 -55.82469 0.8218147 0
48.25961 -55.92469 0.5218147 0
48.15961 -55.77469 0.5218147 0
48.20961 -55.77469 0.4718147 0
48.15961 -55.72469 0.5218147 0
48.20961 -55.67469 0.5218147 0
48.25961 -55.77469 0.4718147 0
48.30961 -55.77469 0.5718147 0
48.30961 -55.72469 0.5218147 0
48.15961 -55.82469 0.8218147 0
48.20961 -55.82469 0.8218147 0
48.25961 -55.82469 0.8218147 0
48.30961 -55.82469 0.8218147 0
47.55961 -56.02469 0.8718147 0
47.70961 -55.97469 0.8718147 0
47.75961 -55.97469 0.9218147 0
47.80961 -55.87469 0.8718147 0
47.85961 -55.87469 0.8718147 0
47.90961 -55.87469 0.8718147 0
47.75961 -56.02469 1.221815 0
47.80961 -56.02469 1.171815 0
47.85961 -55.97469 1.171815 0
47.95961 -55.97469 1.021815 0
47.95961 -55.87469 0.9218147 0
47.95961 -56.02469 1.221815 0
47.95961 -55.97469 1.171815 0
48.00961 -55.97469 1.171815 0
48.05961 -56.02469 1.221815 0
48.05961 -55.97469 1.171815 0
48.10961 -55.97469 1.171815 0
48.00961 -55.82469 0.8718147 0
48.10961 -55.82469 0.8718147 0
48.10961 -55.82469 0.9218147 0
48.20961 -55.97469 1.021815 0
48.20961 -55.92469 1.021815 0
48.15961 -56.02469 1.221815 0
48.15961 -55.97469 1.171815 0
48.20961 -55.97469 1.171815 0
48.30961 -55.97469 1.121815 0
48.25961 -55.97469 1.171815 0
48.30961 -55.97469 1.171815 0
48.30961 -55.97469 1.221815 0
48.20961 -55.82469 0.9218147 0
48.25961 -55.82469 0.8718147 0
48.20961 -56.02469 1.321815 0
48.35961 -55.77469 0.1218147 0
48.40961 -55.67469 0.07181472 0
48.45961 -55.77469 0.1218147 0
48.45961 -55.72469 0.1218147 0
48.35961 -55.92469 0.4718147 0
48.35961 -55.87469 0.8218147 0
48.45961 -55.87469 0.8218147 0
48.35961 -55.77469 0.4718147 0
48.35961 -55.77469 0.5218147 0
48.35961 -55.77469 0.6218147 0
48.40961 -55.67469 0.5218147 0
48.45961 -55.82469 0.4718147 0
48.45961 -55.77469 0.4718147 0
48.50961 -55.82469 0.5218147 0
48.55961 -55.87469 0.8218147 0
48.65961 -55.87469 0.8218147 0
48.70961 -55.87469 0.8218147 0
48.55961 -55.82469 0.4718147 0
48.55961 -55.82469 0.5218147 0
48.55961 -55.77469 0.4718147 0
48.60961 -55.77469 0.5218147 0
48.60961 -55.72469 0.5218147 0
48.60961 -55.67469 0.5218147 0
48.65961 -55.82469 0.4718147 0
48.65961 -55.77469 0.4718147 0
48.70961 -55.77469 0.4718147 0
48.65961 -55.77469 0.5718147 0
48.70961 -55.82469 0.5718147 0
48.55961 -55.82469 0.8218147 0
48.80961 -55.87469 0.8218147 0
48.85961 -55.87469 0.8218147 0
48.90961 -55.87469 0.8218147 0
48.75961 -55.82469 0.4718147 0
48.80961 -55.82469 0.4718147 0
48.80961 -55.77469 0.4718147 0
48.75961 -55.72469 0.5218147 0
48.75961 -55.67469 0.5218147 0
48.85961 -55.82469 0.5218147 0
48.85961 -55.77469 0.4718147 0
48.90961 -55.82469 0.4718147 0
48.90961 -55.77469 0.5718147 0
48.90961 -55.72469 0.5218147 0
48.75961 -55.82469 0.8218147 0
48.95961 -55.87469 0.8218147 0
49.00961 -55.87469 0.8218147 0
49.05961 -55.87469 0.8218147 0
49.10961 -55.87469 0.8218147 0
48.95961 -55.82469 0.4718147 0
48.95961 -55.77469 0.4718147 0
49.00961 -55.82469 0.4718147 0
48.95961 -55.67469 0.5218147 0
49.05961 -55.82469 0.4718147 0
49.05961 -55.77469 0.4718147 0
49.10961 -55.82469 0.4718147 0
49.10961 -55.82469 0.5218147 0
49.10961 -55.82469 0.5718147 0
49.05961 -55.72469 0.5218147 0
48.40961 -55.97469 1.021815 0
48.40961 -55.92469 1.021815 0
48.35961 -56.02469 1.171815 0
48.40961 -56.02469 1.221815 0
48.40961 -55.97469 1.171815 0
48.50961 -56.02469 1.171815 0
48.50961 -55.97469 1.171815 0
48.35961 -55.82469 0.8718147 0
48.35961 -55.77469 0.9218147 0
48.45961 -55.82469 0.8718147 0
48.50961 -55.82469 0.9218147 0
48.60961 -55.97469 1.021815 0
48.60961 -55.87469 0.8718147 0
48.70961 -55.92469 1.021815 0
48.55961 -56.02469 1.221815 0
48.60961 -56.02469 1.171815 0
48.65961 -55.97469 1.121815 0
48.65961 -56.02469 1.171815 0
48.65961 -56.02469 1.221815 0
48.70961 -56.02469 1.171815 0
48.70961 -56.02469 1.221815 0
48.65961 -55.82469 0.9218147 0
48.70961 -55.82469 0.8718147 0
48.65961 -55.82469 0.9718148 0
48.35961 -56.02469 1.321815 0
48.45961 -56.02469 1.321815 0
48.60961 -56.02469 1.321815 0
48.90961 -55.92469 1.021815 0
48.75961 -56.02469 1.171815 0
48.75961 -56.02469 1.221815 0
48.80961 -56.02469 1.171815 0
48.85961 -56.02469 1.171815 0
48.90961 -56.02469 1.171815 0
48.90961 -56.02469 1.221815 0
48.80961 -55.82469 0.8718147 0
48.80961 -55.82469 0.9218147 0
48.85961 -55.82469 0.8718147 0
48.85961 -55.82469 1.021815 0
48.95961 -55.97469 1.121815 0
48.95961 -56.02469 1.171815 0
49.00961 -56.02469 1.221815 0
49.05961 -56.02469 1.171815 0
49.10961 -56.02469 1.221815 0
48.95961 -55.82469 0.8718147 0
48.95961 -55.82469 0.9218147 0
49.05961 -55.82469 0.8718147 0
49.10961 -55.82469 0.8718147 0
49.10961 -55.82469 0.9218147 0
49.05961 -55.82469 1.021815 0
48.75961 -56.02469 1.321815 0
48.80961 -56.02469 1.271815 0
48.90961 -56.02469 1.271815 0
48.95961 -56.02469 1.371815 0
49.10961 -56.02469 1.371815 0
47.55961 -53.12469 0.1218147 0
47.65961 -53.02469 0.1218147 0
47.70961 -52.92469 0.1218147 0
45.95961 -52.22469 0.1218147 0
46.00961 -52.12469 0.1218147 0
46.10961 -52.02469 0.1218147 0
46.15961 -51.92469 0.1218147 0
46.25961 -51.82469 0.1218147 0
46.30961 -51.67469 0.1218147 0
46.35961 -51.57469 0.1218147 0
46.45961 -51.47469 0.1218147 0
46.50961 -51.37469 0.1218147 0
46.00961 -50.67469 0.07181472 0
46.05961 -50.67469 0.07181472 0
46.10961 -50.67469 0.07181472 0
46.00961 -50.62469 0.07181472 0
46.15961 -50.67469 0.07181472 0
46.20961 -50.67469 0.07181472 0
46.25961 -50.67469 0.07181472 0
46.30961 -50.67469 0.07181472 0
46.20961 -50.57469 0.1218147 0
46.55961 -51.22469 0.1218147 0
46.60961 -51.12469 0.1218147 0
46.65961 -51.02469 0.1218147 0
46.35961 -50.67469 0.07181472 0
46.40961 -50.72469 0.07181472 0
46.45961 -50.67469 0.07181472 0
46.50961 -50.67469 0.07181472 0
46.55961 -50.67469 0.07181472 0
46.65961 -50.67469 0.07181472 0
46.55961 -50.57469 0.07181472 0
46.75961 -50.92469 0.1218147 0
46.80961 -50.77469 0.1218147 0
46.75961 -50.72469 0.07181472 0
46.80961 -50.72469 0.07181472 0
46.80961 -50.67469 0.07181472 0
46.85961 -50.67469 0.07181472 0
46.85961 -50.67469 0.1218147 0
46.95961 -50.72469 0.07181472 0
47.05961 -50.72469 0.07181472 0
46.95961 -50.57469 0.07181472 0
47.00961 -50.62469 0.1218147 0
47.20961 -50.72469 0.07181472 0
47.30961 -50.72469 0.07181472 0
47.30961 -50.62469 0.1218147 0
47.35961 -50.72469 0.07181472 0
47.45961 -50.72469 0.07181472 0
47.35961 -50.57469 0.07181472 0
47.80961 -52.77469 0.1218147 0
47.85961 -52.67469 0.1218147 0
47.90961 -52.57469 0.1218147 0
48.00961 -52.47469 0.1218147 0
48.05961 -52.37469 0.1218147 0
48.15961 -52.27469 0.1218147 0
48.20961 -52.12469 0.1218147 0
48.25961 -52.02469 0.1218147 0
48.30961 -51.72469 0.07181472 0
48.10961 -51.37469 0.07181472 0
48.05961 -51.27469 0.07181472 0
48.20961 -51.47469 0.07181472 0
48.25961 -51.62469 0.07181472 0
48.65961 -52.27469 0.07181472 0
48.60961 -52.12469 0.07181472 0
48.80961 -52.47469 0.07181472 0
48.90961 -52.57469 0.07181472 0
49.05961 -52.77469 0.07181472 0
49.00961 -52.62469 0.07181472 0
48.75961 -52.37469 0.07181472 0
48.35961 -51.92469 0.1218147 0
48.50961 -52.02469 0.07181472 0
48.45961 -51.92469 0.07181472 0
48.40961 -51.82469 0.07181472 0
48.40961 -51.82469 0.1218147 0
48.45961 -51.72469 0.1218147 0
48.50961 -51.57469 0.1218147 0
48.60961 -51.47469 0.1218147 0
48.65961 -51.37469 0.1218147 0
48.70961 -51.27469 0.1218147 0
47.90961 -51.07469 0.07181472 0
47.85961 -50.92469 0.07181472 0
47.55961 -50.72469 0.07181472 0
47.65961 -50.72469 0.07181472 0
47.70961 -50.72469 0.07181472 0
47.65961 -50.62469 0.1218147 0
47.80961 -50.82469 0.07181472 0
47.75961 -50.72469 0.07181472 0
47.80961 -50.72469 0.07181472 0
47.85961 -50.77469 0.07181472 0
47.85961 -50.72469 0.07181472 0
47.80961 -50.62469 0.07181472 0
48.00961 -51.17469 0.07181472 0
47.95961 -50.77469 0.07181472 0
48.05961 -50.77469 0.07181472 0
48.10961 -50.72469 0.07181472 0
48.00961 -50.62469 0.1218147 0
48.15961 -50.77469 0.07181472 0
48.20961 -50.77469 0.07181472 0
48.20961 -50.72469 0.07181472 0
48.30961 -50.77469 0.07181472 0
48.25961 -50.72469 0.07181472 0
48.35961 -50.77469 0.07181472 0
48.40961 -50.77469 0.07181472 0
48.35961 -50.67469 0.1218147 0
48.45961 -50.77469 0.07181472 0
48.50961 -50.77469 0.07181472 0
48.55961 -50.77469 0.07181472 0
48.60961 -50.77469 0.07181472 0
48.65961 -50.77469 0.07181472 0
48.70961 -50.77469 0.07181472 0
48.70961 -50.67469 0.1218147 0
48.75961 -51.12469 0.1218147 0
48.80961 -51.02469 0.1218147 0
48.85961 -50.92469 0.1218147 0
49.10961 -51.02469 0.07181472 0
49.05961 -50.87469 0.07181472 0
48.80961 -50.77469 0.07181472 0
48.90961 -50.77469 0.07181472 0
48.90961 -50.77469 0.1218147 0
49.00961 -50.77469 0.07181472 0
48.95961 -50.67469 0.1218147 0
49.10961 -50.77469 0.07181472 0
49.10961 -50.67469 0.07181472 0
49.50961 -62.32469 2.671815 0
49.25961 -62.42469 3.171815 0
49.15961 -61.92469 2.821815 0
49.15961 -61.87469 2.821815 0
49.20961 -61.87469 2.821815 0
49.25961 -61.92469 2.671815 0
49.30961 -61.92469 2.821815 0
49.35961 -61.87469 2.821815 0
49.40961 -61.92469 2.821815 0
49.50961 -61.92469 2.821815 0
49.25961 -61.82469 2.921815 0
49.35961 -61.87469 2.871815 0
49.50961 -61.87469 2.871815 0
49.40961 -61.82469 2.921815 0
49.55961 -62.32469 3.121815 0
49.85961 -62.22469 3.121815 0
49.55961 -61.92469 2.821815 0
49.65961 -61.92469 2.821815 0
49.75961 -61.92469 2.821815 0
49.85961 -61.92469 2.821815 0
49.90961 -61.92469 2.821815 0
49.70961 -61.87469 2.871815 0
49.60961 -61.82469 2.921815 0
49.80961 -61.87469 2.921815 0
49.85961 -61.87469 2.871815 0
49.85961 -62.02469 3.121815 0
50.10961 -62.12469 3.121815 0
50.15961 -62.12469 3.071815 0
50.00961 -61.97469 2.821815 0
50.00961 -61.92469 2.821815 0
50.10961 -61.92469 2.821815 0
50.20961 -61.97469 2.821815 0
50.20961 -61.92469 2.821815 0
50.00961 -61.87469 2.921815 0
50.05961 -61.92469 2.871815 0
50.15961 -61.87469 2.921815 0
50.20961 -61.92469 2.871815 0
50.25961 -61.97469 2.871815 0
50.35961 -62.22469 3.171815 0
50.60961 -62.32469 3.171815 0
50.35961 -61.97469 2.821815 0
50.50961 -61.97469 2.821815 0
50.55961 -61.97469 2.821815 0
50.70961 -61.97469 2.821815 0
50.40961 -61.92469 2.871815 0
50.45961 -61.97469 2.871815 0
50.45961 -62.02469 3.021815 0
50.35961 -61.82469 2.971815 0
50.55961 -61.92469 2.871815 0
50.55961 -61.87469 2.971815 0
50.65961 -61.97469 2.871815 0
49.40961 -60.42469 0.07181472 0
49.55961 -60.27469 0.07181472 0
49.95961 -60.07469 0.07181472 0
50.65961 -60.82469 0.5718147 0
50.10961 -59.97469 0.07181472 0
50.25961 -59.92469 0.07181472 0
50.25961 -59.87469 0.07181472 0
50.40961 -59.77469 0.07181472 0
50.60961 -59.72469 0.07181472 0
50.70961 -59.67469 0.07181472 0
50.85961 -62.37469 3.221815 0
50.85961 -61.97469 2.821815 0
51.05961 -62.02469 2.821815 0
51.10961 -61.97469 2.821815 0
50.75961 -61.97469 2.871815 0
50.80961 -61.97469 2.871815 0
50.75961 -61.92469 2.971815 0
50.75961 -61.87469 2.971815 0
50.90961 -61.97469 2.871815 0
51.00961 -61.97469 2.871815 0
50.95961 -61.92469 2.971815 0
50.95961 -61.87469 2.971815 0
51.20961 -62.02469 2.821815 0
51.25961 -61.97469 2.821815 0
51.40961 -62.02469 2.821815 0
51.45961 -62.02469 2.821815 0
51.20961 -61.97469 2.871815 0
51.15961 -61.87469 3.021815 0
51.20961 -61.92469 2.971815 0
51.35961 -61.97469 2.871815 0
51.40961 -61.92469 2.921815 0
51.35961 -61.92469 3.021815 0
51.65961 -62.17469 2.571815 0
51.90961 -62.07469 2.821815 0
51.75961 -62.37469 3.171815 0
51.90961 -62.07469 2.871815 0
51.80961 -62.07469 3.071815 0
51.55961 -62.02469 2.821815 0
51.60961 -62.02469 2.821815 0
51.70961 -62.02469 2.821815 0
51.75961 -62.02469 2.821815 0
51.80961 -62.02469 2.821815 0
51.55961 -61.97469 2.921815 0
51.60961 -61.97469 2.921815 0
51.60961 -61.97469 3.021815 0
51.65961 -61.97469 2.871815 0
51.75961 -62.02469 2.921815 0
51.80961 -61.97469 2.921815 0
51.85961 -62.02469 2.871815 0
51.95961 -62.07469 2.821815 0
52.05961 -62.07469 2.821815 0
52.25961 -62.07469 2.821815 0
52.30961 -62.07469 2.821815 0
52.10961 -62.27469 3.121815 0
52.10961 -62.07469 2.871815 0
52.05961 -62.12469 3.071815 0
52.30961 -62.07469 2.871815 0
52.30961 -62.22469 3.121815 0
52.15961 -62.02469 2.821815 0
51.95961 -62.02469 2.921815 0
52.00961 -62.02469 2.871815 0
52.00961 -61.97469 2.921815 0
52.10961 -62.02469 2.921815 0
52.20961 -62.02469 2.871815 0
52.30961 -62.02469 2.921815 0
50.85961 -60.62469 0.5718147 0
51.05961 -60.47469 0.5718147 0
51.25961 -60.37469 0.5718147 0
51.25961 -60.32469 0.5718147 0
51.40961 -60.27469 0.5718147 0
51.40961 -60.22469 0.5218147 0
50.75961 -59.62469 0.07181472 0
50.85961 -59.57469 0.07181472 0
50.95961 -59.52469 0.07181472 0
51.00961 -59.47469 0.07181472 0
51.10961 -59.42469 0.07181472 0
51.15961 -59.42469 0.07181472 0
51.30961 -59.37469 0.07181472 0
51.35961 -59.27469 0.07181472 0
51.45961 -59.27469 0.07181472 0
51.50961 -59.27469 0.07181472 0
51.60961 -60.17469 0.5718147 0
51.55961 -60.12469 0.5218147 0
51.70961 -60.07469 0.5218147 0
51.75961 -60.07469 0.5718147 0
51.85961 -59.97469 0.5218147 0
51.90961 -59.97469 0.5718147 0
52.00961 -59.97469 0.5218147 0
52.00961 -59.92469 0.5218147 0
52.05961 -59.92469 0.5218147 0
52.10961 -59.87469 0.5718147 0
52.20961 -59.87469 0.5218147 0
52.15961 -59.82469 0.5218147 0
52.25961 -59.82469 0.5218147 0
52.30961 -59.77469 0.5218147 0
52.30961 -59.82469 0.5718147 0
50.25961 -57.67469 0.07181472 0
49.85961 -56.87469 1.271815 0
49.25961 -56.07469 1.221815 0
49.30961 -56.07469 1.221815 0
49.40961 -56.07469 1.171815 0
49.40961 -56.07469 1.221815 0
49.45961 -56.07469 1.171815 0
49.45961 -56.07469 1.221815 0
49.50961 -56.07469 1.171815 0
49.50961 -56.07469 1.221815 0
49.30961 -56.07469 1.271815 0
49.25961 -56.07469 1.371815 0
49.40961 -56.07469 1.371815 0
49.45961 -56.07469 1.271815 0
49.50961 -56.12469 1.271815 0
49.90961 -56.62469 1.271815 0
49.55961 -56.07469 1.221815 0
49.60961 -56.07469 1.171815 0
49.60961 -56.07469 1.221815 0
49.65961 -56.07469 1.221815 0
49.70961 -56.07469 1.171815 0
49.75961 -56.07469 1.171815 0
49.75961 -56.07469 1.221815 0
49.80961 -56.07469 1.171815 0
49.85961 -56.12469 1.221815 0
49.90961 -56.12469 1.171815 0
49.90961 -56.07469 1.221815 0
49.60961 -56.07469 1.271815 0
49.60961 -56.12469 1.371815 0
49.70961 -56.12469 1.271815 0
49.90961 -56.37469 1.271815 0
49.85961 -56.17469 1.271815 0
49.85961 -56.12469 1.271815 0
50.40961 -57.57469 0.07181472 0
50.35961 -57.47469 0.07181472 0
50.45961 -57.47469 0.07181472 0
50.45961 -57.42469 0.07181472 0
50.60961 -57.47469 0.07181472 0
50.60961 -57.42469 0.07181472 0
50.10961 -56.97469 1.171815 0
50.25961 -57.12469 1.071815 0
50.50961 -57.12469 0.9718148 0
50.15961 -56.72469 1.171815 0
50.15961 -56.52469 1.171815 0
50.10961 -56.32469 1.171815 0
50.00961 -56.17469 1.221815 0
50.00961 -56.12469 1.221815 0
50.05961 -56.12469 1.171815 0
50.30961 -56.27469 1.071815 0
50.25961 -56.07469 1.071815 0
50.35961 -56.82469 1.071815 0
50.35961 -56.62469 1.071815 0
50.60961 -56.82469 0.9718148 0
50.60961 -56.62469 0.9718148 0
50.35961 -56.42469 1.071815 0
50.60961 -56.42469 0.9718148 0
50.55961 -56.27469 0.9718148 0
50.55961 -56.07469 0.9718148 0
51.55961 -59.22469 0.07181472 0
51.60961 -59.22469 0.07181472 0
51.65961 -59.17469 0.07181472 0
51.70961 -59.17469 0.07181472 0
51.75961 -59.17469 0.07181472 0
51.75961 -59.12469 0.07181472 0
51.85961 -59.12469 0.07181472 0
51.90961 -59.12469 0.07181472 0
51.90961 -59.07469 0.07181472 0
52.00961 -59.07469 0.07181472 0
52.05961 -59.02469 0.07181472 0
52.15961 -58.97469 0.07181472 0
52.15961 -58.92469 0.07181472 0
52.20961 -58.92469 0.07181472 0
52.25961 -58.92469 0.07181472 0
52.30961 -58.92469 0.07181472 0
50.80961 -57.42469 0.07181472 0
51.20961 -57.27469 0.5718147 0
51.25961 -57.27469 0.5718147 0
51.25961 -57.12469 0.5218147 0
51.25961 -57.02469 0.5718147 0
51.25961 -56.97469 0.5718147 0
51.30961 -56.87469 0.5218147 0
51.35961 -57.07469 0.5218147 0
50.85961 -56.17469 0.07181472 0
50.90961 -56.12469 0.8218147 0
50.95961 -56.12469 0.8218147 0
51.30961 -56.82469 0.5718147 0
51.30961 -56.77469 0.5718147 0
51.30961 -56.67469 0.5218147 0
51.20961 -56.57469 0.6218147 0
51.30961 -56.62469 0.5718147 0
51.30961 -56.47469 0.5218147 0
51.30961 -56.52469 0.5718147 0
51.35961 -56.82469 0.4718147 0
51.35961 -56.62469 0.4718147 0
51.20961 -56.32469 0.6218147 0
51.30961 -56.37469 0.5218147 0
51.25961 -56.42469 0.5718147 0
51.30961 -56.32469 0.4718147 0
51.30961 -56.27469 0.4718147 0
51.30961 -56.27469 0.5218147 0
51.25961 -56.32469 0.5718147 0
51.15961 -56.07469 0.5218147 0
51.20961 -56.07469 0.4718147 0
51.15961 -56.12469 0.6218147 0
51.15961 -56.07469 0.5718147 0
51.20961 -56.12469 0.5718147 0
51.25961 -56.17469 0.4718147 0
51.25961 -56.17469 0.5218147 0
51.25961 -56.22469 0.5718147 0
51.25961 -56.12469 0.5218147 0
51.35961 -56.42469 0.4718147 0
50.80961 -56.07469 0.8718147 0
50.80961 -56.07469 0.9218147 0
52.40961 -62.07469 2.821815 0
52.45961 -62.07469 2.821815 0
52.60961 -62.17469 2.621815 0
52.60961 -62.07469 2.821815 0
52.65961 -62.07469 2.821815 0
52.45961 -62.07469 2.871815 0
52.40961 -62.17469 3.071815 0
52.55961 -62.32469 3.121815 0
52.55961 -62.07469 2.871815 0
52.65961 -62.07469 2.871815 0
52.70961 -62.07469 2.871815 0
52.65961 -62.07469 3.021815 0
52.35961 -62.02469 2.871815 0
52.50961 -62.02469 2.971815 0
52.70961 -62.02469 2.971815 0
52.75961 -62.12469 2.821815 0
52.80961 -62.07469 2.821815 0
52.90961 -62.12469 2.821815 0
52.95961 -62.07469 2.821815 0
53.00961 -62.12469 2.821815 0
53.05961 -62.12469 2.821815 0
53.10961 -62.12469 2.821815 0
52.80961 -62.37469 3.171815 0
52.75961 -62.07469 2.871815 0
52.80961 -62.12469 2.871815 0
52.90961 -62.07469 2.871815 0
52.90961 -62.07469 2.971815 0
53.00961 -62.12469 2.871815 0
52.95961 -62.02469 3.021815 0
53.10961 -62.02469 2.971815 0
53.15961 -62.12469 2.821815 0
53.15961 -62.07469 2.821815 0
53.25961 -62.12469 2.821815 0
53.30961 -62.12469 2.821815 0
53.40961 -62.12469 2.821815 0
53.45961 -62.12469 2.821815 0
53.50961 -62.12469 2.821815 0
53.20961 -62.12469 2.871815 0
53.30961 -62.07469 2.971815 0
53.35961 -62.12469 2.921815 0
53.50961 -62.07469 3.021815 0
53.15961 -62.02469 2.971815 0
53.35961 -62.02469 2.971815 0
53.60961 -62.17469 2.821815 0
53.60961 -62.12469 2.821815 0
53.65961 -62.12469 2.821815 0
53.70961 -62.12469 2.821815 0
53.75961 -62.07469 2.671815 0
53.75961 -62.12469 2.821815 0
53.85961 -62.17469 2.821815 0
53.85961 -62.12469 2.771815 0
53.55961 -62.12469 2.921815 0
53.55961 -62.07469 2.971815 0
53.70961 -62.12469 3.021815 0
53.80961 -62.17469 2.871815 0
53.75961 -62.12469 2.921815 0
53.75961 -62.07469 2.921815 0
53.85961 -62.12469 2.921815 0
52.35961 -59.77469 0.5218147 0
52.40961 -59.72469 0.5218147 0
52.45961 -59.72469 0.5218147 0
52.50961 -59.72469 0.5218147 0
52.55961 -59.67469 0.5218147 0
52.55961 -59.62469 0.5218147 0
52.60961 -59.62469 0.5218147 0
52.65961 -59.62469 0.5218147 0
52.70961 -59.62469 0.5218147 0
52.70961 -59.57469 0.5218147 0
52.75961 -59.62469 0.5218147 0
52.75961 -59.57469 0.5218147 0
52.80961 -59.57469 0.5218147 0
52.85961 -59.57469 0.5218147 0
52.90961 -59.62469 0.5218147 0
52.90961 -59.57469 0.5218147 0
53.00961 -59.57469 0.5218147 0
53.00961 -59.52469 0.5218147 0
53.05961 -59.57469 0.5218147 0
53.20961 -59.57469 0.5218147 0
53.15961 -59.52469 0.5218147 0
53.20961 -59.52469 0.5218147 0
53.30961 -59.52469 0.5218147 0
53.30961 -59.47469 0.5218147 0
53.35961 -59.52469 0.5218147 0
53.35961 -59.47469 0.5218147 0
53.40961 -59.47469 0.5218147 0
53.45961 -59.57469 0.5718147 0
53.45961 -59.47469 0.5218147 0
53.50961 -59.47469 0.5218147 0
53.60961 -59.57469 0.5718147 0
53.70961 -59.47469 0.5218147 0
53.55961 -59.42469 0.5218147 0
53.60961 -59.42469 0.5218147 0
53.65961 -59.42469 0.5218147 0
53.70961 -59.42469 0.5218147 0
53.80961 -59.57469 0.5718147 0
53.75961 -59.37469 0.5218147 0
53.80961 -59.42469 0.5218147 0
53.80961 -59.42469 0.5718147 0
53.85961 -59.42469 0.5218147 0
53.85961 -59.37469 0.5218147 0
53.90961 -59.37469 0.5218147 0
53.95961 -62.17469 2.821815 0
54.00961 -62.17469 2.821815 0
54.05961 -62.17469 2.771815 0
54.10961 -62.17469 2.821815 0
54.20961 -62.17469 2.821815 0
54.25961 -62.17469 2.771815 0
54.25961 -62.17469 2.821815 0
53.95961 -62.17469 2.871815 0
53.95961 -62.17469 2.921815 0
53.95961 -62.17469 3.021815 0
53.95961 -62.07469 2.921815 0
54.00961 -62.12469 2.921815 0
54.10961 -62.12469 2.921815 0
54.20961 -62.27469 3.071815 0
54.30961 -62.37469 3.121815 0
54.15961 -62.17469 2.871815 0
54.15961 -62.12469 2.921815 0
54.20961 -62.12469 2.871815 0
54.30961 -62.17469 2.921815 0
54.35961 -62.17469 2.821815 0
54.40961 -62.17469 2.771815 0
54.45961 -62.17469 2.821815 0
54.50961 -62.17469 2.821815 0
54.60961 -62.22469 2.771815 0
54.60961 -62.22469 2.821815 0
54.70961 -62.17469 2.821815 0
54.40961 -62.32469 3.071815 0
54.35961 -62.17469 2.871815 0
54.35961 -62.12469 2.921815 0
54.40961 -62.12469 2.871815 0
54.50961 -62.22469 2.871815 0
54.50961 -62.17469 2.971815 0
54.60961 -62.27469 3.071815 0
54.70961 -62.42469 3.121815 0
54.55961 -62.17469 2.871815 0
54.70961 -62.22469 2.871815 0
54.70961 -62.17469 2.971815 0
54.75961 -62.22469 2.771815 0
