# .PCD v0.7 - Point Cloud Data file format
VERSION 0.7
FIELDS x y z intensity
SIZE 4 4 4 4
TYPE F F F F
COUNT 1 1 1 1
WIDTH 1216
HEIGHT 1
VIEWPOINT 0 0 0 1 0 0 0
POINTS 1216
DATA ascii
-49.59039 -44.72469 -0.3281853 0
-49.59039 -44.52469 -0.3281853 0
-49.59039 -44.32469 -0.3281853 0
-49.64039 -44.12469 -0.3281853 0
-49.64039 -43.87469 -0.3281853 0
-49.64039 -43.67469 -0.3281853 0
-49.64039 -43.47469 -0.3281853 0
-49.64039 -43.27469 -0.3281853 0
-47.19039 -44.87469 -0.3281853 0
-47.19039 -44.67469 -0.3281853 0
-47.19039 -44.47469 -0.3281853 0
-47.24039 -44.22469 -0.3281853 0
-47.24039 -44.02469 -0.3281853 0
-47.24039 -43.82469 -0.3281853 0
-47.24039 -43.62469 -0.3281853 0
-47.24039 -43.42469 -0.3281853 0
-50.14039 -40.72469 -0.07818528 0
-50.09039 -40.72469 -0.02818528 0
-50.09039 -40.52469 -0.07818528 0
-50.09039 -40.52469 -0.02818528 0
-50.09039 -40.47469 -0.02818528 0
-50.09039 -40.32469 -0.07818528 0
-50.09039 -40.27469 -0.02818528 0
-50.09039 -40.12469 -0.07818528 0
-50.09039 -40.07469 -0.02818528 0
-50.09039 -39.92469 -0.07818528 0
-50.09039 -39.87469 -0.02818528 0
-50.09039 -39.82469 -0.02818528 0
-50.09039 -39.72469 -0.07818528 0
-50.09039 -39.67469 -0.02818528 0
-50.09039 -39.57469 -0.07818528 0
-50.09039 -39.62469 -0.02818528 0
-50.09039 -39.17469 -0.02818528 0
-50.09039 -38.97469 -0.02818528 0
-49.69039 -42.82469 -0.3281853 0
-49.64039 -43.02469 -0.3281853 0
-49.64039 -42.62469 -0.3281853 0
-49.64039 -42.42469 -0.3281853 0
-49.64039 -42.22469 -0.3281853 0
-49.64039 -41.97469 -0.2781853 0
-49.64039 -41.77469 -0.2781853 0
-49.59039 -41.57469 -0.2781853 0
-49.59039 -41.37469 -0.2781853 0
-49.49039 -40.92469 -0.02818528 0
-49.44039 -41.12469 -0.02818528 0
-49.34039 -41.12469 -0.02818528 0
-49.64039 -40.77469 -0.02818528 0
-49.49039 -40.72469 -0.02818528 0
-49.14039 -41.22469 0.02181472 0
-49.04039 -40.92469 -0.1281853 0
-49.14039 -40.47469 -0.1281853 0
-49.04039 -40.72469 -0.1281853 0
-49.19039 -40.27469 -0.1281853 0
-49.24039 -40.07469 -0.1281853 0
-47.24039 -43.17469 -0.3281853 0
-47.24039 -42.97469 -0.3281853 0
-47.24039 -42.77469 -0.3281853 0
-47.24039 -42.57469 -0.3281853 0
-47.24039 -42.37469 -0.3281853 0
-47.24039 -42.12469 -0.3281853 0
-47.24039 -41.92469 -0.3281853 0
-47.19039 -41.72469 -0.3281853 0
-47.69039 -41.27469 -0.1281853 0
-47.94039 -41.22469 -0.02818528 0
-47.94039 -40.92469 -0.1281853 0
-47.89039 -40.92469 -0.1281853 0
-47.94039 -40.87469 -0.02818528 0
-47.69039 -41.07469 -0.1781853 0
-47.74039 -41.07469 -0.1281853 0
-47.69039 -41.07469 -0.1281853 0
-47.84039 -40.92469 -0.1781853 0
-47.74039 -41.02469 -0.02818528 0
-47.69039 -40.97469 0.02181472 0
-47.59039 -41.27469 -0.1781853 0
-47.64039 -41.27469 -0.1281853 0
-47.49039 -41.32469 0.02181472 0
-47.49039 -41.27469 0.02181472 0
-47.44039 -41.32469 0.02181472 0
-47.59039 -41.12469 0.02181472 0
-47.49039 -41.12469 0.02181472 0
-47.49039 -41.07469 0.02181472 0
-47.54039 -40.97469 0.02181472 0
-47.54039 -40.92469 0.02181472 0
-47.19039 -41.52469 -0.3281853 0
-47.14039 -41.27469 -0.1281853 0
-47.14039 -41.32469 0.02181472 0
-46.99039 -41.17469 -0.1781853 0
-47.04039 -40.97469 -0.1781853 0
-47.29039 -40.62469 -0.1781853 0
-47.49039 -40.27469 -0.1781853 0
-47.59039 -40.07469 -0.1781853 0
-47.39039 -40.42469 -0.1781853 0
-47.19039 -40.82469 -0.1781853 0
-50.04039 -39.47469 -0.02818528 0
-50.04039 -39.37469 -0.07818528 0
-50.04039 -39.42469 -0.02818528 0
-50.04039 -39.27469 -0.02818528 0
-49.29039 -39.87469 -0.1281853 0
-49.29039 -39.67469 -0.1281853 0
-49.34039 -39.42469 -0.1281853 0
-50.04039 -39.17469 -0.07818528 0
-50.04039 -39.07469 -0.02818528 0
-50.04039 -38.97469 -0.07818528 0
-49.39039 -39.22469 -0.1281853 0
-49.44039 -39.02469 -0.1281853 0
-49.44039 -38.82469 -0.1281853 0
-48.49039 -38.12469 -0.1781853 0
-48.59039 -37.92469 -0.1781853 0
-48.64039 -37.72469 -0.1781853 0
-48.89039 -37.12469 -0.1781853 0
-48.94039 -36.92469 -0.1781853 0
-48.74039 -37.52469 -0.1781853 0
-48.79039 -37.32469 -0.1781853 0
-47.69039 -39.87469 -0.1781853 0
-47.79039 -39.67469 -0.1781853 0
-47.89039 -39.47469 -0.1781853 0
-47.99039 -39.32469 -0.1781853 0
-48.19039 -38.92469 -0.1781853 0
-48.34039 -38.52469 -0.1781853 0
-48.24039 -38.72469 -0.1781853 0
-48.04039 -39.12469 -0.1781853 0
-46.94039 -38.97469 -0.1281853 0
-47.19039 -38.62469 -0.1281853 0
-47.04039 -38.82469 -0.1281853 0
-48.39039 -38.32469 -0.1781853 0
-47.69039 -37.67469 -0.1281853 0
-47.79039 -37.52469 -0.1281853 0
-47.84039 -37.32469 -0.1281853 0
-47.94039 -37.12469 -0.1281853 0
-48.04039 -36.92469 -0.1281853 0
-47.49039 -38.07469 -0.1281853 0
-47.39039 -38.27469 -0.1281853 0
-47.29039 -38.42469 -0.1281853 0
-47.59039 -37.87469 -0.1281853 0
-47.09039 -37.02469 -0.1781853 0
-46.94039 -37.17469 -0.1781853 0
-49.34039 -35.72469 -0.1781853 0
-49.39039 -35.52469 -0.1781853 0
-49.44039 -35.32469 -0.1781853 0
-49.09039 -36.52469 -0.1781853 0
-48.99039 -36.72469 -0.1781853 0
-49.14039 -36.32469 -0.1781853 0
-49.19039 -36.12469 -0.1781853 0
-49.24039 -35.92469 -0.1781853 0
-48.54039 -35.72469 -0.1281853 0
-48.69039 -35.32469 -0.1281853 0
-48.59039 -35.52469 -0.1281853 0
-49.49039 -35.12469 -0.1781853 0
-49.54039 -34.87469 -0.1781853 0
-49.59039 -34.67469 -0.1781853 0
-49.64039 -34.47469 -0.1281853 0
-49.69039 -34.07469 -0.1281853 0
-49.74039 -33.82469 -0.1281853 0
-49.64039 -34.27469 -0.1281853 0
-48.89039 -34.72469 -0.1281853 0
-48.94039 -34.52469 -0.1281853 0
-48.74039 -35.12469 -0.1281853 0
-48.79039 -34.92469 -0.1281853 0
-48.99039 -34.32469 -0.1281853 0
-49.04039 -34.12469 -0.1281853 0
-49.09039 -33.92469 -0.1281853 0
-49.19039 -33.72469 -0.1281853 0
-48.49039 -34.12469 -0.1781853 0
-48.54039 -33.92469 -0.1781853 0
-48.64039 -33.72469 -0.1781853 0
-48.14039 -36.72469 -0.1281853 0
-48.19039 -36.52469 -0.1281853 0
-48.29039 -36.32469 -0.1281853 0
-48.39039 -36.12469 -0.1281853 0
-48.44039 -35.92469 -0.1281853 0
-47.69039 -35.87469 -0.1781853 0
-47.79039 -35.67469 -0.1781853 0
-47.89039 -35.47469 -0.1781853 0
-47.99039 -35.32469 -0.1781853 0
-47.29039 -36.62469 -0.1781853 0
-47.49039 -36.27469 -0.1781853 0
-47.59039 -36.07469 -0.1781853 0
-47.19039 -36.82469 -0.1781853 0
-48.14039 -34.92469 -0.1781853 0
-48.34039 -34.52469 -0.1781853 0
-48.24039 -34.72469 -0.1781853 0
-48.04039 -35.12469 -0.1781853 0
-48.39039 -34.32469 -0.1781853 0
-46.94039 -33.67469 0.02181472 0
-49.74039 -33.62469 -0.1281853 0
-49.79039 -33.42469 -0.1281853 0
-49.84039 -33.22469 -0.1281853 0
-49.84039 -33.02469 -0.1281853 0
-49.34039 -33.12469 -0.1281853 0
-49.34039 -32.87469 -0.1281853 0
-49.89039 -32.77469 -0.1281853 0
-49.89039 -32.57469 -0.1281853 0
-49.94039 -32.37469 -0.1281853 0
-49.94039 -32.17469 -0.1281853 0
-49.39039 -32.67469 -0.1281853 0
-49.44039 -32.47469 -0.1281853 0
-49.49039 -32.27469 -0.1281853 0
-49.54039 -32.07469 -0.1281853 0
-49.24039 -33.52469 -0.1281853 0
-49.24039 -33.32469 -0.1281853 0
-48.89039 -33.12469 -0.1781853 0
-48.69039 -33.52469 -0.1781853 0
-48.79039 -33.32469 -0.1781853 0
-48.99039 -32.72469 -0.1781853 0
-49.04039 -32.52469 -0.1781853 0
-49.14039 -32.32469 -0.1781853 0
-49.19039 -32.07469 -0.1781853 0
-49.94039 -31.92469 -0.1281853 0
-49.94039 -31.72469 -0.1281853 0
-49.99039 -31.52469 -0.1281853 0
-49.99039 -31.27469 -0.1281853 0
-49.54039 -31.82469 -0.1281853 0
-49.29039 -31.67469 -0.1781853 0
-49.59039 -31.62469 -0.1281853 0
-49.64039 -31.42469 -0.1281853 0
-49.34039 -31.47469 -0.1781853 0
-49.39039 -31.27469 -0.1781853 0
-49.99039 -31.07469 -0.1281853 0
-49.99039 -30.87469 -0.1281853 0
-49.69039 -31.02469 -0.1281853 0
-49.99039 -30.67469 -0.1281853 0
-49.69039 -30.77469 -0.1281853 0
-49.74039 -30.57469 -0.1281853 0
-49.64039 -31.22469 -0.1281853 0
-49.49039 -30.82469 -0.1781853 0
-49.54039 -30.62469 -0.1781853 0
-49.24039 -31.87469 -0.1781853 0
-48.54039 -30.52469 0.02181472 0
-47.74039 -32.22469 0.02181472 0
-47.29039 -33.12469 0.02181472 0
-47.34039 -32.97469 0.02181472 0
-47.14039 -33.32469 0.02181472 0
-47.04039 -33.47469 0.02181472 0
-47.54039 -32.57469 0.02181472 0
-47.44039 -32.77469 0.02181472 0
-47.64039 -32.42469 0.02181472 0
-48.09039 -31.47469 0.02181472 0
-48.19039 -31.27469 0.02181472 0
-47.94039 -31.87469 0.02181472 0
-48.04039 -31.67469 0.02181472 0
-47.84039 -32.02469 0.02181472 0
-48.29039 -31.12469 0.02181472 0
-48.39039 -30.92469 0.02181472 0
-48.44039 -30.72469 0.02181472 0
-46.94039 -31.52469 -0.02818528 0
-47.04039 -31.37469 -0.02818528 0
-47.29039 -31.02469 -0.02818528 0
-47.49039 -30.67469 -0.02818528 0
-47.59039 -30.47469 -0.02818528 0
-47.39039 -30.82469 -0.02818528 0
-47.19039 -31.22469 -0.02818528 0
-49.99039 -30.42469 -0.1281853 0
-49.99039 -30.22469 -0.1281853 0
-49.74039 -30.37469 -0.1281853 0
-49.79039 -30.17469 -0.1281853 0
-49.99039 -30.02469 -0.1281853 0
-49.99039 -29.82469 -0.1281853 0
-49.79039 -29.92469 -0.1281853 0
-49.69039 -29.77469 -0.1781853 0
-49.79039 -29.72469 -0.1281853 0
-49.59039 -30.42469 -0.1781853 0
-49.59039 -30.22469 -0.1781853 0
-49.64039 -30.02469 -0.1781853 0
-49.99039 -29.57469 -0.1281853 0
-49.99039 -29.37469 -0.1281853 0
-49.79039 -29.52469 -0.1281853 0
-49.69039 -29.57469 -0.1281853 0
-49.79039 -29.32469 -0.1281853 0
-49.74039 -29.37469 -0.1281853 0
-49.94039 -29.17469 -0.1281853 0
-49.94039 -28.92469 -0.1281853 0
-49.79039 -29.17469 -0.1281853 0
-49.79039 -29.07469 -0.1281853 0
-49.79039 -28.87469 -0.1281853 0
-48.69039 -30.12469 0.02181472 0
-48.59039 -30.32469 0.02181472 0
-48.74039 -29.97469 0.02181472 0
-48.84039 -29.77469 0.02181472 0
-48.89039 -29.57469 0.02181472 0
-48.94039 -29.37469 0.02181472 0
-49.09039 -28.97469 0.02181472 0
-49.04039 -29.17469 0.02181472 0
-49.94039 -28.72469 -0.1281853 0
-49.89039 -28.52469 -0.1281853 0
-49.84039 -28.72469 -0.1281853 0
-49.84039 -28.67469 -0.1281853 0
-49.84039 -28.52469 -0.1281853 0
-49.79039 -28.47469 -0.1281853 0
-49.89039 -28.32469 -0.1281853 0
-49.89039 -28.07469 -0.1281853 0
-49.84039 -28.32469 -0.1281853 0
-49.79039 -28.22469 -0.1281853 0
-49.84039 -28.07469 -0.1281853 0
-49.29039 -28.37469 0.02181472 0
-49.34039 -28.17469 0.02181472 0
-49.89039 -27.67469 -0.1281853 0
-49.79039 -28.02469 -0.1281853 0
-49.84039 -27.87469 -0.1281853 0
-49.79039 -27.82469 -0.1281853 0
-49.79039 -27.67469 -0.1281853 0
-49.89039 -27.42469 -0.1281853 0
-49.79039 -27.62469 -0.1281853 0
-49.74039 -27.47469 -0.1281853 0
-49.79039 -27.42469 -0.1281853 0
-49.39039 -27.97469 0.02181472 0
-49.44039 -27.77469 0.02181472 0
-49.49039 -27.37469 0.02181472 0
-49.44039 -27.57469 0.02181472 0
-49.14039 -28.77469 0.02181472 0
-49.19039 -28.57469 0.02181472 0
-48.54039 -28.62469 0.02181472 0
-48.69039 -28.22469 0.02181472 0
-48.59039 -28.42469 0.02181472 0
-48.89039 -27.62469 0.02181472 0
-48.99039 -27.42469 0.02181472 0
-48.79039 -28.02469 0.02181472 0
-48.84039 -27.82469 0.02181472 0
-47.69039 -30.32469 -0.02818528 0
-47.79039 -30.12469 -0.02818528 0
-47.89039 -29.92469 -0.02818528 0
-47.99039 -29.72469 -0.02818528 0
-48.09039 -29.57469 -0.02818528 0
-48.19039 -29.37469 0.02181472 0
-48.34039 -28.97469 0.02181472 0
-48.24039 -29.17469 0.02181472 0
-48.44039 -28.77469 0.02181472 0
-47.39039 -27.27469 -0.02818528 0
-47.14039 -27.67469 -0.02818528 0
-46.89039 -28.02469 -0.02818528 0
-47.04039 -27.82469 -0.02818528 0
-46.99039 -27.67469 -0.07818528 0
-47.24039 -27.47469 -0.02818528 0
-47.09039 -27.47469 -0.07818528 0
-47.19039 -27.27469 -0.07818528 0
-49.74039 -27.22469 -0.1281853 0
-49.74039 -27.17469 -0.1281853 0
-49.74039 -26.97469 -0.1281853 0
-49.69039 -27.02469 -0.1281853 0
-49.74039 -26.77469 -0.1281853 0
-49.69039 -26.82469 -0.1281853 0
-49.69039 -26.57469 -0.1281853 0
-49.69039 -26.57469 0.02181472 0
-49.54039 -27.17469 0.02181472 0
-49.59039 -26.97469 0.02181472 0
-49.64039 -26.77469 0.02181472 0
-49.64039 -26.62469 -0.1281853 0
-49.69039 -26.37469 0.02181472 0
-49.69039 -26.32469 -0.1281853 0
-49.74039 -26.12469 0.02181472 0
-49.74039 -25.92469 0.02181472 0
-49.79039 -25.72469 0.02181472 0
-49.59039 -26.42469 -0.1281853 0
-49.64039 -26.12469 -0.1281853 0
-49.54039 -26.17469 -0.1281853 0
-49.34039 -26.42469 0.02181472 0
-49.39039 -26.22469 0.02181472 0
-49.64039 -25.92469 -0.1281853 0
-49.49039 -25.97469 -0.1281853 0
-49.59039 -25.72469 -0.1281853 0
-49.49039 -25.82469 0.02181472 0
-49.44039 -26.02469 0.02181472 0
-49.44039 -25.77469 -0.1281853 0
-49.14039 -27.02469 0.02181472 0
-49.04039 -27.22469 0.02181472 0
-49.19039 -26.82469 0.02181472 0
-49.24039 -26.62469 0.02181472 0
-49.84039 -25.52469 0.02181472 0
-49.84039 -25.32469 0.02181472 0
-49.89039 -25.12469 0.02181472 0
-49.89039 -24.92469 0.02181472 0
-49.69039 -25.02469 0.02181472 0
-49.59039 -25.47469 -0.1281853 0
-49.54039 -25.62469 0.02181472 0
-49.59039 -25.42469 0.02181472 0
-49.54039 -25.27469 -0.1281853 0
-49.39039 -25.57469 -0.1281853 0
-49.34039 -25.37469 -0.1281853 0
-49.64039 -25.22469 0.02181472 0
-49.49039 -25.07469 -0.07818528 0
-49.49039 -24.87469 -0.07818528 0
-49.94039 -24.72469 0.02181472 0
-49.94039 -24.52469 0.02181472 0
-49.74039 -24.82469 0.02181472 0
-49.79039 -24.62469 0.02181472 0
-49.94039 -24.27469 0.02181472 0
-49.99039 -24.07469 0.02181472 0
-49.84039 -24.42469 0.02181472 0
-49.84039 -24.17469 0.02181472 0
-49.44039 -24.67469 -0.07818528 0
-49.39039 -24.47469 -0.07818528 0
-49.34039 -24.22469 -0.07818528 0
-48.54039 -25.02469 -0.02818528 0
-48.94039 -24.07469 -0.02818528 0
-48.74039 -24.67469 -0.02818528 0
-48.79039 -24.47469 -0.02818528 0
-48.64039 -24.82469 -0.02818528 0
-48.84039 -24.27469 -0.02818528 0
-48.49039 -24.37469 -0.07818528 0
-48.54039 -24.17469 -0.07818528 0
-47.69039 -26.72469 -0.02818528 0
-47.79039 -26.57469 -0.02818528 0
-48.09039 -25.97469 -0.02818528 0
-48.19039 -25.82469 -0.02818528 0
-47.89039 -26.37469 -0.02818528 0
-47.99039 -26.17469 -0.02818528 0
-47.74039 -26.12469 -0.07818528 0
-47.94039 -25.77469 -0.07818528 0
-47.84039 -25.92469 -0.07818528 0
-47.49039 -27.12469 -0.02818528 0
-47.59039 -26.92469 -0.02818528 0
-47.29039 -27.12469 -0.07818528 0
-47.39039 -26.92469 -0.07818528 0
-47.49039 -26.72469 -0.07818528 0
-47.54039 -26.52469 -0.07818528 0
-47.64039 -26.32469 -0.07818528 0
-46.99039 -25.82469 -0.02818528 0
-48.29039 -25.62469 -0.02818528 0
-48.39039 -25.42469 -0.02818528 0
-48.09039 -25.37469 -0.07818528 0
-48.44039 -25.22469 -0.02818528 0
-48.19039 -25.17469 -0.07818528 0
-48.24039 -24.97469 -0.07818528 0
-47.99039 -25.57469 -0.07818528 0
-48.34039 -24.77469 -0.07818528 0
-48.39039 -24.57469 -0.07818528 0
-47.74039 -24.52469 -0.02818528 0
-47.94039 -24.17469 -0.02818528 0
-47.84039 -24.37469 -0.02818528 0
-47.29039 -25.27469 -0.02818528 0
-47.54039 -24.92469 -0.02818528 0
-47.44039 -25.07469 -0.02818528 0
-47.19039 -25.47469 -0.02818528 0
-47.09039 -25.62469 -0.02818528 0
-47.64039 -24.72469 -0.02818528 0
-46.74039 -41.32469 -0.1781853 0
-46.29039 -40.07469 -0.1281853 0
-46.14039 -40.22469 -0.1281853 0
-45.79039 -41.32469 0.02181472 0
-45.74039 -41.37469 -0.1281853 0
-45.74039 -41.32469 -0.07818528 0
-45.94039 -41.02469 -0.1281853 0
-45.84039 -40.97469 -0.07818528 0
-45.74039 -40.97469 -0.1281853 0
-45.69039 -40.97469 -0.07818528 0
-45.59039 -41.37469 -0.1281853 0
-45.59039 -41.37469 0.02181472 0
-45.64039 -41.32469 -0.07818528 0
-45.39039 -41.37469 -0.1281853 0
-45.39039 -41.27469 -0.1281853 0
-45.59039 -41.17469 -0.1281853 0
-45.59039 -41.07469 -0.07818528 0
-45.49039 -41.17469 0.02181472 0
-45.54039 -41.12469 -0.1281853 0
-45.54039 -41.12469 -0.07818528 0
-45.59039 -41.02469 -0.1281853 0
-45.64039 -40.92469 -0.1281853 0
-45.44039 -41.02469 0.02181472 0
-45.89039 -40.57469 -0.1281853 0
-45.79039 -40.77469 -0.1281853 0
-46.04039 -40.42469 -0.1281853 0
-45.24039 -41.37469 -0.1281853 0
-45.19039 -41.37469 -0.1281853 0
-45.24039 -41.32469 -0.07818528 0
-45.09039 -41.42469 -0.1281853 0
-46.54039 -39.72469 -0.1281853 0
-46.74039 -39.37469 -0.1281853 0
-46.64039 -39.52469 -0.1281853 0
-46.39039 -39.92469 -0.1281853 0
-46.84039 -39.17469 -0.1281853 0
-46.59039 -37.72469 -0.1781853 0
-46.34039 -38.07469 -0.1781853 0
-46.24039 -38.27469 -0.1781853 0
-46.09039 -38.42469 -0.1781853 0
-46.69039 -37.52469 -0.1781853 0
-46.84039 -37.37469 -0.1781853 0
-45.74039 -35.37469 -0.02818528 0
-45.49039 -35.67469 -0.02818528 0
-45.64039 -35.52469 -0.02818528 0
-46.14039 -34.87469 -0.02818528 0
-46.39039 -34.52469 -0.02818528 0
-46.24039 -34.72469 -0.02818528 0
-46.49039 -34.37469 -0.02818528 0
-46.59039 -34.17469 -0.02818528 0
-46.69039 -34.02469 -0.02818528 0
-46.84039 -33.82469 -0.02818528 0
-45.89039 -35.22469 -0.02818528 0
-45.99039 -35.02469 -0.02818528 0
-46.59039 -32.07469 -0.02818528 0
-46.49039 -32.22469 -0.02818528 0
-46.09039 -32.77469 -0.02818528 0
-46.24039 -32.57469 -0.02818528 0
-46.34039 -32.42469 -0.02818528 0
-45.99039 -32.92469 -0.02818528 0
-45.84039 -33.07469 -0.02818528 0
-45.69039 -33.22469 -0.02818528 0
-45.59039 -33.42469 -0.02818528 0
-45.44039 -33.57469 -0.02818528 0
-46.69039 -31.92469 -0.02818528 0
-46.84039 -31.72469 -0.02818528 0
-45.04039 -30.47469 -0.07818528 0
-46.34039 -28.87469 -0.02818528 0
-46.19039 -29.07469 -0.02818528 0
-46.09039 -29.22469 -0.02818528 0
-46.09039 -29.12469 -0.07818528 0
-46.19039 -28.92469 -0.07818528 0
-45.69039 -29.72469 -0.02818528 0
-45.34039 -30.17469 -0.07818528 0
-45.54039 -29.87469 -0.02818528 0
-45.59039 -29.82469 -0.07818528 0
-45.44039 -29.97469 -0.07818528 0
-45.39039 -30.02469 -0.02818528 0
-45.94039 -29.37469 -0.02818528 0
-45.94039 -29.27469 -0.07818528 0
-45.79039 -29.57469 -0.02818528 0
-45.84039 -29.47469 -0.07818528 0
-45.69039 -29.62469 -0.07818528 0
-46.54039 -28.52469 -0.02818528 0
-46.69039 -28.37469 -0.02818528 0
-46.79039 -28.17469 -0.02818528 0
-46.54039 -28.42469 -0.07818528 0
-46.64039 -28.22469 -0.07818528 0
-46.44039 -28.72469 -0.02818528 0
-46.29039 -28.77469 -0.07818528 0
-46.44039 -28.57469 -0.07818528 0
-46.79039 -28.02469 -0.07818528 0
-46.84039 -27.82469 -0.07818528 0
-45.74039 -27.52469 -0.02818528 0
-45.84039 -27.37469 -0.02818528 0
-45.59039 -27.67469 -0.02818528 0
-45.44039 -27.87469 -0.02818528 0
-45.29039 -28.02469 -0.02818528 0
-45.19039 -30.32469 -0.07818528 0
-46.49039 -26.52469 -0.02818528 0
-46.24039 -26.87469 -0.02818528 0
-46.09039 -27.02469 -0.02818528 0
-46.39039 -26.72469 -0.02818528 0
-46.74039 -26.17469 -0.02818528 0
-46.64039 -26.32469 -0.02818528 0
-46.84039 -25.97469 -0.02818528 0
-45.99039 -27.22469 -0.02818528 0
-45.34039 -25.92469 -0.07818528 0
-45.44039 -25.77469 -0.07818528 0
-46.09039 -24.87469 -0.07818528 0
-46.54039 -24.17469 -0.07818528 0
-46.29039 -24.52469 -0.07818528 0
-46.19039 -24.72469 -0.07818528 0
-46.44039 -24.37469 -0.07818528 0
-45.84039 -25.27469 -0.07818528 0
-45.69039 -25.42469 -0.07818528 0
-45.94039 -25.07469 -0.07818528 0
-45.59039 -25.57469 -0.07818528 0
-45.29039 -25.12469 -0.02818528 0
-45.44039 -24.92469 -0.02818528 0
-45.89039 -24.27469 -0.02818528 0
-46.04039 -24.12469 -0.02818528 0
-45.79039 -24.42469 -0.02818528 0
-45.54039 -24.77469 -0.02818528 0
-45.64039 -24.62469 -0.02818528 0
-45.09039 -26.27469 -0.07818528 0
-45.19039 -26.12469 -0.07818528 0
-45.14039 -25.27469 -0.02818528 0
-45.04039 -25.42469 -0.02818528 0
-48.14039 -44.82469 2.921815 0
-48.14039 -44.82469 3.221815 0
-48.04039 -44.47469 3.221815 0
-48.04039 -44.32469 3.221815 0
-48.04039 -44.12469 3.221815 0
-47.99039 -43.97469 3.221815 0
-47.99039 -43.82469 3.221815 0
-47.99039 -43.62469 3.221815 0
-47.99039 -43.47469 3.221815 0
-47.99039 -43.27469 3.221815 0
-48.04039 -44.82469 3.271815 0
-48.04039 -44.67469 3.271815 0
-47.99039 -44.22469 3.321815 0
-47.99039 -44.02469 3.321815 0
-47.99039 -43.82469 3.321815 0
-47.99039 -43.57469 3.321815 0
-47.99039 -43.37469 3.321815 0
-50.19039 -40.67469 0.4718147 0
-50.19039 -40.47469 0.4718147 0
-50.09039 -40.27469 0.4718147 0
-50.19039 -40.07469 0.4718147 0
-50.14039 -39.87469 0.4718147 0
-50.14039 -39.72469 0.4718147 0
-50.14039 -39.52469 0.4718147 0
-50.14039 -39.32469 0.4718147 0
-47.99039 -43.12469 3.221815 0
-47.99039 -42.97469 3.221815 0
-47.99039 -42.77469 3.221815 0
-47.94039 -42.62469 3.221815 0
-47.94039 -42.42469 3.221815 0
-47.94039 -42.27469 3.221815 0
-47.94039 -42.12469 3.221815 0
-48.04039 -42.02469 3.221815 0
-47.94039 -41.92469 3.221815 0
-48.04039 -41.82469 3.221815 0
-47.89039 -41.77469 3.221815 0
-48.04039 -41.57469 3.171815 0
-47.94039 -41.62469 3.221815 0
-47.94039 -41.37469 3.221815 0
-47.89039 -41.42469 3.221815 0
-47.89039 -41.27469 3.221815 0
-47.94039 -40.92469 3.171815 0
-47.89039 -40.92469 3.171815 0
-47.84039 -41.12469 3.221815 0
-47.69039 -41.07469 3.221815 0
-47.74039 -40.97469 2.921815 0
-47.79039 -40.92469 3.221815 0
-47.54039 -40.97469 3.071815 0
-48.04039 -43.17469 3.321815 0
-47.99039 -43.17469 3.321815 0
-48.04039 -42.92469 3.271815 0
-47.94039 -42.97469 3.321815 0
-48.04039 -42.67469 3.271815 0
-47.94039 -42.72469 3.321815 0
-47.94039 -42.52469 3.321815 0
-47.94039 -42.32469 3.321815 0
-47.94039 -42.12469 3.321815 0
-47.94039 -42.07469 3.421815 0
-47.94039 -41.92469 3.321815 0
-47.89039 -41.77469 3.421815 0
-47.29039 -42.32469 3.521815 0
-47.39039 -42.17469 3.521815 0
-47.44039 -41.97469 3.521815 0
-47.94039 -41.42469 3.271815 0
-47.94039 -41.42469 3.321815 0
-47.94039 -41.22469 3.321815 0
-47.94039 -40.87469 3.321815 0
-47.69039 -41.02469 3.271815 0
-47.69039 -40.97469 3.321815 0
-47.74039 -40.82469 3.271815 0
-47.54039 -41.07469 3.321815 0
-46.89039 -40.87469 3.321815 0
-50.04039 -39.12469 0.4718147 0
-45.94039 -44.92469 3.171815 0
-45.94039 -44.72469 3.171815 0
-45.94039 -44.57469 3.171815 0
-45.94039 -44.42469 3.171815 0
-45.89039 -44.22469 3.171815 0
-45.89039 -44.07469 3.171815 0
-45.89039 -43.87469 3.171815 0
-45.94039 -43.72469 3.171815 0
-45.74039 -44.97469 3.321815 0
-45.94039 -44.72469 3.371815 0
-45.94039 -44.57469 3.371815 0
-45.69039 -44.82469 3.321815 0
-45.94039 -44.42469 3.371815 0
-45.94039 -44.27469 3.371815 0
-45.94039 -44.12469 3.371815 0
-45.89039 -43.97469 3.371815 0
-45.89039 -43.82469 3.371815 0
-45.89039 -43.67469 3.321815 0
-45.89039 -43.52469 3.321815 0
-45.89039 -43.37469 3.321815 0
-46.24039 -41.82469 3.221815 0
-46.29039 -41.17469 0.6218147 0
-46.29039 -41.02469 0.5718147 0
-46.04039 -41.42469 0.6218147 0
-45.69039 -41.37469 0.4718147 0
-45.94039 -41.02469 0.07181472 0
-45.79039 -40.97469 0.07181472 0
-45.69039 -41.02469 0.07181472 0
-45.79039 -41.07469 0.4718147 0
-45.79039 -41.12469 0.6218147 0
-45.74039 -41.17469 0.5218147 0
-45.84039 -41.02469 0.5218147 0
-45.79039 -40.97469 0.5718147 0
-45.74039 -41.02469 0.5218147 0
-45.64039 -41.37469 0.07181472 0
-45.49039 -41.37469 0.07181472 0
-45.29039 -41.32469 0.07181472 0
-45.29039 -41.32469 0.5718147 0
-45.59039 -41.07469 0.07181472 0
-45.54039 -41.17469 0.07181472 0
-45.64039 -41.02469 0.07181472 0
-45.34039 -41.17469 0.5218147 0
-45.34039 -41.17469 0.5718147 0
-45.29039 -41.22469 0.6218147 0
-45.34039 -41.12469 0.4718147 0
-45.79039 -41.07469 0.9718148 0
-45.79039 -41.07469 1.471815 0
-46.54039 -40.92469 3.221815 0
-46.34039 -41.27469 3.221815 0
-46.44039 -41.07469 3.221815 0
-45.84039 -41.07469 1.971815 0
-45.24039 -41.37469 0.07181472 0
-45.19039 -41.42469 0.07181472 0
-45.24039 -41.37469 0.6218147 0
-45.24039 -41.42469 0.6718147 0
-45.04039 -41.42469 0.6218147 0
-45.24039 -41.22469 0.6218147 0
-45.04039 -41.07469 1.121815 0
-45.04039 -41.02469 2.021815 0
-46.69039 -42.87469 3.321815 0
-46.64039 -42.67469 3.321815 0
-46.59039 -42.52469 3.271815 0
-46.49039 -42.32469 3.271815 0
-46.39039 -42.17469 3.271815 0
-46.34039 -41.97469 3.271815 0
-45.89039 -43.22469 3.321815 0
-45.89039 -43.07469 3.321815 0
-45.89039 -42.92469 3.321815 0
-45.89039 -42.62469 3.321815 0
-45.84039 -42.77469 3.321815 0
-45.84039 -42.52469 3.321815 0
-45.29039 -42.57469 3.471815 0
-45.84039 -42.37469 3.321815 0
-45.84039 -42.22469 3.321815 0
-45.84039 -42.07469 3.321815 0
-45.84039 -42.07469 3.521815 0
-45.79039 -41.92469 3.321815 0
-45.84039 -41.87469 3.471815 0
-45.79039 -41.77469 3.321815 0
-45.84039 -41.67469 3.471815 0
-46.79039 -41.17469 3.321815 0
-46.84039 -41.02469 3.321815 0
-46.34039 -40.97469 3.521815 0
-45.79039 -41.62469 3.321815 0
-45.79039 -41.47469 3.321815 0
-45.79039 -41.32469 3.321815 0
-45.99039 -40.97469 3.421815 0
-45.79039 -41.07469 3.271815 0
-45.74039 -41.22469 3.271815 0
-45.74039 -41.17469 3.321815 0
-45.79039 -40.92469 3.271815 0
-45.49039 -41.27469 3.371815 0
-45.54039 -41.12469 3.371815 0
-45.64039 -40.97469 3.371815 0
-45.34039 -41.07469 3.271815 0
-45.34039 -41.02469 3.421815 0
-45.14039 -43.07469 3.521815 0
-45.19039 -42.92469 3.521815 0
-45.19039 -42.87469 3.471815 0
-45.24039 -42.72469 3.471815 0
-45.14039 -41.22469 3.321815 0
-45.14039 -41.07469 3.321815 0
-45.19039 -40.92469 3.321815 0
-45.04039 -40.97469 3.271815 0
-50.09039 -22.72469 0.02181472 0
-50.09039 -22.52469 0.02181472 0
-50.14039 -22.32469 0.02181472 0
-50.14039 -22.12469 0.02181472 0
-50.14039 -21.87469 0.02181472 0
-50.19039 -21.67469 0.02181472 0
-50.19039 -21.47469 0.02181472 0
-50.19039 -21.27469 0.02181472 0
-50.19039 -21.02469 0.02181472 0
-50.19039 -20.82469 0.02181472 0
-50.19039 -20.62469 0.02181472 0
-50.19039 -20.42469 0.02181472 0
-50.19039 -20.22469 0.02181472 0
-50.19039 -19.97469 0.02181472 0
-50.19039 -19.77469 0.02181472 0
-50.14039 -19.57469 0.02181472 0
-50.09039 -19.57469 -0.02818528 0
-50.14039 -19.37469 0.02181472 0
-50.14039 -19.32469 -0.02818528 0
-50.14039 -19.12469 -0.02818528 0
-50.14039 -19.12469 0.02181472 0
-50.19039 -18.92469 -0.02818528 0
-50.14039 -18.92469 0.02181472 0
-50.19039 -18.72469 -0.02818528 0
-50.09039 -18.72469 0.02181472 0
-50.19039 -18.47469 -0.02818528 0
-50.09039 -18.52469 0.02181472 0
-50.19039 -18.27469 -0.02818528 0
-50.09039 -18.27469 0.02181472 0
-50.24039 -18.07469 -0.02818528 0
-50.24039 -17.87469 -0.02818528 0
-50.24039 -17.67469 -0.02818528 0
-50.09039 -17.72469 -0.02818528 0
-49.99039 -23.87469 0.02181472 0
-49.89039 -23.97469 0.02181472 0
-49.99039 -23.67469 0.02181472 0
-49.89039 -23.77469 0.02181472 0
-49.99039 -23.47469 0.02181472 0
-49.94039 -23.57469 0.02181472 0
-49.99039 -23.37469 0.02181472 0
-49.99039 -23.27469 0.02181472 0
-49.29039 -24.02469 -0.07818528 0
-49.99039 -23.17469 0.02181472 0
-49.99039 -23.07469 0.02181472 0
-50.04039 -22.92469 0.02181472 0
-49.99039 -22.82469 0.02181472 0
-49.99039 -22.62469 0.02181472 0
-49.29039 -23.07469 -0.02818528 0
-49.34039 -22.87469 -0.02818528 0
-49.49039 -22.47469 -0.02818528 0
-49.44039 -22.67469 -0.02818528 0
-49.24039 -23.82469 -0.07818528 0
-49.09039 -23.67469 -0.02818528 0
-49.04039 -23.87469 -0.02818528 0
-49.19039 -23.62469 -0.07818528 0
-49.19039 -23.47469 -0.02818528 0
-49.24039 -23.27469 -0.02818528 0
-49.14039 -23.42469 -0.07818528 0
-48.69039 -23.77469 -0.07818528 0
-48.59039 -23.97469 -0.07818528 0
-48.74039 -23.52469 -0.07818528 0
-48.79039 -23.32469 -0.07818528 0
-48.89039 -22.92469 -0.07818528 0
-48.94039 -22.72469 -0.07818528 0
-49.04039 -22.52469 -0.07818528 0
-48.84039 -23.12469 -0.07818528 0
-48.49039 -23.02469 -0.02818528 0
-48.69039 -22.62469 -0.02818528 0
-48.59039 -22.82469 -0.02818528 0
-49.99039 -22.42469 0.02181472 0
-49.99039 -22.22469 0.02181472 0
-49.99039 -22.02469 0.02181472 0
-49.99039 -21.82469 0.02181472 0
-49.54039 -22.22469 -0.02818528 0
-49.59039 -22.02469 -0.02818528 0
-49.64039 -21.82469 -0.02818528 0
-49.99039 -21.62469 0.02181472 0
-49.94039 -21.37469 0.02181472 0
-49.69039 -21.62469 -0.02818528 0
-49.74039 -21.42469 -0.02818528 0
-49.89039 -21.17469 0.02181472 0
-49.89039 -20.97469 0.02181472 0
-49.79039 -21.22469 -0.02818528 0
-49.84039 -21.02469 -0.02818528 0
-49.29039 -21.27469 -0.07818528 0
-49.29039 -21.02469 -0.07818528 0
-49.29039 -21.02469 -0.02818528 0
-49.14039 -22.12469 -0.07818528 0
-49.04039 -22.32469 -0.07818528 0
-49.14039 -21.87469 -0.07818528 0
-49.19039 -21.67469 -0.07818528 0
-48.94039 -22.02469 -0.02818528 0
-48.99039 -21.82469 -0.02818528 0
-48.74039 -22.42469 -0.02818528 0
-48.84039 -22.22469 -0.02818528 0
-49.24039 -21.47469 -0.07818528 0
-49.14039 -21.42469 -0.02818528 0
-49.04039 -21.62469 -0.02818528 0
-49.19039 -21.22469 -0.02818528 0
-48.14039 -23.77469 -0.02818528 0
-48.34039 -23.37469 -0.02818528 0
-48.24039 -23.57469 -0.02818528 0
-48.04039 -23.97469 -0.02818528 0
-48.39039 -23.22469 -0.02818528 0
-46.99039 -23.42469 -0.07818528 0
-47.29039 -22.87469 -0.07818528 0
-47.34039 -22.67469 -0.07818528 0
-47.44039 -22.47469 -0.07818528 0
-47.19039 -23.07469 -0.07818528 0
-47.04039 -23.22469 -0.07818528 0
-46.89039 -22.67469 -0.02818528 0
-47.04039 -22.52469 -0.02818528 0
-47.69039 -21.87469 -0.07818528 0
-47.79039 -21.67469 -0.07818528 0
-48.14039 -20.92469 -0.07818528 0
-47.89039 -21.52469 -0.07818528 0
-47.94039 -21.32469 -0.07818528 0
-48.04039 -21.12469 -0.07818528 0
-47.69039 -21.22469 -0.02818528 0
-47.79039 -21.02469 -0.02818528 0
-47.54039 -22.27469 -0.07818528 0
-47.64039 -22.07469 -0.07818528 0
-47.29039 -21.92469 -0.02818528 0
-47.39039 -21.77469 -0.02818528 0
-47.09039 -22.32469 -0.02818528 0
-47.24039 -22.12469 -0.02818528 0
-47.49039 -21.57469 -0.02818528 0
-47.59039 -21.37469 -0.02818528 0
-46.89039 -20.97469 -0.07818528 0
-49.89039 -20.82469 -0.02818528 0
-49.89039 -20.77469 0.02181472 0
-49.94039 -20.57469 -0.02818528 0
-49.84039 -20.57469 0.02181472 0
-49.94039 -20.37469 -0.02818528 0
-49.99039 -20.17469 -0.02818528 0
-49.84039 -20.37469 0.02181472 0
-49.79039 -20.17469 0.02181472 0
-49.34039 -20.82469 -0.07818528 0
-49.34039 -20.82469 -0.02818528 0
-49.39039 -20.62469 -0.07818528 0
-49.39039 -20.62469 -0.02818528 0
-49.49039 -20.42469 -0.02818528 0
-49.54039 -20.22469 -0.02818528 0
-49.39039 -20.42469 -0.07818528 0
-49.44039 -20.22469 -0.07818528 0
-50.04039 -19.97469 -0.02818528 0
-50.04039 -19.77469 -0.02818528 0
-49.79039 -19.97469 0.02181472 0
-49.74039 -19.72469 0.02181472 0
-49.69039 -19.57469 -0.02818528 0
-49.69039 -19.52469 0.02181472 0
-49.74039 -19.37469 -0.02818528 0
-49.69039 -19.32469 0.02181472 0
-49.59039 -20.02469 -0.02818528 0
-49.49039 -19.97469 -0.07818528 0
-49.64039 -19.77469 -0.02818528 0
-49.49039 -19.77469 -0.07818528 0
-49.49039 -19.57469 -0.07818528 0
-49.54039 -19.32469 -0.07818528 0
-48.49039 -19.87469 -0.07818528 0
-48.54039 -19.67469 -0.07818528 0
-48.59039 -19.47469 -0.07818528 0
-48.64039 -19.27469 -0.07818528 0
-49.79039 -19.17469 -0.02818528 0
-49.84039 -18.97469 -0.02818528 0
-49.89039 -18.77469 -0.02818528 0
-49.94039 -18.52469 -0.02818528 0
-49.64039 -19.12469 0.02181472 0
-49.54039 -19.12469 -0.07818528 0
-49.59039 -18.92469 0.02181472 0
-49.54039 -18.92469 -0.07818528 0
-49.59039 -18.72469 -0.07818528 0
-49.54039 -18.72469 0.02181472 0
-49.59039 -18.47469 -0.07818528 0
-49.49039 -18.52469 0.02181472 0
-49.94039 -18.32469 -0.02818528 0
-50.04039 -18.07469 0.02181472 0
-49.99039 -18.12469 -0.02818528 0
-50.04039 -17.92469 -0.02818528 0
-50.04039 -17.87469 0.02181472 0
-49.99039 -17.67469 0.02181472 0
-49.59039 -18.27469 -0.07818528 0
-49.59039 -18.07469 -0.07818528 0
-49.44039 -18.32469 0.02181472 0
-49.39039 -18.12469 0.02181472 0
-49.59039 -17.82469 -0.07818528 0
-49.34039 -17.92469 0.02181472 0
-49.29039 -17.72469 0.02181472 0
-48.89039 -18.47469 -0.07818528 0
-48.74039 -19.07469 -0.07818528 0
-48.79039 -18.87469 -0.07818528 0
-48.54039 -19.07469 -0.02818528 0
-48.59039 -18.87469 -0.02818528 0
-48.84039 -18.67469 -0.07818528 0
-48.69039 -18.67469 -0.02818528 0
-48.69039 -18.47469 -0.02818528 0
-48.94039 -18.22469 -0.07818528 0
-48.99039 -18.02469 -0.07818528 0
-48.89039 -17.87469 -0.02818528 0
-49.04039 -17.82469 -0.07818528 0
-48.94039 -17.67469 -0.02818528 0
-48.79039 -18.27469 -0.02818528 0
-48.84039 -18.07469 -0.02818528 0
-48.29039 -20.52469 -0.07818528 0
-48.19039 -20.72469 -0.07818528 0
-48.34039 -20.27469 -0.07818528 0
-48.39039 -20.07469 -0.07818528 0
-48.09039 -20.27469 -0.02818528 0
-48.19039 -20.07469 -0.02818528 0
-47.94039 -20.62469 -0.02818528 0
-47.84039 -20.82469 -0.02818528 0
-47.99039 -20.42469 -0.02818528 0
-48.29039 -19.67469 -0.02818528 0
-48.24039 -19.87469 -0.02818528 0
-48.39039 -19.47469 -0.02818528 0
-48.44039 -19.27469 -0.02818528 0
-47.69039 -19.27469 -0.02818528 0
-47.29039 -20.22469 -0.07818528 0
-47.09039 -20.57469 -0.07818528 0
-46.99039 -20.77469 -0.07818528 0
-46.94039 -20.57469 -0.02818528 0
-47.19039 -20.37469 -0.07818528 0
-47.09039 -20.37469 -0.02818528 0
-47.19039 -20.22469 -0.02818528 0
-47.49039 -19.67469 -0.02818528 0
-47.34039 -20.02469 -0.07818528 0
-47.29039 -20.02469 -0.02818528 0
-47.44039 -19.82469 -0.07818528 0
-47.39039 -19.82469 -0.02818528 0
-47.59039 -19.47469 -0.02818528 0
-47.54039 -19.62469 -0.07818528 0
-47.64039 -19.42469 -0.07818528 0
-47.69039 -19.22469 -0.07818528 0
-47.74039 -19.07469 -0.02818528 0
-47.79039 -19.02469 -0.07818528 0
-47.84039 -18.87469 -0.02818528 0
-47.94039 -18.72469 -0.02818528 0
-48.04039 -18.52469 -0.02818528 0
-47.94039 -18.62469 -0.07818528 0
-47.84039 -18.82469 -0.07818528 0
-48.14039 -18.32469 -0.02818528 0
-48.19039 -18.12469 -0.02818528 0
-48.09039 -18.22469 -0.07818528 0
-48.29039 -17.92469 -0.02818528 0
-48.39039 -17.72469 -0.02818528 0
-48.19039 -18.02469 -0.07818528 0
-48.24039 -17.82469 -0.07818528 0
-48.04039 -18.42469 -0.07818528 0
-46.94039 -18.77469 -0.02818528 0
-47.04039 -18.57469 -0.02818528 0
-46.99039 -18.47469 -0.02818528 0
-47.34039 -18.02469 -0.02818528 0
-47.29039 -17.87469 -0.02818528 0
-47.39039 -17.72469 -0.02818528 0
-47.14039 -18.37469 -0.02818528 0
-47.09039 -18.27469 -0.02818528 0
-47.24039 -18.22469 -0.02818528 0
-47.19039 -18.07469 -0.02818528 0
-50.29039 -17.42469 -0.02818528 0
-50.09039 -17.47469 -0.02818528 0
-50.14039 -17.27469 -0.02818528 0
-50.29039 -17.22469 -0.02818528 0
-50.14039 -17.07469 -0.02818528 0
-50.24039 -17.02469 -0.02818528 0
-50.19039 -16.87469 -0.02818528 0
-50.24039 -16.82469 -0.02818528 0
-50.24039 -16.57469 -0.02818528 0
-50.19039 -16.62469 -0.02818528 0
-50.24039 -16.42469 -0.02818528 0
-50.24039 -16.37469 -0.02818528 0
-50.24039 -16.22469 -0.02818528 0
-50.24039 -16.17469 -0.02818528 0
-50.24039 -16.02469 -0.02818528 0
-50.24039 -15.97469 -0.02818528 0
-50.24039 -15.77469 -0.02818528 0
-50.24039 -15.72469 -0.02818528 0
-50.29039 -15.37469 -0.02818528 0
-50.24039 -15.57469 -0.02818528 0
-50.24039 -15.52469 -0.02818528 0
-50.24039 -15.32469 -0.02818528 0
-50.29039 -15.17469 -0.02818528 0
-50.19039 -15.12469 -0.02818528 0
-49.94039 -17.47469 0.02181472 0
-49.94039 -17.22469 0.02181472 0
-49.89039 -17.02469 0.02181472 0
-49.59039 -17.62469 -0.07818528 0
-49.59039 -17.42469 -0.07818528 0
-49.59039 -17.22469 -0.07818528 0
-49.59039 -16.97469 -0.07818528 0
-49.84039 -16.82469 0.02181472 0
-49.84039 -16.62469 0.02181472 0
-49.79039 -16.42469 0.02181472 0
-49.74039 -16.17469 0.02181472 0
-49.59039 -16.77469 -0.07818528 0
-49.29039 -16.32469 -0.07818528 0
-49.29039 -16.12469 -0.07818528 0
-49.29039 -16.07469 -0.02818528 0
-49.24039 -17.52469 0.02181472 0
-49.09039 -17.62469 -0.07818528 0
-49.19039 -17.32469 0.02181472 0
-49.09039 -17.42469 -0.07818528 0
-48.99039 -17.47469 -0.02818528 0
-49.04039 -17.27469 -0.02818528 0
-49.14039 -17.17469 -0.07818528 0
-49.14039 -17.12469 0.02181472 0
-49.09039 -17.07469 -0.02818528 0
-49.19039 -16.97469 -0.07818528 0
-49.14039 -16.87469 -0.02818528 0
-49.09039 -16.92469 0.02181472 0
-48.54039 -17.32469 -0.02818528 0
-48.69039 -16.92469 -0.02818528 0
-48.59039 -17.12469 -0.02818528 0
-48.49039 -17.02469 -0.07818528 0
-49.24039 -16.77469 -0.07818528 0
-49.19039 -16.67469 -0.02818528 0
-49.24039 -16.57469 -0.07818528 0
-49.19039 -16.47469 -0.02818528 0
-48.99039 -16.72469 0.02181472 0
-48.94039 -16.52469 0.02181472 0
-49.24039 -16.27469 -0.02818528 0
-48.89039 -16.32469 0.02181472 0
-48.94039 -16.12469 -0.02818528 0
-48.74039 -16.72469 -0.02818528 0
-48.79039 -16.52469 -0.02818528 0
-48.54039 -16.82469 -0.07818528 0
-48.59039 -16.62469 -0.07818528 0
-48.84039 -16.32469 -0.02818528 0
-48.79039 -16.12469 0.02181472 0
-48.69039 -16.17469 -0.07818528 0
-48.64039 -16.42469 -0.07818528 0
-49.69039 -15.97469 0.02181472 0
-49.64039 -15.77469 0.02181472 0
-49.34039 -15.92469 -0.07818528 0
-49.34039 -15.87469 -0.02818528 0
-49.34039 -15.72469 -0.07818528 0
-49.34039 -15.67469 -0.02818528 0
-49.59039 -15.57469 0.02181472 0
-49.54039 -15.37469 0.02181472 0
-49.34039 -15.47469 -0.07818528 0
-49.39039 -15.42469 -0.02818528 0
-49.39039 -15.27469 -0.07818528 0
-49.49039 -15.17469 0.02181472 0
-49.44039 -15.22469 -0.02818528 0
-49.39039 -15.07469 -0.07818528 0
-49.44039 -15.02469 -0.02818528 0
-48.99039 -15.92469 -0.02818528 0
-49.04039 -15.72469 -0.02818528 0
-49.09039 -15.52469 -0.02818528 0
-49.19039 -15.32469 -0.02818528 0
-48.89039 -15.37469 -0.07818528 0
-48.74039 -15.97469 -0.07818528 0
-48.74039 -15.92469 0.02181472 0
-48.79039 -15.77469 -0.07818528 0
-48.64039 -15.72469 0.02181472 0
-48.84039 -15.57469 -0.07818528 0
-48.59039 -15.52469 0.02181472 0
-48.49039 -15.32469 0.02181472 0
-49.19039 -15.12469 -0.02818528 0
-48.94039 -15.17469 -0.07818528 0
-48.54039 -15.17469 -0.02818528 0
-48.49039 -15.02469 -0.02818528 0
-48.44039 -17.52469 -0.02818528 0
-48.29039 -17.62469 -0.07818528 0
-48.39039 -17.42469 -0.07818528 0
-48.44039 -17.22469 -0.07818528 0
-47.69039 -17.22469 -0.02818528 0
-47.69039 -17.12469 -0.02818528 0
-47.79039 -16.92469 -0.02818528 0
-47.74039 -17.02469 -0.02818528 0
-48.14039 -16.17469 -0.02818528 0
-47.89039 -16.77469 -0.02818528 0
-47.94039 -16.57469 -0.02818528 0
-47.89039 -16.62469 -0.02818528 0
-47.84039 -16.82469 -0.02818528 0
-48.04039 -16.37469 -0.02818528 0
-47.99039 -16.42469 -0.02818528 0
-48.04039 -16.22469 -0.02818528 0
-47.49039 -17.62469 -0.02818528 0
-47.49039 -17.52469 -0.02818528 0
-47.59039 -17.42469 -0.02818528 0
-47.59039 -17.32469 -0.02818528 0
-48.29039 -15.77469 -0.02818528 0
-48.24039 -15.97469 -0.02818528 0
-48.14039 -16.02469 -0.02818528 0
-48.19039 -15.82469 -0.02818528 0
-48.39039 -15.57469 -0.02818528 0
-48.29039 -15.62469 -0.02818528 0
-48.44039 -15.37469 -0.02818528 0
-48.34039 -15.42469 -0.02818528 0
-48.39039 -15.22469 -0.02818528 0
-48.44039 -15.12469 0.02181472 0
-46.94039 -15.17469 -0.02818528 0
-46.74039 -23.82469 -0.07818528 0
-46.64039 -23.97469 -0.07818528 0
-46.84039 -23.62469 -0.07818528 0
-46.49039 -23.37469 -0.02818528 0
-46.14039 -23.92469 -0.02818528 0
-46.24039 -23.72469 -0.02818528 0
-46.39039 -23.57469 -0.02818528 0
-46.79039 -22.87469 -0.02818528 0
-46.69039 -23.02469 -0.02818528 0
-46.59039 -23.22469 -0.02818528 0
-45.29039 -23.47469 -0.07818528 0
-45.44039 -23.32469 -0.07818528 0
-45.69039 -22.97469 -0.07818528 0
-45.94039 -22.62469 -0.07818528 0
-45.79039 -22.77469 -0.07818528 0
-45.54039 -23.12469 -0.07818528 0
-45.54039 -22.67469 0.02181472 0
-45.64039 -22.52469 0.02181472 0
-45.39039 -22.82469 0.02181472 0
-46.49039 -21.72469 -0.07818528 0
-46.14039 -22.27469 -0.07818528 0
-46.24039 -22.07469 -0.07818528 0
-46.34039 -21.87469 -0.07818528 0
-46.14039 -21.82469 0.02181472 0
-46.69039 -21.32469 -0.07818528 0
-46.59039 -21.52469 -0.07818528 0
-46.54039 -21.32469 0.02181472 0
-46.79039 -21.12469 -0.07818528 0
-46.74039 -20.92469 0.02181472 0
-46.64039 -21.12469 0.02181472 0
-46.39039 -21.47469 0.02181472 0
-46.29039 -21.62469 0.02181472 0
-46.04039 -22.42469 -0.07818528 0
-45.89039 -22.17469 0.02181472 0
-45.79039 -22.32469 0.02181472 0
-46.04039 -21.97469 0.02181472 0
-45.04039 -23.82469 -0.07818528 0
-45.19039 -23.62469 -0.07818528 0
-45.14039 -23.17469 0.02181472 0
-45.24039 -23.02469 0.02181472 0
-45.09039 -21.07469 0.02181472 0
-45.24039 -20.87469 0.02181472 0
-46.84039 -20.77469 -0.02818528 0
-46.54039 -19.52469 -0.02818528 0
-46.64039 -19.32469 -0.02818528 0
-46.14039 -19.72469 0.02181472 0
-46.29039 -19.52469 0.02181472 0
-46.39039 -19.37469 0.02181472 0
-45.89039 -20.07469 0.02181472 0
-45.74039 -20.22469 0.02181472 0
-45.54039 -20.57469 0.02181472 0
-45.39039 -20.72469 0.02181472 0
-45.64039 -20.37469 0.02181472 0
-46.04039 -19.87469 0.02181472 0
-46.74039 -19.17469 -0.02818528 0
-46.84039 -18.97469 -0.02818528 0
-46.54039 -19.17469 0.02181472 0
-46.64039 -18.97469 0.02181472 0
-46.74039 -18.82469 0.02181472 0
-46.84039 -18.62469 -0.02818528 0
-45.44039 -17.67469 0.02181472 0
-45.29039 -17.82469 0.02181472 0
-45.04039 -18.17469 0.02181472 0
-45.19039 -18.02469 0.02181472 0
-46.24039 -16.47469 0.02181472 0
-46.14039 -16.62469 0.02181472 0
-46.34039 -16.27469 0.02181472 0
-46.44039 -16.12469 0.02181472 0
-45.69039 -17.32469 0.02181472 0
-45.89039 -16.97469 0.02181472 0
-45.79039 -17.17469 0.02181472 0
-45.54039 -17.52469 0.02181472 0
-46.04039 -16.82469 0.02181472 0
-46.59039 -15.92469 -0.02818528 0
-46.64039 -15.72469 -0.02818528 0
-46.74039 -15.57469 -0.02818528 0
-46.84039 -15.37469 -0.02818528 0
-45.74039 -15.52469 -0.02818528 0
-45.84039 -15.32469 -0.02818528 0
-45.49039 -15.87469 -0.02818528 0
-45.59039 -15.67469 -0.02818528 0
-45.34039 -16.02469 -0.02818528 0
-45.99039 -15.17469 -0.02818528 0
-45.09039 -16.37469 -0.02818528 0
-45.24039 -16.17469 -0.02818528 0
