# .PCD v0.7 - Point Cloud Data file format
VERSION 0.7
FIELDS x y z intensity
SIZE 4 4 4 4
TYPE F F F F
COUNT 1 1 1 1
WIDTH 1516
HEIGHT 1
VIEWPOINT 0 0 0 1 0 0 0
POINTS 1516
DATA ascii
-16.24039 -54.37469 0.9218147 0
-16.24039 -54.27469 1.021815 0
-16.24039 -54.27469 1.071815 0
-16.24039 -54.27469 1.221815 0
-16.09039 -54.27469 1.171815 0
-16.19039 -54.22469 0.8718147 0
-16.19039 -54.22469 0.9218147 0
-16.19039 -54.22469 0.9718148 0
-16.14039 -54.22469 0.9218147 0
-16.09039 -54.22469 0.8718147 0
-16.09039 -54.22469 0.9218147 0
-16.09039 -54.22469 0.9718148 0
-16.09039 -54.22469 1.021815 0
-16.19039 -54.22469 1.071815 0
-16.24039 -54.22469 1.171815 0
-16.19039 -54.22469 1.171815 0
-16.19039 -54.22469 1.221815 0
-16.14039 -54.22469 1.171815 0
-16.09039 -54.22469 1.221815 0
-16.29039 -54.37469 1.321815 0
-16.29039 -54.42469 1.571815 0
-16.29039 -54.22469 1.421815 0
-16.24039 -54.37469 1.371815 0
-16.24039 -54.27469 1.471815 0
-16.24039 -54.27469 1.571815 0
-16.19039 -54.22469 1.271815 0
-16.19039 -54.22469 1.321815 0
-16.19039 -54.22469 1.421815 0
-16.14039 -54.22469 1.321815 0
-16.09039 -54.22469 1.271815 0
-16.09039 -54.22469 1.321815 0
-16.09039 -54.22469 1.421815 0
-16.24039 -54.22469 1.521815 0
-16.19039 -54.22469 1.521815 0
-16.19039 -54.22469 1.621815 0
-16.14039 -54.22469 1.521815 0
-16.09039 -54.22469 1.471815 0
-16.09039 -54.22469 1.621815 0
-15.89039 -54.27469 0.8718147 0
-15.89039 -54.27469 0.9218147 0
-15.89039 -54.32469 0.9718148 0
-15.89039 -54.27469 0.9718148 0
-15.89039 -54.27469 1.021815 0
-16.04039 -54.27469 1.071815 0
-15.94039 -54.27469 1.171815 0
-15.89039 -54.27469 1.171815 0
-16.04039 -54.22469 0.8718147 0
-16.04039 -54.22469 0.9218147 0
-15.99039 -54.22469 0.8718147 0
-15.99039 -54.22469 0.9218147 0
-16.04039 -54.22469 0.9718148 0
-15.94039 -54.22469 0.8718147 0
-15.94039 -54.22469 0.9218147 0
-15.94039 -54.22469 1.021815 0
-16.04039 -54.22469 1.121815 0
-15.99039 -54.22469 1.171815 0
-15.99039 -54.22469 1.221815 0
-15.94039 -54.22469 1.221815 0
-15.84039 -54.27469 0.8718147 0
-15.84039 -54.27469 0.9218147 0
-15.79039 -54.27469 0.8718147 0
-15.84039 -54.32469 1.021815 0
-15.74039 -54.27469 0.8718147 0
-15.74039 -54.27469 0.9218147 0
-15.69039 -54.27469 0.9218147 0
-15.74039 -54.32469 0.9718148 0
-15.74039 -54.27469 0.9718148 0
-15.74039 -54.27469 1.021815 0
-15.84039 -54.27469 1.121815 0
-15.79039 -54.32469 1.121815 0
-15.84039 -54.27469 1.221815 0
-15.79039 -54.32469 1.221815 0
-15.79039 -54.27469 1.171815 0
-15.74039 -54.27469 1.171815 0
-15.74039 -54.27469 1.221815 0
-15.94039 -54.32469 1.271815 0
-15.94039 -54.27469 1.271815 0
-15.89039 -54.27469 1.271815 0
-15.89039 -54.27469 1.321815 0
-15.94039 -54.27469 1.371815 0
-15.89039 -54.27469 1.421815 0
-15.99039 -54.27469 1.521815 0
-16.04039 -54.27469 1.621815 0
-15.89039 -54.27469 1.471815 0
-15.89039 -54.27469 1.521815 0
-16.04039 -54.22469 1.271815 0
-15.99039 -54.22469 1.321815 0
-16.04039 -54.22469 1.371815 0
-15.99039 -54.22469 1.521815 0
-15.99039 -54.22469 1.621815 0
-15.94039 -54.22469 1.621815 0
-15.84039 -54.32469 1.271815 0
-15.84039 -54.27469 1.271815 0
-15.79039 -54.27469 1.271815 0
-15.84039 -54.27469 1.371815 0
-15.74039 -54.27469 1.321815 0
-15.69039 -54.27469 1.271815 0
-15.74039 -54.27469 1.371815 0
-15.74039 -54.27469 1.421815 0
-15.69039 -54.27469 1.371815 0
-15.84039 -54.32469 1.521815 0
-15.84039 -54.27469 1.571815 0
-15.84039 -54.27469 1.621815 0
-15.79039 -54.32469 1.621815 0
-15.74039 -54.27469 1.521815 0
-15.74039 -54.27469 1.571815 0
-15.74039 -54.27469 1.621815 0
-15.64039 -54.32469 0.1218147 0
-15.64039 -54.27469 0.07181472 0
-15.64039 -54.27469 0.1218147 0
-15.59039 -54.27469 0.07181472 0
-15.59039 -54.27469 0.1218147 0
-15.54039 -54.32469 0.07181472 0
-15.54039 -54.27469 0.07181472 0
-15.54039 -54.27469 0.1218147 0
-15.49039 -54.27469 0.07181472 0
-15.49039 -54.27469 0.1218147 0
-15.49039 -54.27469 0.1718147 0
-15.44039 -54.32469 0.1218147 0
-15.44039 -54.27469 0.1218147 0
-15.39039 -54.27469 0.07181472 0
-15.39039 -54.27469 0.1218147 0
-15.34039 -54.32469 0.07181472 0
-15.34039 -54.32469 0.1218147 0
-15.34039 -54.27469 0.07181472 0
-15.34039 -54.27469 0.1218147 0
-15.29039 -54.32469 0.1218147 0
-15.29039 -54.27469 0.07181472 0
-15.29039 -54.27469 0.1218147 0
-15.29039 -54.27469 0.1718147 0
-15.64039 -54.37469 0.6218147 0
-15.64039 -54.27469 0.4718147 0
-15.64039 -54.27469 0.5218147 0
-15.59039 -54.27469 0.4718147 0
-15.59039 -54.27469 0.5218147 0
-15.59039 -54.32469 0.5718147 0
-15.59039 -54.27469 0.6218147 0
-15.54039 -54.32469 0.5218147 0
-15.54039 -54.27469 0.4718147 0
-15.54039 -54.27469 0.5218147 0
-15.49039 -54.32469 0.5218147 0
-15.49039 -54.27469 0.4718147 0
-15.49039 -54.27469 0.5218147 0
-15.54039 -54.32469 0.6218147 0
-15.54039 -54.27469 0.5718147 0
-15.49039 -54.32469 0.6218147 0
-15.64039 -54.27469 0.8218147 0
-15.54039 -54.27469 0.6718147 0
-15.49039 -54.27469 0.6718147 0
-15.54039 -54.27469 0.8218147 0
-15.44039 -54.32469 0.5218147 0
-15.44039 -54.27469 0.5218147 0
-15.39039 -54.32469 0.5218147 0
-15.39039 -54.27469 0.4718147 0
-15.39039 -54.27469 0.5218147 0
-15.44039 -54.27469 0.6218147 0
-15.39039 -54.27469 0.5718147 0
-15.34039 -54.37469 0.6218147 0
-15.34039 -54.27469 0.5218147 0
-15.29039 -54.32469 0.4718147 0
-15.29039 -54.32469 0.5218147 0
-15.29039 -54.27469 0.4718147 0
-15.29039 -54.27469 0.5218147 0
-15.34039 -54.32469 0.6218147 0
-15.34039 -54.27469 0.5718147 0
-15.39039 -54.27469 0.8218147 0
-15.29039 -54.27469 0.7218148 0
-15.29039 -54.27469 0.8218147 0
-15.24039 -54.27469 0.07181472 0
-15.24039 -54.27469 0.1218147 0
-15.19039 -54.32469 0.07181472 0
-15.19039 -54.32469 0.1218147 0
-15.19039 -54.27469 0.1218147 0
-15.14039 -54.32469 0.1218147 0
-15.14039 -54.27469 0.07181472 0
-15.14039 -54.27469 0.1218147 0
-15.09039 -54.32469 0.07181472 0
-15.09039 -54.32469 0.1218147 0
-15.09039 -54.27469 0.07181472 0
-15.09039 -54.27469 0.1218147 0
-15.09039 -54.27469 0.1718147 0
-15.04039 -54.32469 0.1218147 0
-15.04039 -54.27469 0.07181472 0
-15.04039 -54.27469 0.1218147 0
-15.24039 -54.32469 0.4718147 0
-15.24039 -54.27469 0.4718147 0
-15.24039 -54.27469 0.5218147 0
-15.19039 -54.32469 0.4718147 0
-15.19039 -54.32469 0.5218147 0
-15.19039 -54.27469 0.5218147 0
-15.24039 -54.32469 0.5718147 0
-15.24039 -54.32469 0.6218147 0
-15.19039 -54.32469 0.5718147 0
-15.19039 -54.27469 0.5718147 0
-15.14039 -54.32469 0.5218147 0
-15.14039 -54.27469 0.4718147 0
-15.09039 -54.32469 0.5218147 0
-15.09039 -54.27469 0.5218147 0
-15.14039 -54.32469 0.6218147 0
-15.14039 -54.27469 0.6218147 0
-15.09039 -54.27469 0.5718147 0
-15.09039 -54.32469 0.6718147 0
-15.09039 -54.27469 0.7218148 0
-15.04039 -54.32469 0.4718147 0
-15.04039 -54.27469 0.4718147 0
-15.04039 -54.32469 0.5718147 0
-15.64039 -54.27469 0.8718147 0
-15.64039 -54.27469 0.9218147 0
-15.59039 -54.32469 0.8718147 0
-15.59039 -54.27469 0.8718147 0
-15.59039 -54.27469 0.9218147 0
-15.64039 -54.32469 1.021815 0
-15.59039 -54.32469 0.9718148 0
-15.54039 -54.27469 0.8718147 0
-15.54039 -54.27469 0.9218147 0
-15.49039 -54.32469 0.8718147 0
-15.49039 -54.32469 0.9218147 0
-15.49039 -54.27469 0.8718147 0
-15.49039 -54.27469 0.9218147 0
-15.54039 -54.27469 1.021815 0
-15.59039 -54.27469 1.121815 0
-15.64039 -54.27469 1.171815 0
-15.64039 -54.27469 1.221815 0
-15.59039 -54.27469 1.221815 0
-15.54039 -54.32469 1.121815 0
-15.54039 -54.32469 1.221815 0
-15.54039 -54.27469 1.221815 0
-15.49039 -54.27469 1.221815 0
-15.39039 -54.27469 0.8718147 0
-15.39039 -54.27469 0.9218147 0
-15.44039 -54.32469 0.9718148 0
-15.39039 -54.32469 1.021815 0
-15.34039 -54.32469 0.8718147 0
-15.34039 -54.32469 0.9218147 0
-15.29039 -54.32469 0.8718147 0
-15.29039 -54.27469 0.8718147 0
-15.29039 -54.27469 0.9218147 0
-15.34039 -54.32469 1.021815 0
-15.39039 -54.27469 1.071815 0
-15.44039 -54.27469 1.171815 0
-15.44039 -54.27469 1.221815 0
-15.39039 -54.32469 1.221815 0
-15.39039 -54.27469 1.221815 0
-15.34039 -54.32469 1.121815 0
-15.34039 -54.27469 1.121815 0
-15.29039 -54.27469 1.221815 0
-15.64039 -54.37469 1.271815 0
-15.64039 -54.32469 1.321815 0
-15.64039 -54.27469 1.271815 0
-15.64039 -54.27469 1.321815 0
-15.59039 -54.27469 1.271815 0
-15.59039 -54.32469 1.371815 0
-15.54039 -54.27469 1.271815 0
-15.49039 -54.27469 1.271815 0
-15.49039 -54.27469 1.321815 0
-15.54039 -54.27469 1.371815 0
-15.59039 -54.27469 1.471815 0
-15.64039 -54.27469 1.571815 0
-15.59039 -54.32469 1.621815 0
-15.59039 -54.27469 1.621815 0
-15.54039 -54.27469 1.471815 0
-15.54039 -54.27469 1.521815 0
-15.54039 -54.27469 1.571815 0
-15.49039 -54.32469 1.621815 0
-15.49039 -54.27469 1.571815 0
-15.49039 -54.27469 1.621815 0
-15.44039 -54.27469 1.271815 0
-15.44039 -54.27469 1.321815 0
-15.39039 -54.27469 1.271815 0
-15.44039 -54.32469 1.371815 0
-15.44039 -54.27469 1.371815 0
-15.34039 -54.37469 1.271815 0
-15.34039 -54.32469 1.321815 0
-15.34039 -54.27469 1.271815 0
-15.34039 -54.27469 1.321815 0
-15.29039 -54.27469 1.321815 0
-15.29039 -54.27469 1.371815 0
-15.44039 -54.32469 1.471815 0
-15.39039 -54.32469 1.471815 0
-15.39039 -54.27469 1.521815 0
-15.39039 -54.27469 1.571815 0
-15.39039 -54.27469 1.621815 0
-15.34039 -54.27469 1.621815 0
-15.29039 -54.27469 1.571815 0
-15.24039 -54.27469 0.8718147 0
-15.19039 -54.32469 0.9218147 0
-15.19039 -54.27469 0.8718147 0
-15.19039 -54.27469 0.9218147 0
-15.24039 -54.32469 1.021815 0
-15.24039 -54.27469 0.9718148 0
-15.19039 -54.32469 1.021815 0
-15.14039 -54.32469 0.8718147 0
-15.14039 -54.32469 0.9218147 0
-15.14039 -54.27469 0.8718147 0
-15.09039 -54.32469 0.8718147 0
-15.09039 -54.32469 0.9218147 0
-15.09039 -54.27469 0.8718147 0
-15.09039 -54.27469 0.9718148 0
-15.24039 -54.37469 1.221815 0
-15.19039 -54.27469 1.071815 0
-15.24039 -54.32469 1.221815 0
-15.19039 -54.32469 1.221815 0
-15.19039 -54.27469 1.221815 0
-15.14039 -54.32469 1.121815 0
-15.09039 -54.32469 1.071815 0
-15.14039 -54.32469 1.171815 0
-15.14039 -54.27469 1.221815 0
-15.09039 -54.27469 1.221815 0
-15.04039 -54.32469 0.8718147 0
-15.04039 -54.32469 0.9218147 0
-15.04039 -54.27469 0.8718147 0
-15.04039 -54.32469 1.021815 0
-15.04039 -54.32469 1.221815 0
-15.04039 -54.27469 1.221815 0
-15.24039 -54.32469 1.271815 0
-15.19039 -54.32469 1.321815 0
-15.24039 -54.27469 1.371815 0
-15.19039 -54.32469 1.371815 0
-15.09039 -54.37469 1.321815 0
-15.14039 -54.27469 1.271815 0
-15.14039 -54.27469 1.321815 0
-15.09039 -54.32469 1.271815 0
-15.09039 -54.32469 1.321815 0
-15.09039 -54.27469 1.371815 0
-15.24039 -54.32469 1.471815 0
-15.19039 -54.32469 1.471815 0
-15.19039 -54.27469 1.521815 0
-15.24039 -54.27469 1.621815 0
-15.19039 -54.32469 1.571815 0
-15.19039 -54.27469 1.571815 0
-15.14039 -54.27469 1.621815 0
-15.09039 -54.32469 1.571815 0
-15.09039 -54.27469 1.571815 0
-15.04039 -54.27469 1.271815 0
-15.04039 -54.32469 1.371815 0
-15.04039 -54.32469 1.471815 0
-15.04039 -54.32469 1.621815 0
-15.04039 -54.27469 1.571815 0
-15.04039 -54.27469 1.621815 0
-16.29039 -54.37469 1.671815 0
-16.29039 -54.37469 1.721815 0
-16.29039 -54.32469 1.721815 0
-16.29039 -54.22469 1.871815 0
-16.24039 -54.42469 1.771815 0
-16.09039 -54.27469 1.771815 0
-16.24039 -54.27469 1.871815 0
-16.24039 -54.27469 1.921815 0
-16.09039 -54.27469 1.871815 0
-16.19039 -54.22469 1.671815 0
-16.19039 -54.22469 1.771815 0
-16.19039 -54.22469 1.821815 0
-16.09039 -54.22469 1.671815 0
-16.09039 -54.22469 1.721815 0
-16.14039 -54.22469 1.771815 0
-16.24039 -54.22469 1.871815 0
-16.19039 -54.22469 2.021815 0
-16.14039 -54.22469 1.871815 0
-16.14039 -54.22469 1.921815 0
-16.09039 -54.22469 2.021815 0
-16.29039 -54.42469 2.121815 0
-16.29039 -54.37469 2.121815 0
-16.29039 -54.37469 2.171815 0
-16.34039 -54.32469 2.321815 0
-16.29039 -54.22469 2.071815 0
-16.29039 -54.22469 2.321815 0
-16.24039 -54.37469 2.221815 0
-16.24039 -54.27469 2.421815 0
-16.09039 -54.27469 2.321815 0
-16.24039 -54.22469 2.071815 0
-16.19039 -54.22469 2.071815 0
-16.24039 -54.22469 2.221815 0
-16.19039 -54.22469 2.171815 0
-16.09039 -54.22469 2.071815 0
-16.09039 -54.22469 2.121815 0
-16.14039 -54.22469 2.171815 0
-16.14039 -54.22469 2.221815 0
-16.19039 -54.22469 2.271815 0
-16.19039 -54.22469 2.371815 0
-16.19039 -54.22469 2.421815 0
-16.09039 -54.22469 2.321815 0
-16.14039 -54.22469 2.421815 0
-16.09039 -54.22469 2.371815 0
-15.94039 -54.27469 1.721815 0
-15.89039 -54.27469 1.671815 0
-15.89039 -54.27469 1.721815 0
-15.89039 -54.27469 1.821815 0
-15.94039 -54.32469 1.871815 0
-15.89039 -54.32469 1.871815 0
-15.89039 -54.27469 1.921815 0
-15.89039 -54.27469 1.971815 0
-16.04039 -54.22469 1.671815 0
-15.99039 -54.22469 1.721815 0
-16.04039 -54.22469 1.771815 0
-16.04039 -54.22469 1.821815 0
-15.94039 -54.22469 1.671815 0
-16.04039 -54.22469 1.871815 0
-15.99039 -54.22469 1.971815 0
-15.99039 -54.22469 2.021815 0
-15.94039 -54.22469 2.021815 0
-15.84039 -54.27469 1.671815 0
-15.79039 -54.27469 1.671815 0
-15.79039 -54.27469 1.721815 0
-15.84039 -54.27469 1.771815 0
-15.79039 -54.32469 1.771815 0
-15.74039 -54.27469 1.721815 0
-15.69039 -54.27469 1.671815 0
-15.74039 -54.27469 1.771815 0
-15.74039 -54.27469 1.821815 0
-15.69039 -54.27469 1.771815 0
-15.84039 -54.27469 1.871815 0
-15.84039 -54.27469 1.921815 0
-15.84039 -54.27469 2.021815 0
-15.79039 -54.27469 1.971815 0
-15.74039 -54.32469 1.921815 0
-15.74039 -54.27469 1.871815 0
-15.74039 -54.27469 1.921815 0
-15.74039 -54.27469 1.971815 0
-15.74039 -54.27469 2.021815 0
-16.04039 -54.27469 2.121815 0
-15.94039 -54.27469 2.071815 0
-15.89039 -54.27469 2.071815 0
-15.89039 -54.27469 2.121815 0
-15.94039 -54.27469 2.221815 0
-15.89039 -54.32469 2.171815 0
-15.89039 -54.27469 2.271815 0
-15.89039 -54.32469 2.371815 0
-15.89039 -54.27469 2.421815 0
-16.04039 -54.22469 2.071815 0
-16.04039 -54.22469 2.171815 0
-16.04039 -54.22469 2.221815 0
-15.99039 -54.22469 2.171815 0
-16.04039 -54.22469 2.271815 0
-16.04039 -54.22469 2.421815 0
-15.99039 -54.22469 2.371815 0
-15.94039 -54.22469 2.421815 0
-15.84039 -54.27469 2.071815 0
-15.79039 -54.32469 2.121815 0
-15.79039 -54.27469 2.071815 0
-15.84039 -54.27469 2.171815 0
-15.84039 -54.27469 2.221815 0
-15.74039 -54.27469 2.121815 0
-15.69039 -54.32469 2.071815 0
-15.74039 -54.27469 2.221815 0
-15.69039 -54.27469 2.221815 0
-15.84039 -54.27469 2.321815 0
-15.79039 -54.27469 2.271815 0
-15.84039 -54.27469 2.421815 0
-15.79039 -54.32469 2.371815 0
-15.74039 -54.27469 2.321815 0
-15.74039 -54.32469 2.371815 0
-15.74039 -54.32469 2.421815 0
-15.74039 -54.27469 2.371815 0
-15.74039 -54.27469 2.421815 0
-16.29039 -54.37469 2.521815 0
-16.34039 -54.42469 2.621815 0
-16.29039 -54.27469 2.621815 0
-16.29039 -54.37469 2.721815 0
-16.29039 -54.22469 2.771815 0
-16.24039 -54.27469 2.471815 0
-16.24039 -54.37469 2.671815 0
-16.19039 -54.22469 2.471815 0
-16.19039 -54.22469 2.521815 0
-16.24039 -54.22469 2.571815 0
-16.09039 -54.22469 2.471815 0
-16.09039 -54.22469 2.521815 0
-16.14039 -54.22469 2.571815 0
-16.14039 -54.22469 2.621815 0
-16.19039 -54.22469 2.671815 0
-16.19039 -54.22469 2.721815 0
-16.19039 -54.22469 2.771815 0
-16.14039 -54.22469 2.771815 0
-16.09039 -54.22469 2.771815 0
-16.29039 -54.37469 2.921815 0
-16.34039 -54.32469 2.871815 0
-16.29039 -54.37469 3.221815 0
-16.29039 -54.27469 3.121815 0
-16.29039 -54.22469 3.221815 0
-16.24039 -54.27469 2.871815 0
-16.09039 -54.27469 2.871815 0
-16.24039 -54.42469 3.071815 0
-16.24039 -54.27469 3.121815 0
-16.09039 -54.27469 3.221815 0
-16.19039 -54.22469 2.871815 0
-16.19039 -54.22469 2.921815 0
-16.24039 -54.22469 2.971815 0
-16.19039 -54.22469 2.971815 0
-16.14039 -54.22469 2.871815 0
-16.09039 -54.22469 2.871815 0
-16.09039 -54.22469 2.921815 0
-16.14039 -54.22469 2.971815 0
-16.14039 -54.22469 3.021815 0
-16.19039 -54.22469 3.071815 0
-16.19039 -54.22469 3.121815 0
-16.24039 -54.22469 3.221815 0
-16.19039 -54.22469 3.171815 0
-16.19039 -54.22469 3.221815 0
-16.09039 -54.22469 3.171815 0
-16.04039 -54.27469 2.621815 0
-15.99039 -54.27469 2.621815 0
-15.94039 -54.32469 2.521815 0
-15.89039 -54.32469 2.521815 0
-15.89039 -54.27469 2.471815 0
-15.89039 -54.32469 2.621815 0
-15.89039 -54.27469 2.571815 0
-15.99039 -54.27469 2.721815 0
-15.94039 -54.27469 2.671815 0
-15.89039 -54.27469 2.821815 0
-16.04039 -54.22469 2.471815 0
-15.99039 -54.22469 2.471815 0
-16.04039 -54.22469 2.621815 0
-15.99039 -54.22469 2.571815 0
-15.94039 -54.22469 2.471815 0
-16.04039 -54.22469 2.671815 0
-16.04039 -54.22469 2.721815 0
-16.04039 -54.22469 2.771815 0
-15.99039 -54.22469 2.771815 0
-15.94039 -54.22469 2.771815 0
-15.84039 -54.32469 2.471815 0
-15.84039 -54.27469 2.471815 0
-15.79039 -54.27469 2.521815 0
-15.79039 -54.32469 2.621815 0
-15.74039 -54.27469 2.471815 0
-15.69039 -54.32469 2.471815 0
-15.74039 -54.32469 2.571815 0
-15.84039 -54.27469 2.671815 0
-15.84039 -54.27469 2.721815 0
-15.79039 -54.32469 2.671815 0
-15.84039 -54.27469 2.821815 0
-15.74039 -54.27469 2.671815 0
-15.69039 -54.27469 2.671815 0
-15.74039 -54.32469 2.821815 0
-15.74039 -54.27469 2.771815 0
-15.74039 -54.27469 2.821815 0
-15.99039 -54.27469 2.971815 0
-15.94039 -54.27469 2.921815 0
-15.89039 -54.27469 2.921815 0
-15.89039 -54.27469 2.971815 0
-16.04039 -54.27469 3.121815 0
-16.04039 -54.27469 3.171815 0
-15.94039 -54.37469 3.171815 0
-15.89039 -54.27469 3.121815 0
-16.04039 -54.22469 2.871815 0
-16.04039 -54.22469 2.971815 0
-15.99039 -54.22469 2.971815 0
-15.94039 -54.22469 2.871815 0
-16.04039 -54.22469 3.071815 0
-16.04039 -54.22469 3.171815 0
-15.99039 -54.22469 3.171815 0
-15.94039 -54.22469 3.171815 0
-15.84039 -54.27469 2.871815 0
-15.79039 -54.32469 2.921815 0
-15.79039 -54.27469 2.921815 0
-15.84039 -54.32469 2.971815 0
-15.84039 -54.27469 3.021815 0
-15.79039 -54.27469 2.971815 0
-15.79039 -54.27469 3.021815 0
-15.74039 -54.27469 2.921815 0
-15.69039 -54.32469 2.871815 0
-15.74039 -54.32469 2.971815 0
-15.74039 -54.27469 2.971815 0
-15.74039 -54.27469 3.021815 0
-15.84039 -54.27469 3.121815 0
-15.84039 -54.32469 3.221815 0
-15.84039 -54.27469 3.221815 0
-15.79039 -54.32469 3.171815 0
-15.74039 -54.32469 3.071815 0
-15.74039 -54.27469 3.121815 0
-15.69039 -54.27469 3.121815 0
-15.74039 -54.27469 3.171815 0
-15.74039 -54.27469 3.221815 0
-15.64039 -54.27469 1.671815 0
-15.64039 -54.27469 1.721815 0
-15.59039 -54.27469 1.671815 0
-15.59039 -54.27469 1.721815 0
-15.59039 -54.32469 1.771815 0
-15.54039 -54.27469 1.671815 0
-15.54039 -54.27469 1.721815 0
-15.49039 -54.27469 1.721815 0
-15.54039 -54.32469 1.771815 0
-15.54039 -54.27469 1.821815 0
-15.64039 -54.37469 1.921815 0
-15.64039 -54.27469 1.921815 0
-15.64039 -54.32469 1.971815 0
-15.59039 -54.27469 1.971815 0
-15.59039 -54.27469 2.021815 0
-15.54039 -54.32469 1.921815 0
-15.54039 -54.27469 1.921815 0
-15.49039 -54.32469 1.921815 0
-15.49039 -54.27469 1.871815 0
-15.49039 -54.32469 2.021815 0
-15.49039 -54.27469 2.021815 0
-15.44039 -54.27469 1.671815 0
-15.39039 -54.27469 1.721815 0
-15.44039 -54.32469 1.771815 0
-15.44039 -54.27469 1.771815 0
-15.44039 -54.27469 1.821815 0
-15.39039 -54.27469 1.821815 0
-15.34039 -54.32469 1.671815 0
-15.34039 -54.27469 1.721815 0
-15.34039 -54.27469 1.771815 0
-15.29039 -54.27469 1.771815 0
-15.39039 -54.37469 1.921815 0
-15.44039 -54.27469 1.921815 0
-15.39039 -54.32469 1.921815 0
-15.39039 -54.27469 1.921815 0
-15.44039 -54.32469 1.971815 0
-15.44039 -54.27469 1.971815 0
-15.39039 -54.32469 2.021815 0
-15.39039 -54.27469 2.021815 0
-15.29039 -54.32469 1.921815 0
-15.64039 -54.27469 2.071815 0
-15.64039 -54.27469 2.121815 0
-15.59039 -54.27469 2.071815 0
-15.59039 -54.27469 2.121815 0
-15.59039 -54.32469 2.171815 0
-15.59039 -54.32469 2.221815 0
-15.54039 -54.27469 2.121815 0
-15.49039 -54.32469 2.121815 0
-15.54039 -54.27469 2.221815 0
-15.49039 -54.32469 2.171815 0
-15.64039 -54.27469 2.271815 0
-15.64039 -54.27469 2.321815 0
-15.64039 -54.32469 2.421815 0
-15.59039 -54.32469 2.421815 0
-15.54039 -54.27469 2.271815 0
-15.49039 -54.27469 2.321815 0
-15.54039 -54.32469 2.371815 0
-15.49039 -54.27469 2.421815 0
-15.44039 -54.27469 2.071815 0
-15.39039 -54.27469 2.121815 0
-15.44039 -54.32469 2.171815 0
-15.34039 -54.32469 2.121815 0
-15.34039 -54.27469 2.071815 0
-15.34039 -54.32469 2.171815 0
-15.29039 -54.27469 2.171815 0
-15.44039 -54.27469 2.271815 0
-15.44039 -54.27469 2.321815 0
-15.39039 -54.27469 2.271815 0
-15.39039 -54.27469 2.321815 0
-15.39039 -54.32469 2.421815 0
-15.34039 -54.27469 2.271815 0
-15.29039 -54.27469 2.321815 0
-15.24039 -54.27469 1.671815 0
-15.24039 -54.27469 1.721815 0
-15.19039 -54.27469 1.721815 0
-15.24039 -54.32469 1.821815 0
-15.24039 -54.27469 1.821815 0
-15.19039 -54.27469 1.771815 0
-15.19039 -54.27469 1.821815 0
-15.14039 -54.32469 1.671815 0
-15.14039 -54.27469 1.721815 0
-15.09039 -54.32469 1.671815 0
-15.09039 -54.27469 1.721815 0
-15.14039 -54.32469 1.771815 0
-15.14039 -54.27469 1.821815 0
-15.09039 -54.27469 1.771815 0
-15.09039 -54.27469 1.821815 0
-15.24039 -54.32469 1.921815 0
-15.19039 -54.32469 1.921815 0
-15.19039 -54.27469 1.921815 0
-15.24039 -54.32469 2.021815 0
-15.24039 -54.27469 2.021815 0
-15.19039 -54.27469 2.021815 0
-15.09039 -54.37469 1.971815 0
-15.14039 -54.27469 1.921815 0
-15.09039 -54.27469 1.921815 0
-15.14039 -54.27469 2.021815 0
-15.04039 -54.27469 1.771815 0
-15.04039 -54.32469 1.921815 0
-15.04039 -54.32469 1.971815 0
-15.04039 -54.32469 2.021815 0
-15.04039 -54.27469 2.021815 0
-15.24039 -54.32469 2.071815 0
-15.24039 -54.27469 2.121815 0
-15.19039 -54.32469 2.121815 0
-15.19039 -54.32469 2.171815 0
-15.14039 -54.32469 2.121815 0
-15.09039 -54.32469 2.071815 0
-15.09039 -54.32469 2.121815 0
-15.14039 -54.32469 2.171815 0
-15.09039 -54.32469 2.221815 0
-15.24039 -54.27469 2.271815 0
-15.19039 -54.27469 2.321815 0
-15.24039 -54.32469 2.421815 0
-15.24039 -54.27469 2.371815 0
-15.24039 -54.27469 2.421815 0
-15.19039 -54.32469 2.371815 0
-15.19039 -54.32469 2.421815 0
-15.14039 -54.32469 2.271815 0
-15.09039 -54.27469 2.271815 0
-15.09039 -54.27469 2.321815 0
-15.14039 -54.32469 2.371815 0
-15.14039 -54.27469 2.421815 0
-15.09039 -54.27469 2.421815 0
-15.04039 -54.32469 2.221815 0
-15.04039 -54.32469 2.321815 0
-15.04039 -54.32469 2.371815 0
-15.04039 -54.27469 2.421815 0
-15.64039 -54.37469 2.571815 0
-15.64039 -54.27469 2.521815 0
-15.59039 -54.32469 2.521815 0
-15.59039 -54.27469 2.471815 0
-15.64039 -54.27469 2.571815 0
-15.64039 -54.27469 2.621815 0
-15.59039 -54.32469 2.621815 0
-15.54039 -54.27469 2.521815 0
-15.49039 -54.32469 2.471815 0
-15.49039 -54.32469 2.521815 0
-15.49039 -54.27469 2.471815 0
-15.49039 -54.27469 2.571815 0
-15.64039 -54.27469 2.671815 0
-15.59039 -54.32469 2.671815 0
-15.59039 -54.27469 2.771815 0
-15.59039 -54.27469 2.821815 0
-15.54039 -54.32469 2.671815 0
-15.54039 -54.27469 2.671815 0
-15.49039 -54.27469 2.671815 0
-15.54039 -54.27469 2.771815 0
-15.49039 -54.32469 2.771815 0
-15.49039 -54.27469 2.821815 0
-15.39039 -54.37469 2.571815 0
-15.44039 -54.27469 2.471815 0
-15.39039 -54.32469 2.521815 0
-15.39039 -54.27469 2.471815 0
-15.44039 -54.32469 2.621815 0
-15.44039 -54.27469 2.621815 0
-15.34039 -54.32469 2.471815 0
-15.34039 -54.27469 2.521815 0
-15.34039 -54.32469 2.621815 0
-15.34039 -54.27469 2.571815 0
-15.29039 -54.32469 2.621815 0
-15.44039 -54.27469 2.671815 0
-15.39039 -54.27469 2.671815 0
-15.39039 -54.27469 2.721815 0
-15.39039 -54.32469 2.771815 0
-15.39039 -54.27469 2.821815 0
-15.34039 -54.32469 2.721815 0
-15.29039 -54.32469 2.671815 0
-15.29039 -54.27469 2.671815 0
-15.34039 -54.27469 2.821815 0
-15.64039 -54.27469 2.921815 0
-15.59039 -54.32469 2.871815 0
-15.59039 -54.32469 2.921815 0
-15.64039 -54.32469 2.971815 0
-15.64039 -54.27469 3.021815 0
-15.59039 -54.27469 2.971815 0
-15.54039 -54.32469 2.871815 0
-15.54039 -54.27469 2.921815 0
-15.49039 -54.27469 2.921815 0
-15.54039 -54.32469 2.971815 0
-15.54039 -54.27469 3.021815 0
-15.49039 -54.27469 3.021815 0
-15.64039 -54.37469 3.221815 0
-15.59039 -54.32469 3.071815 0
-15.59039 -54.32469 3.221815 0
-15.59039 -54.27469 3.171815 0
-15.59039 -54.27469 3.221815 0
-15.54039 -54.27469 3.121815 0
-15.49039 -54.27469 3.071815 0
-15.49039 -54.32469 3.221815 0
-15.49039 -54.27469 3.171815 0
-15.44039 -54.32469 2.871815 0
-15.39039 -54.32469 2.871815 0
-15.39039 -54.27469 2.921815 0
-15.44039 -54.32469 3.021815 0
-15.44039 -54.27469 3.021815 0
-15.39039 -54.32469 2.971815 0
-15.34039 -54.32469 2.871815 0
-15.34039 -54.32469 2.921815 0
-15.34039 -54.32469 3.021815 0
-15.29039 -54.32469 3.021815 0
-15.29039 -54.27469 3.021815 0
-15.39039 -54.37469 3.221815 0
-15.44039 -54.27469 3.071815 0
-15.39039 -54.32469 3.071815 0
-15.39039 -54.27469 3.121815 0
-15.39039 -54.32469 3.171815 0
-15.39039 -54.27469 3.221815 0
-15.29039 -54.27469 3.071815 0
-15.34039 -54.32469 3.171815 0
-15.24039 -54.27469 2.521815 0
-15.19039 -54.27469 2.521815 0
-15.19039 -54.32469 2.621815 0
-15.19039 -54.27469 2.621815 0
-15.09039 -54.37469 2.621815 0
-15.14039 -54.27469 2.521815 0
-15.09039 -54.32469 2.471815 0
-15.14039 -54.32469 2.571815 0
-15.09039 -54.32469 2.621815 0
-15.24039 -54.27469 2.721815 0
-15.19039 -54.32469 2.671815 0
-15.19039 -54.27469 2.671815 0
-15.24039 -54.32469 2.821815 0
-15.24039 -54.27469 2.771815 0
-15.14039 -54.32469 2.721815 0
-15.09039 -54.27469 2.671815 0
-15.09039 -54.27469 2.721815 0
-15.14039 -54.32469 2.771815 0
-15.14039 -54.27469 2.821815 0
-15.09039 -54.32469 2.821815 0
-15.09039 -54.27469 2.821815 0
-15.04039 -54.27469 2.521815 0
-15.04039 -54.32469 2.621815 0
-15.04039 -54.32469 2.721815 0
-15.04039 -54.32469 2.821815 0
-15.04039 -54.27469 2.771815 0
-15.24039 -54.37469 3.021815 0
-15.24039 -54.32469 2.871815 0
-15.19039 -54.32469 2.921815 0
-15.24039 -54.27469 2.971815 0
-15.19039 -54.32469 3.021815 0
-15.19039 -54.27469 2.971815 0
-15.19039 -54.27469 3.021815 0
-15.09039 -54.32469 2.871815 0
-15.09039 -54.32469 2.921815 0
-15.14039 -54.32469 3.021815 0
-15.14039 -54.27469 2.971815 0
-15.14039 -54.27469 3.021815 0
-15.09039 -54.27469 3.021815 0
-15.19039 -54.32469 3.071815 0
-15.24039 -54.32469 3.171815 0
-15.24039 -54.32469 3.221815 0
-15.09039 -54.32469 3.121815 0
-15.14039 -54.32469 3.171815 0
-15.14039 -54.32469 3.221815 0
-15.09039 -54.27469 3.171815 0
-15.04039 -54.32469 3.021815 0
-15.04039 -54.32469 3.071815 0
-15.04039 -54.32469 3.171815 0
-16.29039 -56.02469 3.321815 0
-16.29039 -55.72469 3.271815 0
-16.19039 -56.02469 3.271815 0
-16.19039 -56.02469 3.421815 0
-16.24039 -55.92469 3.521815 0
-16.24039 -55.82469 3.371815 0
-16.24039 -55.82469 3.421815 0
-16.14039 -55.67469 3.371815 0
-16.19039 -55.67469 3.471815 0
-16.24039 -55.67469 3.621815 0
-16.29039 -55.92469 3.821815 0
-16.29039 -55.67469 3.771815 0
-16.29039 -55.72469 3.971815 0
-16.24039 -55.97469 3.671815 0
-16.19039 -56.02469 3.721815 0
-16.19039 -55.87469 3.671815 0
-16.19039 -55.72469 3.671815 0
-16.24039 -55.82469 3.921815 0
-16.24039 -55.82469 4.021815 0
-16.19039 -55.67469 4.021815 0
-16.14039 -55.67469 3.871815 0
-16.24039 -55.57469 3.321815 0
-16.19039 -55.57469 3.271815 0
-16.24039 -55.47469 3.271815 0
-16.24039 -55.52469 3.421815 0
-16.19039 -55.57469 3.621815 0
-16.19039 -55.37469 3.421815 0
-16.24039 -55.27469 3.271815 0
-16.24039 -55.27469 3.371815 0
-16.14039 -55.32469 3.271815 0
-16.24039 -55.42469 3.621815 0
-16.19039 -55.42469 3.621815 0
-16.19039 -55.27469 3.571815 0
-16.29039 -55.47469 3.921815 0
-16.29039 -55.42469 3.721815 0
-16.24039 -55.57469 3.871815 0
-16.24039 -55.52469 3.971815 0
-16.24039 -55.32469 3.821815 0
-16.14039 -55.32469 3.771815 0
-16.24039 -55.37469 3.921815 0
-16.24039 -55.27469 3.921815 0
-16.29039 -55.97469 4.321815 0
-16.29039 -55.92469 4.421815 0
-16.29039 -55.67469 4.421815 0
-16.24039 -55.92469 4.071815 0
-16.19039 -55.87469 4.221815 0
-16.24039 -55.67469 4.271815 0
-16.29039 -55.77469 4.621815 0
-16.24039 -55.82469 4.521815 0
-16.24039 -55.82469 4.571815 0
-16.29039 -55.42469 4.371815 0
-16.19039 -55.57469 4.121815 0
-16.24039 -55.57469 4.421815 0
-16.24039 -55.42469 4.221815 0
-16.19039 -55.27469 4.071815 0
-16.24039 -55.32469 4.371815 0
-16.29039 -55.47469 4.571815 0
-16.24039 -55.52469 4.521815 0
-16.24039 -55.27469 4.471815 0
-16.24039 -55.42469 4.821815 0
-16.19039 -55.12469 3.371815 0
-16.24039 -55.17469 3.571815 0
-16.19039 -55.12469 3.521815 0
-16.24039 -54.97469 3.321815 0
-16.19039 -54.87469 3.321815 0
-16.19039 -54.97469 3.471815 0
-16.24039 -54.92469 3.521815 0
-16.29039 -55.17469 3.871815 0
-16.19039 -55.12469 3.871815 0
-16.24039 -55.02469 3.771815 0
-16.24039 -54.87469 3.821815 0
-16.19039 -54.87469 3.821815 0
-16.14039 -54.97469 3.671815 0
-16.24039 -55.02469 3.871815 0
-16.19039 -54.97469 4.021815 0
-16.29039 -54.47469 3.271815 0
-16.24039 -54.72469 3.271815 0
-16.14039 -54.72469 3.421815 0
-16.19039 -54.82469 3.471815 0
-16.24039 -54.67469 3.521815 0
-16.29039 -54.47469 3.721815 0
-16.34039 -54.47469 3.771815 0
-16.24039 -54.82469 3.721815 0
-16.24039 -54.72469 3.821815 0
-16.19039 -54.67469 3.921815 0
-16.24039 -55.17469 4.171815 0
-16.24039 -55.07469 4.321815 0
-16.24039 -54.92469 4.121815 0
-16.24039 -54.97469 4.421815 0
-16.29039 -55.17469 4.571815 0
-16.29039 -54.87469 4.521815 0
-16.24039 -55.17469 4.771815 0
-16.24039 -54.92469 4.771815 0
-16.29039 -54.47469 4.221815 0
-16.34039 -54.47469 4.421815 0
-16.24039 -54.67469 4.121815 0
-16.24039 -54.82469 4.271815 0
-16.24039 -54.72469 4.371815 0
-16.24039 -54.67469 4.721815 0
-16.29039 -55.97469 4.921815 0
-16.29039 -55.92469 5.071815 0
-16.29039 -55.67469 5.021815 0
-16.24039 -55.67469 4.871815 0
-16.29039 -55.77469 5.321815 0
-16.29039 -55.42469 4.971815 0
-16.29039 -55.47469 5.271815 0
-16.29039 -55.17469 5.221815 0
-16.29039 -54.87469 5.171815 0
-16.34039 -54.47469 5.071815 0
-16.29039 -54.37469 3.321815 0
-16.34039 -54.32469 3.421815 0
-16.29039 -54.27469 3.621815 0
-16.24039 -54.27469 3.371815 0
-16.24039 -54.42469 3.521815 0
-16.09039 -54.27469 3.471815 0
-16.24039 -54.22469 3.321815 0
-16.19039 -54.22469 3.271815 0
-16.19039 -54.22469 3.321815 0
-16.09039 -54.22469 3.321815 0
-16.14039 -54.22469 3.371815 0
-16.14039 -54.22469 3.421815 0
-16.19039 -54.22469 3.471815 0
-16.19039 -54.22469 3.521815 0
-16.19039 -54.22469 3.621815 0
-16.34039 -54.42469 3.671815 0
-16.34039 -54.37469 3.721815 0
-16.29039 -54.27469 3.671815 0
-16.29039 -54.32469 3.771815 0
-16.34039 -54.32469 4.021815 0
-16.24039 -54.27469 3.821815 0
-16.14039 -54.27469 3.721815 0
-16.24039 -54.22469 3.721815 0
-16.14039 -54.22469 3.821815 0
-16.19039 -54.22469 3.971815 0
-16.04039 -54.27469 3.271815 0
-15.99039 -54.27469 3.271815 0
-15.99039 -54.27469 3.421815 0
-15.94039 -54.27469 3.271815 0
-15.94039 -54.27469 3.321815 0
-15.89039 -54.27469 3.321815 0
-15.94039 -54.27469 3.371815 0
-15.89039 -54.27469 3.371815 0
-15.89039 -54.27469 3.421815 0
-15.99039 -54.27469 3.471815 0
-15.94039 -54.32469 3.571815 0
-16.04039 -54.22469 3.321815 0
-16.04039 -54.22469 3.521815 0
-16.04039 -54.22469 3.571815 0
-15.84039 -54.27469 3.321815 0
-15.79039 -54.32469 3.321815 0
-15.79039 -54.32469 3.421815 0
-15.74039 -54.32469 3.321815 0
-15.74039 -54.27469 3.271815 0
-15.74039 -54.27469 3.321815 0
-15.69039 -54.32469 3.271815 0
-15.74039 -54.32469 3.371815 0
-15.74039 -54.27469 3.371815 0
-15.74039 -54.27469 3.421815 0
-15.79039 -54.37469 3.521815 0
-15.84039 -54.27469 3.571815 0
-15.74039 -54.32469 3.521815 0
-15.74039 -54.27469 3.521815 0
-15.69039 -54.27469 3.571815 0
-16.04039 -54.27469 3.671815 0
-15.99039 -54.27469 3.771815 0
-15.94039 -54.37469 3.821815 0
-15.89039 -54.32469 3.771815 0
-15.99039 -54.27469 3.971815 0
-15.94039 -54.27469 3.871815 0
-16.04039 -54.22469 3.821815 0
-15.79039 -54.32469 3.721815 0
-15.79039 -54.27469 3.721815 0
-15.84039 -54.27469 3.771815 0
-15.79039 -54.27469 3.821815 0
-15.74039 -54.32469 3.771815 0
-15.74039 -54.27469 3.771815 0
-15.84039 -54.32469 3.921815 0
-15.74039 -54.27469 3.921815 0
-15.74039 -54.27469 4.021815 0
-16.29039 -54.27469 4.171815 0
-16.34039 -54.37469 4.271815 0
-16.09039 -54.27469 4.071815 0
-16.24039 -54.32469 4.421815 0
-16.24039 -54.22469 4.271815 0
-16.34039 -54.32469 4.621815 0
-16.09039 -54.32469 4.671815 0
-16.04039 -54.27469 4.221815 0
-15.99039 -54.27469 4.321815 0
-16.04039 -54.27469 4.371815 0
-15.79039 -54.32469 4.121815 0
-15.74039 -54.32469 4.171815 0
-15.84039 -54.32469 4.321815 0
-15.79039 -54.32469 4.271815 0
-15.84039 -54.32469 4.371815 0
-15.79039 -54.27469 4.371815 0
-15.74039 -54.27469 4.421815 0
-15.94039 -54.37469 4.471815 0
-15.69039 -54.37469 4.521815 0
-15.79039 -54.32469 4.721815 0
-15.74039 -54.27469 4.721815 0
-15.74039 -54.32469 4.771815 0
-15.64039 -54.27469 3.321815 0
-15.59039 -54.32469 3.271815 0
-15.64039 -54.32469 3.421815 0
-15.59039 -54.32469 3.371815 0
-15.59039 -54.27469 3.421815 0
-15.54039 -54.32469 3.321815 0
-15.54039 -54.27469 3.321815 0
-15.54039 -54.27469 3.371815 0
-15.49039 -54.32469 3.371815 0
-15.49039 -54.32469 3.421815 0
-15.59039 -54.32469 3.521815 0
-15.59039 -54.27469 3.571815 0
-15.54039 -54.37469 3.571815 0
-15.44039 -54.32469 3.271815 0
-15.44039 -54.27469 3.321815 0
-15.44039 -54.32469 3.371815 0
-15.39039 -54.32469 3.371815 0
-15.39039 -54.27469 3.371815 0
-15.34039 -54.32469 3.271815 0
-15.34039 -54.32469 3.321815 0
-15.34039 -54.32469 3.371815 0
-15.44039 -54.32469 3.471815 0
-15.39039 -54.32469 3.471815 0
-15.39039 -54.27469 3.471815 0
-15.44039 -54.27469 3.621815 0
-15.34039 -54.32469 3.471815 0
-15.29039 -54.32469 3.471815 0
-15.59039 -54.32469 3.721815 0
-15.59039 -54.32469 3.771815 0
-15.49039 -54.32469 3.671815 0
-15.54039 -54.32469 3.821815 0
-15.64039 -54.37469 3.871815 0
-15.59039 -54.32469 3.871815 0
-15.59039 -54.27469 3.921815 0
-15.54039 -54.32469 3.871815 0
-15.44039 -54.27469 3.721815 0
-15.39039 -54.32469 3.821815 0
-15.34039 -54.32469 3.671815 0
-15.34039 -54.32469 3.821815 0
-15.39039 -54.37469 3.921815 0
-15.39039 -54.32469 3.871815 0
-15.44039 -54.27469 3.971815 0
-15.39039 -54.27469 3.971815 0
-15.34039 -54.32469 3.871815 0
-15.24039 -54.32469 3.271815 0
-15.19039 -54.32469 3.321815 0
-15.24039 -54.27469 3.371815 0
-15.19039 -54.32469 3.371815 0
-15.09039 -54.37469 3.271815 0
-15.14039 -54.32469 3.271815 0
-15.14039 -54.27469 3.271815 0
-15.09039 -54.32469 3.271815 0
-15.09039 -54.32469 3.321815 0
-15.14039 -54.32469 3.421815 0
-15.14039 -54.27469 3.371815 0
-15.09039 -54.32469 3.421815 0
-15.24039 -54.37469 3.621815 0
-15.19039 -54.32469 3.471815 0
-15.24039 -54.27469 3.621815 0
-15.14039 -54.32469 3.621815 0
-15.09039 -54.32469 3.621815 0
-15.09039 -54.27469 3.621815 0
-15.04039 -54.32469 3.321815 0
-15.04039 -54.32469 3.421815 0
-15.04039 -54.32469 3.471815 0
-15.04039 -54.32469 3.521815 0
-15.19039 -54.32469 3.821815 0
-15.14039 -54.27469 3.671815 0
-15.14039 -54.32469 3.821815 0
-15.19039 -54.32469 3.871815 0
-15.24039 -54.27469 3.971815 0
-15.09039 -54.37469 3.921815 0
-15.14039 -54.27469 3.921815 0
-15.09039 -54.32469 4.021815 0
-15.04039 -54.32469 3.771815 0
-15.04039 -54.27469 4.021815 0
-15.54039 -54.37469 4.171815 0
-15.59039 -54.32469 4.321815 0
-15.59039 -54.27469 4.421815 0
-15.54039 -54.32469 4.271815 0
-15.49039 -54.32469 4.321815 0
-15.39039 -54.32469 4.071815 0
-15.29039 -54.32469 4.221815 0
-15.44039 -54.27469 4.321815 0
-15.34039 -54.32469 4.371815 0
-15.34039 -54.32469 4.421815 0
-15.54039 -54.37469 4.771815 0
-15.39039 -54.37469 4.571815 0
-15.44039 -54.27469 4.671815 0
-15.39039 -54.32469 4.671815 0
-15.29039 -54.37469 4.821815 0
-15.24039 -54.37469 4.221815 0
-15.14039 -54.32469 4.221815 0
-15.09039 -54.32469 4.171815 0
-15.14039 -54.37469 4.421815 0
-15.14039 -54.32469 4.271815 0
-15.09039 -54.37469 4.621815 0
-15.14039 -54.32469 4.471815 0
-15.14039 -54.27469 4.621815 0
-15.09039 -54.32469 4.621815 0
-16.29039 -54.32469 5.071815 0
-15.94039 -54.37469 5.121815 0
-15.79039 -54.32469 5.021815 0
-15.69039 -54.37469 5.171815 0
-15.74039 -54.27469 5.071815 0
-15.74039 -54.27469 5.421815 0
-15.44039 -54.32469 4.921815 0
-15.44039 -54.32469 4.971815 0
-15.39039 -54.37469 5.271815 0
-15.44039 -54.27469 5.371815 0
-15.14039 -54.32469 4.871815 0
-15.14039 -54.27469 4.921815 0
-15.09039 -54.37469 5.321815 0
-15.14039 -54.27469 5.321815 0
-17.29039 -51.17469 0.1718147 0
-17.19039 -51.07469 0.1718147 0
-17.14039 -50.97469 0.1718147 0
-17.04039 -50.87469 0.1718147 0
-16.94039 -50.82469 0.1718147 0
-16.89039 -50.72469 0.1718147 0
-16.79039 -50.62469 0.1718147 0
-16.74039 -50.52469 0.1718147 0
-16.54039 -50.62469 0.1218147 0
-16.54039 -50.52469 0.1218147 0
-16.89039 -49.67469 0.1218147 0
-16.69039 -50.27469 0.1218147 0
-16.69039 -50.17469 0.1218147 0
-16.59039 -50.37469 0.1218147 0
-16.64039 -50.42469 0.1718147 0
-16.59039 -50.32469 0.1718147 0
-16.49039 -50.22469 0.1718147 0
-16.79039 -49.92469 0.1218147 0
-16.74039 -50.02469 0.1218147 0
-16.84039 -49.82469 0.1218147 0
-16.29039 -51.07469 0.1218147 0
-16.39039 -50.87469 0.1218147 0
-16.34039 -50.97469 0.1218147 0
-16.24039 -51.22469 0.1218147 0
-16.44039 -50.72469 0.1218147 0
-16.44039 -50.12469 0.1718147 0
-16.34039 -50.02469 0.1718147 0
-16.29039 -49.92469 0.1718147 0
-16.24039 -49.82469 0.1718147 0
-16.14039 -49.72469 0.1718147 0
-33.29039 -48.97469 0.07181472 0
-33.34039 -48.87469 0.07181472 0
-33.69039 -48.22469 0.07181472 0
-33.74039 -48.07469 0.07181472 0
-33.49039 -48.52469 0.07181472 0
-33.39039 -48.72469 0.07181472 0
-33.44039 -48.62469 0.07181472 0
-33.59039 -48.32469 0.07181472 0
-33.54039 -48.42469 0.07181472 0
-33.09039 -49.32469 0.07181472 0
-32.94039 -49.52469 0.07181472 0
-32.99039 -49.42469 0.07181472 0
-33.19039 -49.07469 0.07181472 0
-33.14039 -49.17469 0.07181472 0
-32.84039 -49.62469 0.07181472 0
-33.79039 -47.97469 0.07181472 0
-33.84039 -47.87469 0.07181472 0
-33.84039 -47.72469 0.07181472 0
-33.99039 -47.57469 0.07181472 0
-33.89039 -47.62469 0.07181472 0
-33.84039 -47.57469 0.07181472 0
-33.79039 -47.57469 0.07181472 0
-33.69039 -47.57469 0.07181472 0
-33.59039 -47.57469 0.07181472 0
-33.59039 -47.52469 0.07181472 0
-33.49039 -47.52469 0.07181472 0
-33.44039 -47.57469 0.07181472 0
-33.39039 -47.62469 0.07181472 0
-33.39039 -47.52469 0.07181472 0
-33.34039 -47.57469 0.07181472 0
-33.29039 -47.57469 0.07181472 0
-33.19039 -47.57469 0.07181472 0
-33.09039 -47.57469 0.07181472 0
-33.04039 -47.62469 0.1218147 0
-32.99039 -47.57469 0.07181472 0
-32.94039 -47.57469 0.07181472 0
-32.89039 -47.57469 0.07181472 0
-32.49039 -47.67469 0.07181472 0
-32.84039 -47.62469 0.07181472 0
-32.79039 -47.57469 0.07181472 0
-32.74039 -47.62469 0.07181472 0
-32.69039 -47.57469 0.07181472 0
-32.64039 -47.62469 0.1218147 0
-32.59039 -47.62469 0.07181472 0
-32.59039 -47.57469 0.07181472 0
-32.54039 -47.62469 0.07181472 0
-32.54039 -47.57469 0.07181472 0
-30.89039 -49.47469 0.1218147 0
-30.99039 -49.27469 0.1218147 0
-30.94039 -49.37469 0.1218147 0
-31.09039 -49.17469 0.1218147 0
-31.14039 -49.07469 0.1218147 0
-31.19039 -48.92469 0.1218147 0
-31.29039 -48.72469 0.1218147 0
-31.39039 -48.62469 0.1218147 0
-31.44039 -48.52469 0.1218147 0
-31.49039 -48.37469 0.1218147 0
-31.54039 -48.27469 0.1218147 0
-31.59039 -48.17469 0.1218147 0
-31.64039 -48.07469 0.1218147 0
-31.24039 -48.82469 0.1218147 0
-32.39039 -47.67469 0.07181472 0
-32.34039 -47.67469 0.1218147 0
-32.29039 -47.72469 0.07181472 0
-32.14039 -47.77469 0.07181472 0
-32.09039 -47.67469 0.1218147 0
-32.44039 -47.57469 0.07181472 0
-32.34039 -47.57469 0.07181472 0
-32.19039 -47.62469 0.07181472 0
-32.09039 -47.62469 0.07181472 0
-32.04039 -47.77469 0.07181472 0
-31.99039 -47.67469 0.1218147 0
-31.94039 -47.82469 0.07181472 0
-31.69039 -47.92469 0.1218147 0
-31.69039 -47.87469 0.07181472 0
-31.79039 -47.82469 0.07181472 0
-31.79039 -47.72469 0.1218147 0
-31.74039 -47.82469 0.1218147 0
-31.69039 -47.67469 0.1218147 0
-31.99039 -47.62469 0.07181472 0
-31.89039 -47.62469 0.07181472 0
-31.79039 -47.62469 0.07181472 0
-31.69039 -47.62469 0.07181472 0
-31.59039 -47.87469 0.07181472 0
-31.44039 -47.92469 0.07181472 0
-31.34039 -47.92469 0.07181472 0
-31.29039 -47.67469 0.07181472 0
-31.29039 -47.67469 0.1218147 0
-31.59039 -47.62469 0.07181472 0
-31.49039 -47.62469 0.07181472 0
-31.39039 -47.62469 0.07181472 0
-31.24039 -47.92469 0.07181472 0
-31.09039 -47.97469 0.07181472 0
-31.24039 -47.67469 0.07181472 0
-31.14039 -47.67469 0.07181472 0
-30.99039 -47.97469 0.07181472 0
-30.89039 -47.97469 0.07181472 0
-30.99039 -47.67469 0.07181472 0
-30.94039 -47.67469 0.07181472 0
-30.89039 -47.72469 0.1218147 0
-30.89039 -47.67469 0.07181472 0
-31.04039 -47.62469 0.07181472 0
-30.84039 -49.62469 0.1218147 0
-30.19039 -48.07469 0.07181472 0
-30.04039 -48.07469 0.07181472 0
-29.94039 -48.07469 0.07181472 0
-29.84039 -48.07469 0.07181472 0
-29.69039 -48.07469 0.07181472 0
-29.34039 -48.72469 0.1218147 0
-29.39039 -48.62469 0.1218147 0
-29.44039 -48.52469 0.1218147 0
-29.49039 -48.42469 0.1218147 0
-29.54039 -48.27469 0.1218147 0
-29.59039 -48.17469 0.1218147 0
-29.64039 -48.07469 0.1218147 0
-29.59039 -48.07469 0.07181472 0
-29.49039 -48.07469 0.07181472 0
-29.34039 -48.07469 0.07181472 0
-30.74039 -47.97469 0.07181472 0
-30.84039 -47.67469 0.07181472 0
-30.79039 -47.67469 0.07181472 0
-30.74039 -47.67469 0.07181472 0
-30.69039 -47.67469 0.07181472 0
-30.64039 -48.02469 0.07181472 0
-30.54039 -48.02469 0.07181472 0
-30.64039 -47.67469 0.07181472 0
-30.59039 -47.67469 0.07181472 0
-30.54039 -47.72469 0.1218147 0
-30.54039 -47.67469 0.07181472 0
-30.49039 -47.67469 0.07181472 0
-30.39039 -48.02469 0.07181472 0
-30.29039 -48.02469 0.07181472 0
-30.39039 -47.67469 0.07181472 0
-30.34039 -47.72469 0.1218147 0
-30.29039 -47.67469 0.07181472 0
-30.19039 -47.72469 0.1218147 0
-30.19039 -47.67469 0.07181472 0
-30.09039 -47.72469 0.07181472 0
-30.09039 -47.67469 0.07181472 0
-29.99039 -47.67469 0.07181472 0
-29.94039 -47.72469 0.1218147 0
-29.89039 -47.72469 0.07181472 0
-29.89039 -47.72469 0.1218147 0
-29.89039 -47.67469 0.07181472 0
-29.69039 -47.92469 0.1218147 0
-29.79039 -47.72469 0.07181472 0
-29.74039 -47.82469 0.1218147 0
-29.69039 -47.72469 0.07181472 0
-29.64039 -47.72469 0.07181472 0
-29.59039 -47.72469 0.07181472 0
-29.49039 -47.77469 0.1218147 0
-29.49039 -47.72469 0.07181472 0
-29.39039 -47.72469 0.07181472 0
-29.34039 -47.72469 0.07181472 0
-29.29039 -47.72469 0.07181472 0
-28.89039 -49.52469 0.1218147 0
-29.04039 -49.27469 0.1218147 0
-28.94039 -49.37469 0.1218147 0
-29.09039 -49.17469 0.1218147 0
-29.14039 -49.07469 0.1218147 0
-29.19039 -48.97469 0.1218147 0
-28.84039 -49.62469 0.1218147 0
-29.24039 -48.82469 0.1218147 0
-29.24039 -48.07469 0.07181472 0
-29.09039 -48.07469 0.07181472 0
-28.99039 -48.07469 0.07181472 0
-28.89039 -48.07469 0.07181472 0
-29.24039 -47.72469 0.07181472 0
-29.19039 -47.72469 0.07181472 0
-29.14039 -47.77469 0.1218147 0
-29.14039 -47.72469 0.07181472 0
-29.09039 -47.72469 0.07181472 0
-28.99039 -47.72469 0.07181472 0
-28.94039 -47.72469 0.07181472 0
-28.89039 -47.72469 0.07181472 0
-28.74039 -48.02469 0.07181472 0
-28.79039 -47.72469 0.07181472 0
-28.74039 -47.77469 0.1218147 0
-28.64039 -48.02469 0.07181472 0
-28.54039 -48.02469 0.07181472 0
-28.64039 -47.77469 0.07181472 0
-28.59039 -47.77469 0.07181472 0
-28.49039 -47.77469 0.07181472 0
-28.49039 -47.72469 0.07181472 0
-28.39039 -48.02469 0.07181472 0
-28.29039 -48.02469 0.07181472 0
-28.39039 -47.82469 0.1218147 0
-28.39039 -47.72469 0.07181472 0
-28.34039 -47.77469 0.07181472 0
-28.29039 -47.77469 0.07181472 0
-28.19039 -48.02469 0.07181472 0
-28.24039 -47.77469 0.07181472 0
-28.19039 -47.77469 0.07181472 0
-28.19039 -47.77469 0.1218147 0
-28.14039 -47.82469 0.07181472 0
-28.14039 -47.77469 0.07181472 0
-28.09039 -47.77469 0.07181472 0
-28.04039 -47.97469 0.07181472 0
-27.94039 -47.97469 0.07181472 0
-28.04039 -47.82469 0.1218147 0
-28.04039 -47.77469 0.07181472 0
-27.99039 -47.82469 0.07181472 0
-27.99039 -47.77469 0.07181472 0
-27.89039 -47.77469 0.07181472 0
-27.84039 -47.97469 0.07181472 0
-27.69039 -47.92469 0.07181472 0
-27.84039 -47.82469 0.07181472 0
-27.79039 -47.82469 0.07181472 0
-27.79039 -47.82469 0.1218147 0
-27.79039 -47.77469 0.07181472 0
-27.74039 -47.82469 0.07181472 0
-27.69039 -47.82469 0.07181472 0
-27.69039 -47.77469 0.07181472 0
-27.74039 -47.82469 0.1718147 0
-26.89039 -49.52469 0.1218147 0
-26.99039 -49.27469 0.1218147 0
-26.94039 -49.42469 0.1218147 0
-27.09039 -49.17469 0.1218147 0
-27.14039 -49.07469 0.1218147 0
-27.19039 -48.97469 0.1218147 0
-27.29039 -48.72469 0.1218147 0
-27.39039 -48.47469 0.1218147 0
-27.34039 -48.62469 0.1218147 0
-27.49039 -48.37469 0.1218147 0
-27.49039 -48.27469 0.1218147 0
-27.59039 -48.17469 0.1218147 0
-27.24039 -48.82469 0.1218147 0
-26.84039 -49.62469 0.1218147 0
-27.59039 -48.02469 0.1218147 0
-27.59039 -47.92469 0.07181472 0
-27.64039 -47.92469 0.1718147 0
-27.49039 -47.92469 0.07181472 0
-27.59039 -47.82469 0.07181472 0
-27.59039 -47.77469 0.07181472 0
-27.49039 -47.82469 0.07181472 0
-27.49039 -47.77469 0.07181472 0
-27.34039 -47.87469 0.07181472 0
-27.44039 -47.82469 0.07181472 0
-27.39039 -47.82469 0.07181472 0
-27.39039 -47.77469 0.07181472 0
-27.34039 -47.82469 0.1218147 0
-27.29039 -47.82469 0.07181472 0
-27.29039 -47.77469 0.07181472 0
-27.24039 -47.87469 0.07181472 0
-27.19039 -47.82469 0.07181472 0
-27.19039 -47.77469 0.07181472 0
-27.14039 -47.82469 0.07181472 0
-27.14039 -47.77469 0.07181472 0
-27.09039 -47.82469 0.07181472 0
-27.04039 -47.82469 0.07181472 0
-26.99039 -47.82469 0.07181472 0
-26.94039 -47.82469 0.07181472 0
-26.94039 -47.82469 0.1218147 0
-26.89039 -47.82469 0.07181472 0
-26.84039 -47.87469 0.07181472 0
-26.69039 -47.87469 0.07181472 0
-26.84039 -47.82469 0.07181472 0
-26.79039 -47.82469 0.07181472 0
-26.74039 -47.82469 0.07181472 0
-26.69039 -47.82469 0.07181472 0
-26.64039 -47.87469 0.07181472 0
-26.54039 -47.87469 0.07181472 0
-26.49039 -47.87469 0.07181472 0
-26.64039 -47.82469 0.07181472 0
-26.59039 -47.82469 0.07181472 0
-26.59039 -47.82469 0.1218147 0
-26.54039 -47.82469 0.07181472 0
-26.49039 -47.82469 0.07181472 0
-26.44039 -47.87469 0.07181472 0
-26.39039 -47.87469 0.07181472 0
-26.29039 -47.87469 0.07181472 0
-26.39039 -47.82469 0.07181472 0
-26.34039 -47.82469 0.07181472 0
-26.29039 -47.82469 0.07181472 0
-26.24039 -47.87469 0.07181472 0
-26.24039 -47.87469 0.1218147 0
-26.19039 -47.87469 0.07181472 0
-26.14039 -47.87469 0.07181472 0
-26.14039 -47.87469 0.1218147 0
-26.09039 -47.87469 0.07181472 0
-26.24039 -47.82469 0.07181472 0
-26.19039 -47.82469 0.07181472 0
-26.14039 -47.82469 0.07181472 0
-26.09039 -47.82469 0.07181472 0
-25.29039 -48.97469 0.1218147 0
-25.29039 -48.87469 0.1218147 0
-25.69039 -48.07469 0.1718147 0
-25.49039 -48.52469 0.1218147 0
-25.34039 -48.77469 0.1218147 0
-25.44039 -48.62469 0.1218147 0
-25.59039 -48.27469 0.1718147 0
-25.54039 -48.42469 0.1218147 0
-25.64039 -48.17469 0.1718147 0
-25.09039 -49.32469 0.1218147 0
-24.99039 -49.57469 0.1218147 0
-25.04039 -49.42469 0.1218147 0
-25.19039 -49.12469 0.1218147 0
-25.14039 -49.22469 0.1218147 0
-25.99039 -47.87469 0.07181472 0
-25.94039 -47.87469 0.07181472 0
-25.89039 -47.87469 0.07181472 0
-25.89039 -47.87469 0.1718147 0
-26.04039 -47.82469 0.07181472 0
-25.99039 -47.82469 0.07181472 0
-25.94039 -47.82469 0.07181472 0
-25.89039 -47.82469 0.07181472 0
-25.84039 -47.87469 0.07181472 0
-25.79039 -47.87469 0.07181472 0
-25.74039 -47.87469 0.07181472 0
-25.69039 -47.87469 0.07181472 0
-25.69039 -47.87469 0.1218147 0
-25.69039 -47.92469 0.1718147 0
-25.84039 -47.82469 0.07181472 0
-25.64039 -47.87469 0.07181472 0
-25.59039 -47.92469 0.07181472 0
-25.59039 -47.87469 0.07181472 0
-25.54039 -47.87469 0.07181472 0
-25.49039 -47.87469 0.07181472 0
-25.64039 -47.82469 0.07181472 0
-25.59039 -47.82469 0.07181472 0
-25.44039 -47.92469 0.07181472 0
-25.44039 -47.87469 0.07181472 0
-25.39039 -47.87469 0.07181472 0
-25.34039 -47.92469 0.07181472 0
-25.34039 -47.87469 0.07181472 0
-25.29039 -47.92469 0.07181472 0
-25.29039 -47.92469 0.1218147 0
-25.29039 -47.87469 0.07181472 0
-25.24039 -47.87469 0.07181472 0
-25.19039 -47.92469 0.07181472 0
-25.19039 -47.87469 0.07181472 0
-25.14039 -47.92469 0.07181472 0
-25.14039 -47.87469 0.07181472 0
-25.09039 -47.87469 0.07181472 0
-25.04039 -47.92469 0.07181472 0
-25.04039 -47.87469 0.07181472 0
-24.99039 -47.92469 0.07181472 0
-24.99039 -47.87469 0.07181472 0
-24.94039 -47.92469 0.07181472 0
-24.89039 -47.92469 0.07181472 0
-24.89039 -47.87469 0.07181472 0
-24.79039 -47.97469 0.07181472 0
