# .PCD v0.7 - Point Cloud Data file format
VERSION 0.7
FIELDS x y z intensity
SIZE 4 4 4 4
TYPE F F F F
COUNT 1 1 1 1
WIDTH 1629
HEIGHT 1
VIEWPOINT 0 0 0 1 0 0 0
POINTS 1629
DATA ascii
135.3596 50.07531 1.721815 0
135.4096 50.07531 1.671815 0
135.4096 50.07531 1.771815 0
135.4096 50.07531 1.821815 0
135.4596 50.07531 1.721815 0
135.5096 50.07531 1.671815 0
135.5096 50.07531 1.771815 0
135.3596 49.97531 1.921815 0
135.4096 50.02531 1.871815 0
135.3596 50.02531 2.021815 0
135.4096 50.07531 1.871815 0
135.4096 50.07531 1.971815 0
135.4096 50.07531 2.021815 0
135.4596 49.97531 1.921815 0
135.5096 50.02531 1.871815 0
135.4596 50.02531 2.021815 0
135.5096 49.97531 2.021815 0
135.4596 50.07531 1.971815 0
135.5096 50.07531 2.021815 0
135.1596 50.07531 2.071815 0
135.1596 50.07531 2.171815 0
135.2596 50.02531 2.221815 0
135.2596 50.07531 2.071815 0
135.2596 50.07531 2.221815 0
135.3096 50.07531 2.171815 0
135.3096 50.07531 2.221815 0
135.1596 50.02531 2.271815 0
135.2096 49.97531 2.271815 0
135.2096 50.07531 2.321815 0
135.1596 50.07531 2.421815 0
135.2096 50.07531 2.421815 0
135.3096 50.07531 2.321815 0
135.2596 50.07531 2.421815 0
135.3096 50.07531 2.371815 0
135.3596 50.02531 2.071815 0
135.4096 50.02531 2.221815 0
135.3596 50.07531 2.171815 0
135.4096 50.07531 2.221815 0
135.5096 50.02531 2.221815 0
135.4596 50.07531 2.071815 0
135.5096 50.07531 2.171815 0
135.3596 49.97531 2.271815 0
135.4096 50.07531 2.321815 0
135.3596 50.07531 2.421815 0
135.4096 50.07531 2.421815 0
135.4596 49.97531 2.271815 0
135.4596 50.02531 2.421815 0
135.5096 50.07531 2.371815 0
135.0096 49.87531 2.521815 0
135.1096 49.87531 2.521815 0
135.0096 49.82531 2.871815 0
135.0096 49.92531 2.871815 0
135.1096 49.82531 2.871815 0
135.0096 49.97531 2.471815 0
135.0096 50.02531 2.621815 0
135.0596 50.02531 2.621815 0
135.1096 50.02531 2.621815 0
135.0596 50.07531 2.521815 0
135.1096 50.07531 2.571815 0
135.1096 50.07531 2.621815 0
135.0096 50.07531 2.671815 0
135.0596 50.02531 2.721815 0
135.0596 50.02531 2.771815 0
135.0596 50.07531 2.671815 0
135.1096 50.07531 2.671815 0
135.1096 50.07531 2.721815 0
135.1096 50.07531 2.821815 0
135.0096 49.97531 2.971815 0
135.0096 50.07531 2.921815 0
135.0096 50.07531 2.971815 0
135.0596 50.02531 3.021815 0
135.1096 49.97531 2.971815 0
135.0596 50.07531 2.921815 0
135.1096 50.12531 2.971815 0
135.0596 50.02531 3.221815 0
135.1096 50.07531 3.071815 0
135.0596 50.07531 3.171815 0
135.0596 50.07531 3.221815 0
135.1096 50.07531 3.221815 0
135.2096 49.87531 2.521815 0
135.3096 49.87531 2.521815 0
135.4096 49.87531 2.521815 0
135.4096 49.92531 2.471815 0
135.5096 49.87531 2.521815 0
135.2096 49.82531 2.871815 0
135.1596 49.92531 2.871815 0
135.3096 49.82531 2.871815 0
135.3096 49.92531 2.871815 0
135.1596 49.92531 3.221815 0
135.2596 49.87531 3.221815 0
135.4096 49.82531 2.871815 0
135.4096 49.92531 2.871815 0
135.5096 49.82531 2.871815 0
135.1596 49.97531 2.471815 0
135.1596 50.02531 2.621815 0
135.2096 49.97531 2.621815 0
135.2096 50.07531 2.471815 0
135.1596 50.07531 2.571815 0
135.1596 50.07531 2.621815 0
135.2596 49.97531 2.471815 0
135.2596 50.02531 2.621815 0
135.2596 50.07531 2.471815 0
135.3096 50.07531 2.471815 0
135.3096 50.07531 2.571815 0
135.1596 50.02531 2.721815 0
135.1596 50.02531 2.771815 0
135.2096 50.07531 2.671815 0
135.2596 50.02531 2.721815 0
135.3096 50.02531 2.671815 0
135.3096 49.97531 2.821815 0
135.2596 50.07531 2.671815 0
135.3596 50.02531 2.621815 0
135.4096 50.02531 2.621815 0
135.4096 50.07531 2.471815 0
135.4096 50.07531 2.571815 0
135.4596 50.02531 2.621815 0
135.5096 50.02531 2.621815 0
135.4596 50.07531 2.471815 0
135.5096 50.07531 2.471815 0
135.3596 49.97531 2.721815 0
135.3596 50.02531 2.671815 0
135.4096 50.07531 2.671815 0
135.4596 50.02531 2.721815 0
135.5096 49.97531 2.721815 0
135.5096 50.02531 2.671815 0
135.4596 49.97531 2.821815 0
135.1596 50.02531 2.921815 0
135.1596 50.02531 2.971815 0
135.2096 50.02531 2.971815 0
135.2096 50.07531 2.921815 0
135.3096 50.02531 2.971815 0
135.2596 50.07531 2.921815 0
135.3096 50.07531 2.871815 0
135.3096 50.07531 2.921815 0
135.3096 50.07531 2.971815 0
135.2096 50.02531 3.221815 0
135.2596 50.07531 3.121815 0
135.3096 50.07531 3.221815 0
135.3596 49.97531 3.021815 0
135.4096 50.02531 2.971815 0
135.3596 50.07531 2.971815 0
135.3596 50.07531 3.021815 0
135.4096 50.07531 2.971815 0
135.4596 49.97531 3.021815 0
135.5096 50.02531 2.971815 0
135.4596 50.07531 2.871815 0
135.4596 50.07531 2.971815 0
135.3596 50.02531 3.221815 0
135.4096 50.07531 3.121815 0
135.5096 50.02531 3.221815 0
135.0096 49.87531 3.371815 0
135.1096 49.77531 3.271815 0
135.0596 49.87531 3.371815 0
135.0596 49.87531 3.471815 0
135.1096 50.12531 3.271815 0
135.0596 50.02531 3.771815 0
135.0096 50.07531 3.921815 0
135.1096 50.02531 3.921815 0
135.0596 50.07531 3.921815 0
135.1096 50.12531 3.921815 0
135.2096 49.77531 3.271815 0
135.2096 49.87531 3.421815 0
135.3096 49.82531 3.271815 0
135.2596 49.87531 3.421815 0
135.1596 49.77531 3.521815 0
135.2096 49.77531 3.471815 0
135.4096 49.87531 3.421815 0
135.4596 49.87531 3.271815 0
135.3596 49.77531 3.521815 0
135.4096 49.87531 3.571815 0
135.5096 49.77531 3.521815 0
135.4596 49.87531 3.471815 0
135.1596 50.07531 3.271815 0
135.3096 50.12531 3.271815 0
135.3596 50.07531 3.271815 0
135.5096 50.07531 3.271815 0
135.2596 49.97531 3.821815 0
135.2596 50.02531 3.821815 0
135.3096 50.07531 3.921815 0
135.2596 50.12531 3.971815 0
135.3096 50.12531 3.971815 0
135.4596 50.02531 3.821815 0
135.4596 50.12531 3.971815 0
135.0096 50.27531 4.171815 0
135.0596 50.32531 4.221815 0
135.2596 50.32531 4.271815 0
135.4096 50.27531 4.271815 0
135.2596 50.42531 4.421815 0
135.5096 50.37531 4.271815 0
135.1596 50.47531 4.471815 0
135.1596 50.62531 4.721815 0
135.3596 50.47531 4.471815 0
135.4096 50.67531 4.721815 0
135.0596 50.72531 4.871815 0
135.1096 50.82531 4.971815 0
135.3596 50.87531 5.021815 0
135.4596 50.77531 4.971815 0
135.7096 46.47531 0.1218147 0
135.8096 46.37531 0.1218147 0
138.1096 49.52531 0.07181472 0
135.6096 49.87531 0.1718147 0
135.6596 49.92531 0.07181472 0
135.7096 49.87531 0.1718147 0
135.7596 49.92531 0.07181472 0
135.8096 49.87531 0.1718147 0
135.9096 49.92531 0.07181472 0
135.9096 49.87531 0.1718147 0
135.6096 49.87531 0.4718147 0
135.6596 49.92531 0.4718147 0
135.7096 49.87531 0.4718147 0
135.6096 49.87531 0.8218147 0
135.6596 49.92531 0.8218147 0
135.7096 49.87531 0.8218147 0
135.7596 49.92531 0.4718147 0
135.8096 49.87531 0.4718147 0
135.9096 49.82531 0.4718147 0
135.9096 49.92531 0.4718147 0
135.7596 49.92531 0.8218147 0
135.8096 49.87531 0.8218147 0
135.9096 49.87531 0.8218147 0
135.9096 49.92531 0.8218147 0
135.5596 49.97531 0.1218147 0
135.5596 50.02531 0.1218147 0
135.6096 50.02531 0.07181472 0
135.6096 50.02531 0.1218147 0
135.6096 50.07531 0.07181472 0
135.6096 50.07531 0.1218147 0
135.6596 49.97531 0.1218147 0
135.6596 50.02531 0.07181472 0
135.6596 50.02531 0.1218147 0
135.7096 50.02531 0.1218147 0
135.5596 50.02531 0.4218147 0
135.6096 50.02531 0.4218147 0
135.5596 50.07531 0.4218147 0
135.6596 50.02531 0.4218147 0
135.7096 50.02531 0.4218147 0
135.7596 50.02531 0.07181472 0
135.7596 50.02531 0.1218147 0
135.8096 49.97531 0.1218147 0
135.8096 50.02531 0.07181472 0
135.8596 50.02531 0.1218147 0
135.9096 49.97531 0.1218147 0
135.9096 50.02531 0.07181472 0
135.7596 50.02531 0.4218147 0
135.8096 50.07531 0.4218147 0
135.8596 50.02531 0.4218147 0
135.9096 50.02531 0.4218147 0
135.5596 49.97531 0.4718147 0
135.6096 49.97531 0.4718147 0
135.6096 50.07531 0.4718147 0
135.6096 50.07531 0.5218147 0
135.5596 50.07531 0.5718147 0
135.6096 50.07531 0.5718147 0
135.6596 50.02531 0.4718147 0
135.7096 49.97531 0.4718147 0
135.7096 50.07531 0.5218147 0
135.7096 50.07531 0.5718147 0
135.7096 50.07531 0.6218147 0
135.5596 50.02531 0.6718147 0
135.6096 50.02531 0.7218148 0
135.5596 49.97531 0.8218147 0
135.5596 50.02531 0.7718147 0
135.6096 50.02531 0.8218147 0
135.6096 50.07531 0.8218147 0
135.7096 50.02531 0.7218148 0
135.6596 49.97531 0.8218147 0
135.6596 50.02531 0.7718147 0
135.7096 50.02531 0.8218147 0
135.7596 50.02531 0.4718147 0
135.8096 49.97531 0.4718147 0
135.7596 50.07531 0.5218147 0
135.7596 50.07531 0.5718147 0
135.9096 49.97531 0.4718147 0
135.9096 50.02531 0.4718147 0
135.9096 50.02531 0.5218147 0
135.8596 50.02531 0.5718147 0
135.9096 50.07531 0.5718147 0
135.8096 50.02531 0.7218148 0
135.7596 50.02531 0.7718147 0
135.8096 49.97531 0.8218147 0
135.8096 50.02531 0.7718147 0
135.8096 50.02531 0.8218147 0
135.7596 50.07531 0.8218147 0
135.9096 50.02531 0.7218148 0
135.8596 50.02531 0.7718147 0
135.9096 49.97531 0.8218147 0
135.9096 50.02531 0.7718147 0
136.0096 49.82531 0.1718147 0
136.0096 49.87531 0.07181472 0
136.1096 49.82531 0.1218147 0
136.2096 49.82531 0.1218147 0
136.1596 49.92531 0.07181472 0
136.3096 49.82531 0.1218147 0
136.2596 49.92531 0.07181472 0
136.1596 49.87531 0.4218147 0
136.2596 49.87531 0.4218147 0
136.0096 49.82531 0.4718147 0
136.1096 49.82531 0.4718147 0
136.0596 49.92531 0.4718147 0
136.0096 49.87531 0.8218147 0
136.0096 49.92531 0.8218147 0
136.1096 49.87531 0.8218147 0
136.2096 49.82531 0.4718147 0
136.3096 49.82531 0.4718147 0
136.2096 49.82531 0.8218147 0
136.1596 49.87531 0.8218147 0
136.3096 49.82531 0.8218147 0
136.2596 49.92531 0.8218147 0
135.9596 50.02531 0.07181472 0
135.9596 50.02531 0.1218147 0
136.0096 49.97531 0.1218147 0
136.0096 50.02531 0.07181472 0
136.0596 50.02531 0.07181472 0
136.0596 50.02531 0.1218147 0
136.1096 50.02531 0.07181472 0
135.9596 50.02531 0.4218147 0
136.0096 50.02531 0.4218147 0
136.0596 50.02531 0.4218147 0
136.1096 50.02531 0.4218147 0
136.1596 49.97531 0.1218147 0
136.1596 50.02531 0.07181472 0
136.2096 50.02531 0.07181472 0
136.2096 50.02531 0.1218147 0
136.2596 49.97531 0.1218147 0
136.3096 50.02531 0.07181472 0
136.1596 50.02531 0.4218147 0
136.2096 50.02531 0.4218147 0
136.2596 50.02531 0.4218147 0
136.3096 50.02531 0.4218147 0
135.9596 50.02531 0.5218147 0
136.0096 49.97531 0.4718147 0
136.0096 50.02531 0.5718147 0
135.9596 50.07531 0.5218147 0
135.9596 50.07531 0.5718147 0
136.0596 50.02531 0.4718147 0
136.1096 50.02531 0.5218147 0
136.0596 50.02531 0.6218147 0
136.1096 50.07531 0.5718147 0
135.9596 50.02531 0.6718147 0
136.0096 50.02531 0.7218148 0
135.9596 50.02531 0.7718147 0
135.9596 50.02531 0.8218147 0
136.0096 49.97531 0.8218147 0
136.1096 50.02531 0.7218148 0
136.0596 49.97531 0.8218147 0
136.0596 50.02531 0.7718147 0
136.1596 49.97531 0.4718147 0
136.1596 50.02531 0.5218147 0
136.2096 50.02531 0.4718147 0
136.1596 50.02531 0.5718147 0
136.2096 50.02531 0.5718147 0
136.2596 49.97531 0.4718147 0
136.3096 50.02531 0.4718147 0
136.3096 50.02531 0.5218147 0
136.3096 50.02531 0.5718147 0
136.2096 50.02531 0.7218148 0
136.1596 49.97531 0.8218147 0
136.2096 50.02531 0.7718147 0
136.2596 49.97531 0.7718147 0
136.3096 50.02531 0.7718147 0
135.6096 49.87531 1.171815 0
135.6596 49.92531 1.221815 0
135.7096 49.87531 1.171815 0
135.7596 49.92531 1.221815 0
135.8096 49.87531 1.171815 0
135.9096 49.82531 1.171815 0
135.9096 49.92531 1.221815 0
135.6096 49.87531 1.471815 0
135.7096 49.87531 1.471815 0
135.6596 49.92531 1.621815 0
135.8096 49.87531 1.521815 0
135.7596 49.92531 1.621815 0
135.9096 49.87531 1.521815 0
135.9096 49.92531 1.621815 0
135.5596 50.02531 0.9218147 0
135.6096 50.02531 0.8718147 0
135.5596 50.07531 1.021815 0
135.7096 50.07531 1.021815 0
135.5596 50.02531 1.071815 0
135.5596 50.02531 1.171815 0
135.6096 50.02531 1.171815 0
135.5596 50.07531 1.121815 0
135.6096 50.07531 1.071815 0
135.6096 50.07531 1.121815 0
135.5596 50.07531 1.171815 0
135.6096 50.07531 1.221815 0
135.6596 50.02531 1.071815 0
135.6596 49.97531 1.221815 0
135.7096 50.02531 1.171815 0
135.6596 50.07531 1.121815 0
135.7096 50.07531 1.121815 0
135.7096 50.07531 1.221815 0
135.7596 50.02531 0.8718147 0
135.7596 50.07531 0.9218147 0
135.8096 50.07531 1.021815 0
135.9096 50.02531 0.8718147 0
135.9096 50.02531 1.021815 0
135.7596 50.02531 1.071815 0
135.8096 50.02531 1.121815 0
135.8096 49.97531 1.171815 0
135.8096 49.97531 1.221815 0
135.7596 50.07531 1.171815 0
135.7596 50.07531 1.221815 0
135.8596 50.02531 1.071815 0
135.8596 50.02531 1.121815 0
135.9096 50.02531 1.071815 0
135.9096 49.97531 1.221815 0
135.9096 50.02531 1.171815 0
135.9096 50.07531 1.121815 0
135.5596 50.02531 1.321815 0
135.6096 50.02531 1.271815 0
135.5596 50.02531 1.421815 0
135.5596 50.07531 1.371815 0
135.6096 50.07531 1.371815 0
135.6596 50.02531 1.421815 0
135.7096 50.07531 1.371815 0
135.6096 49.97531 1.521815 0
135.5596 49.97531 1.571815 0
135.5596 50.07531 1.471815 0
135.6096 50.07531 1.521815 0
135.7096 50.02531 1.521815 0
135.6596 49.97531 1.571815 0
135.6596 50.07531 1.521815 0
135.7096 50.07531 1.521815 0
135.7596 50.02531 1.271815 0
135.7596 50.02531 1.371815 0
135.7596 50.02531 1.421815 0
135.8096 50.02531 1.371815 0
135.8096 50.07531 1.271815 0
135.9096 50.02531 1.271815 0
135.8596 50.02531 1.421815 0
135.9096 50.02531 1.371815 0
135.8096 50.02531 1.521815 0
135.8096 49.97531 1.571815 0
135.7596 50.07531 1.521815 0
135.9096 49.97531 1.521815 0
135.9096 50.02531 1.521815 0
135.9096 49.97531 1.571815 0
136.0096 49.87531 1.171815 0
136.0096 49.92531 1.221815 0
136.1096 49.82531 1.171815 0
136.2096 49.82531 1.171815 0
136.1596 49.92531 1.221815 0
136.3096 49.82531 1.171815 0
136.2596 49.92531 1.221815 0
136.0096 49.87531 1.521815 0
136.1096 49.87531 1.521815 0
136.0596 49.92531 1.621815 0
136.2096 49.82531 1.521815 0
136.1596 49.92531 1.621815 0
136.2596 49.92531 1.621815 0
135.9596 50.02531 0.9218147 0
135.9596 50.07531 1.021815 0
136.0596 50.02531 0.8718147 0
136.1096 50.02531 0.9718148 0
135.9596 50.02531 1.071815 0
136.0096 50.02531 1.071815 0
136.0096 49.97531 1.221815 0
135.9596 50.07531 1.171815 0
136.0596 50.02531 1.071815 0
136.1096 50.02531 1.071815 0
136.0596 49.97531 1.171815 0
136.0596 50.02531 1.171815 0
136.0596 50.02531 1.221815 0
136.1096 50.07531 1.121815 0
136.2096 50.02531 0.8718147 0
136.1596 50.02531 1.021815 0
136.1596 50.07531 0.8718147 0
136.2596 49.97531 0.8718147 0
136.3096 50.02531 0.8718147 0
136.3096 50.02531 0.9718148 0
136.1596 50.02531 1.121815 0
136.2096 50.02531 1.071815 0
136.1596 49.97531 1.171815 0
136.1596 49.97531 1.221815 0
136.2096 50.02531 1.171815 0
136.2096 50.07531 1.171815 0
136.2596 49.97531 1.121815 0
136.2596 49.97531 1.221815 0
136.3096 50.02531 1.171815 0
135.9596 50.02531 1.321815 0
136.0096 50.02531 1.271815 0
135.9596 50.02531 1.371815 0
135.9596 50.02531 1.421815 0
136.0096 50.02531 1.371815 0
135.9596 50.07531 1.271815 0
136.0596 50.02531 1.271815 0
136.0596 50.02531 1.421815 0
136.1096 50.02531 1.371815 0
136.0096 49.97531 1.571815 0
135.9596 50.07531 1.521815 0
136.0596 49.97531 1.521815 0
136.0596 50.02531 1.521815 0
136.1596 50.02531 1.271815 0
136.2096 50.02531 1.271815 0
136.1596 50.02531 1.421815 0
136.2096 50.02531 1.421815 0
136.1596 50.07531 1.271815 0
136.3096 50.02531 1.271815 0
136.2596 50.02531 1.421815 0
136.3096 50.02531 1.421815 0
136.1596 49.97531 1.521815 0
136.1596 50.02531 1.521815 0
136.2096 50.02531 1.521815 0
136.1596 49.97531 1.571815 0
136.1596 50.07531 1.521815 0
136.2596 49.97531 1.521815 0
136.3096 50.02531 1.521815 0
136.2596 49.97531 1.571815 0
136.4096 49.82531 0.1218147 0
136.4096 49.87531 0.07181472 0
136.5096 49.87531 0.07181472 0
136.4096 49.92531 0.4218147 0
136.5096 49.92531 0.4218147 0
136.5596 49.82531 0.1218147 0
136.6596 49.82531 0.1218147 0
136.6596 49.87531 0.07181472 0
136.6596 49.87531 0.4218147 0
136.4096 49.82531 0.4718147 0
136.4096 49.82531 0.8218147 0
136.4096 49.92531 0.8218147 0
136.5096 49.92531 0.8218147 0
136.5596 49.82531 0.4718147 0
136.6596 49.82531 0.4718147 0
136.5596 49.82531 0.8218147 0
136.6596 49.82531 0.8218147 0
136.6596 49.87531 0.8218147 0
136.3596 49.97531 0.1218147 0
136.3596 50.02531 0.07181472 0
136.3596 50.02531 0.1218147 0
136.4096 49.97531 0.1218147 0
136.4596 49.97531 0.07181472 0
136.4596 49.97531 0.1218147 0
136.4596 50.02531 0.07181472 0
136.4596 50.02531 0.1218147 0
136.5096 49.97531 0.1218147 0
136.5096 50.02531 0.07181472 0
136.3596 49.97531 0.4218147 0
136.3596 50.02531 0.4218147 0
136.4596 49.97531 0.4218147 0
136.4596 50.02531 0.4218147 0
136.5596 49.97531 0.1218147 0
136.5596 50.02531 0.07181472 0
136.6096 49.97531 0.07181472 0
136.6096 50.02531 0.07181472 0
136.6596 49.97531 0.07181472 0
136.6596 49.97531 0.1218147 0
136.7096 50.02531 0.07181472 0
136.5596 49.97531 0.4218147 0
136.5596 50.02531 0.4218147 0
136.6096 50.02531 0.4218147 0
136.6596 49.97531 0.4218147 0
136.6596 50.02531 0.4218147 0
136.3596 49.97531 0.4718147 0
136.3596 50.02531 0.5218147 0
136.4096 49.97531 0.4718147 0
136.4096 50.02531 0.5718147 0
136.4096 50.02531 0.6218147 0
136.4596 50.02531 0.4718147 0
136.5096 49.97531 0.4718147 0
136.5096 50.02531 0.5218147 0
136.4596 50.02531 0.5718147 0
136.3596 50.02531 0.7218148 0
136.4096 50.02531 0.6718147 0
136.3596 49.97531 0.7718147 0
136.3596 50.02531 0.7718147 0
136.4596 50.02531 0.7218148 0
136.4596 49.97531 0.7718147 0
136.4596 50.02531 0.8218147 0
136.6096 50.02531 0.5218147 0
136.5596 50.02531 0.5718147 0
136.6096 50.02531 0.5718147 0
136.6596 49.97531 0.4718147 0
136.6596 50.02531 0.4718147 0
136.7096 50.02531 0.5218147 0
136.7096 50.02531 0.5718147 0
136.5596 49.97531 0.7718147 0
136.5596 50.02531 0.7718147 0
136.6096 50.02531 0.8218147 0
136.6596 49.97531 0.7718147 0
136.7596 49.82531 0.1218147 0
136.7596 49.87531 0.07181472 0
136.7596 49.92531 0.1218147 0
136.8596 49.82531 0.1218147 0
136.8596 49.87531 0.07181472 0
136.9096 49.92531 0.1218147 0
136.7596 49.87531 0.4218147 0
136.8596 49.87531 0.4218147 0
136.9596 49.82531 0.1218147 0
137.0096 49.87531 0.07181472 0
137.0096 49.92531 0.07181472 0
137.0096 49.92531 0.1218147 0
137.1096 49.82531 0.1218147 0
137.1096 49.87531 0.07181472 0
137.0096 49.87531 0.4218147 0
137.1096 49.87531 0.4218147 0
137.1096 49.92531 0.4218147 0
136.7596 49.82531 0.4718147 0
136.8596 49.82531 0.4718147 0
136.7596 49.82531 0.8218147 0
136.7596 49.87531 0.8218147 0
136.8596 49.82531 0.8218147 0
136.9096 49.87531 0.8218147 0
136.9096 49.92531 0.7718147 0
136.9596 49.82531 0.4718147 0
137.0096 49.92531 0.4718147 0
137.1096 49.82531 0.4718147 0
136.9596 49.82531 0.8218147 0
137.0096 49.87531 0.8218147 0
137.1096 49.82531 0.8218147 0
137.1096 49.87531 0.8218147 0
136.7596 49.97531 0.07181472 0
136.7596 49.97531 0.1218147 0
136.7596 50.02531 0.07181472 0
136.8096 50.02531 0.07181472 0
136.8596 49.97531 0.1218147 0
136.9096 49.97531 0.07181472 0
136.7596 49.97531 0.4218147 0
136.8096 49.97531 0.4218147 0
136.8596 50.02531 0.4218147 0
136.9096 49.97531 0.4218147 0
136.9096 50.02531 0.4218147 0
136.9596 49.97531 0.07181472 0
136.9596 49.97531 0.1218147 0
137.0096 49.97531 0.07181472 0
137.0596 49.97531 0.1218147 0
137.1096 49.97531 0.07181472 0
136.9596 49.97531 0.4218147 0
137.0096 49.97531 0.4218147 0
137.0596 49.97531 0.4218147 0
136.7596 49.97531 0.4718147 0
136.8096 49.97531 0.4718147 0
136.8096 50.02531 0.5218147 0
136.7596 50.02531 0.5718147 0
136.8096 50.02531 0.6218147 0
136.8596 50.02531 0.5218147 0
136.9096 49.97531 0.4718147 0
136.9096 50.02531 0.5218147 0
136.8596 50.02531 0.5718147 0
136.7596 49.97531 0.7718147 0
136.7596 49.97531 0.8218147 0
136.8096 49.97531 0.7718147 0
136.8596 49.97531 0.7718147 0
136.9096 49.97531 0.7718147 0
136.9096 49.97531 0.8218147 0
136.9596 49.97531 0.4718147 0
137.0096 50.02531 0.5218147 0
136.9596 50.02531 0.5718147 0
137.1096 49.97531 0.4718147 0
137.1096 50.02531 0.5218147 0
137.0596 49.97531 0.5718147 0
137.1096 49.97531 0.5718147 0
137.1096 50.02531 0.5718147 0
136.9596 49.97531 0.7718147 0
137.0096 49.97531 0.7718147 0
137.0596 49.97531 0.7718147 0
137.0596 49.97531 0.8218147 0
137.1096 49.97531 0.7718147 0
136.4096 49.92531 1.221815 0
136.4596 49.82531 1.171815 0
136.5096 49.92531 1.221815 0
136.5596 49.82531 1.171815 0
136.6596 49.82531 1.171815 0
136.6596 49.87531 1.221815 0
136.6596 49.92531 1.221815 0
136.3596 49.82531 1.521815 0
136.4096 49.92531 1.621815 0
136.4596 49.82531 1.521815 0
136.5096 49.92531 1.621815 0
136.5596 49.82531 1.521815 0
136.6596 49.82531 1.521815 0
136.6596 49.92531 1.571815 0
136.4096 49.97531 0.8718147 0
136.3596 50.02531 1.021815 0
136.4596 50.02531 0.8718147 0
136.5096 49.97531 0.8718147 0
136.5096 50.02531 0.9718148 0
136.3596 49.97531 1.121815 0
136.3596 50.02531 1.071815 0
136.4096 50.02531 1.071815 0
136.4096 49.97531 1.221815 0
136.4096 50.02531 1.171815 0
136.3596 50.07531 1.121815 0
136.4596 49.97531 1.121815 0
136.4596 50.02531 1.071815 0
136.4596 50.02531 1.121815 0
136.4596 50.02531 1.171815 0
136.5096 49.97531 1.221815 0
136.6596 49.97531 0.8718147 0
136.6596 50.02531 0.8718147 0
136.7096 50.02531 0.9718148 0
136.5596 49.97531 1.121815 0
136.5596 50.02531 1.071815 0
136.6096 50.02531 1.071815 0
136.6096 50.02531 1.171815 0
136.5596 50.07531 1.121815 0
136.6596 49.97531 1.121815 0
136.6596 50.02531 1.071815 0
136.6596 50.02531 1.171815 0
136.3596 50.02531 1.271815 0
136.4096 50.02531 1.271815 0
136.3596 50.02531 1.371815 0
136.3596 50.02531 1.421815 0
136.4596 50.02531 1.271815 0
136.5096 50.02531 1.271815 0
136.4596 50.02531 1.421815 0
136.5096 50.02531 1.421815 0
136.3596 49.97531 1.521815 0
136.3596 50.02531 1.521815 0
136.4096 49.97531 1.571815 0
136.4096 50.02531 1.571815 0
136.4596 49.97531 1.471815 0
136.4596 50.02531 1.571815 0
136.5096 49.97531 1.571815 0
136.5596 50.02531 1.421815 0
136.6596 49.97531 1.321815 0
136.6596 50.02531 1.321815 0
136.7096 50.02531 1.271815 0
136.6596 49.97531 1.421815 0
136.7096 50.02531 1.421815 0
136.5596 49.97531 1.471815 0
136.6096 50.02531 1.571815 0
136.6596 49.97531 1.471815 0
136.6596 49.97531 1.571815 0
136.7596 49.92531 0.8718147 0
136.9096 49.92531 0.8718147 0
136.7596 49.82531 1.171815 0
136.8096 49.92531 1.121815 0
136.7596 49.92531 1.221815 0
136.8596 49.82531 1.171815 0
136.9096 49.87531 1.221815 0
136.9096 49.92531 1.221815 0
137.0096 49.92531 0.8718147 0
136.9596 49.82531 1.171815 0
137.0096 49.92531 1.121815 0
137.0096 49.92531 1.221815 0
137.1096 49.82531 1.171815 0
137.1096 49.87531 1.221815 0
136.7596 49.82531 1.521815 0
136.7596 49.87531 1.571815 0
136.8596 49.82531 1.521815 0
136.9096 49.87531 1.571815 0
136.9096 49.92531 1.621815 0
137.0096 49.82531 1.521815 0
137.0096 49.87531 1.571815 0
137.1096 49.82531 1.521815 0
137.1096 49.92531 1.471815 0
137.0596 49.92531 1.621815 0
137.1096 49.87531 1.571815 0
136.8096 49.97531 0.8718147 0
136.8596 50.02531 0.8718147 0
136.9096 50.02531 0.9718148 0
136.7596 50.02531 1.071815 0
136.7596 50.02531 1.121815 0
136.8096 50.02531 1.071815 0
136.7596 49.97531 1.221815 0
136.7596 50.02531 1.171815 0
136.8596 49.97531 1.071815 0
136.9096 49.97531 1.121815 0
136.9096 50.02531 1.071815 0
136.8596 50.02531 1.221815 0
136.9096 50.02531 1.171815 0
136.9596 49.97531 0.9218147 0
137.0596 50.02531 0.8718147 0
137.1096 49.97531 0.9218147 0
137.1096 50.02531 0.9718148 0
136.9596 49.97531 1.071815 0
136.9596 50.02531 1.121815 0
137.0096 49.97531 1.071815 0
137.0096 50.02531 1.071815 0
137.0596 49.97531 1.071815 0
137.1096 49.97531 1.071815 0
137.1096 49.97531 1.121815 0
137.0596 49.97531 1.171815 0
137.0596 49.97531 1.221815 0
137.1096 50.02531 1.221815 0
136.7596 50.02531 1.271815 0
136.8096 49.97531 1.321815 0
136.7596 49.97531 1.421815 0
136.8096 50.02531 1.421815 0
136.8596 50.02531 1.321815 0
136.8596 49.97531 1.421815 0
136.9096 50.02531 1.421815 0
136.8096 49.97531 1.471815 0
136.7596 49.97531 1.621815 0
136.7596 50.02531 1.571815 0
136.8096 50.02531 1.571815 0
136.9096 49.97531 1.471815 0
136.8596 50.02531 1.571815 0
136.9096 50.02531 1.571815 0
136.9596 49.97531 1.321815 0
136.9596 50.02531 1.271815 0
136.9596 49.97531 1.421815 0
137.0096 49.97531 1.421815 0
137.0596 50.02531 1.321815 0
137.1096 49.97531 1.321815 0
137.0596 49.97531 1.421815 0
137.1096 49.97531 1.421815 0
137.0096 49.97531 1.471815 0
137.0096 50.02531 1.571815 0
137.1096 49.97531 1.471815 0
137.0596 50.02531 1.571815 0
135.6096 49.87531 1.821815 0
135.7096 49.87531 1.821815 0
135.6596 49.92531 2.021815 0
135.8096 49.87531 1.821815 0
135.9096 49.87531 1.821815 0
135.8096 49.92531 2.021815 0
135.9096 49.92531 2.021815 0
135.6096 49.87531 2.171815 0
135.7096 49.87531 2.171815 0
135.5596 49.92531 2.421815 0
135.6596 49.92531 2.421815 0
135.8096 49.82531 2.171815 0
135.9096 49.87531 2.171815 0
135.8096 49.92531 2.421815 0
135.9096 49.92531 2.421815 0
135.6096 50.02531 1.671815 0
135.5596 50.07531 1.721815 0
135.6096 50.07531 1.671815 0
135.6096 50.07531 1.721815 0
135.6096 50.07531 1.821815 0
135.6596 50.02531 1.721815 0
135.7096 50.02531 1.821815 0
135.7096 50.07531 1.671815 0
135.7096 50.07531 1.721815 0
135.5596 49.97531 1.921815 0
135.6096 50.02531 1.871815 0
135.5596 50.02531 1.971815 0
135.6096 50.02531 2.021815 0
135.5596 50.07531 1.871815 0
135.5596 50.07531 1.921815 0
135.6096 50.07531 1.971815 0
135.6096 50.07531 2.021815 0
135.6596 49.97531 1.921815 0
135.7096 50.02531 1.871815 0
135.7096 50.02531 2.021815 0
135.6596 50.07531 1.871815 0
135.7096 50.07531 2.021815 0
135.7596 50.02531 1.671815 0
135.7596 50.02531 1.721815 0
135.7596 50.02531 1.821815 0
135.8096 50.07531 1.671815 0
135.8096 50.07531 1.721815 0
135.7596 50.07531 1.771815 0
135.8596 50.02531 1.671815 0
135.8596 50.02531 1.721815 0
135.9096 50.02531 1.671815 0
135.9096 50.02531 1.721815 0
135.9096 50.07531 1.671815 0
135.8096 49.97531 1.871815 0
135.8096 49.97531 1.921815 0
135.8096 50.02531 1.871815 0
135.8096 50.02531 2.021815 0
135.7596 50.07531 1.921815 0
135.7596 50.07531 2.021815 0
135.9096 49.97531 1.871815 0
135.9096 49.97531 1.921815 0
135.9096 50.02531 1.871815 0
135.9096 50.02531 2.021815 0
135.6096 50.02531 2.221815 0
135.5596 50.07531 2.071815 0
135.6096 50.07531 2.071815 0
135.5596 50.07531 2.221815 0
135.6596 50.02531 2.071815 0
135.7096 50.02531 2.221815 0
135.6596 50.07531 2.221815 0
135.7096 50.07531 2.221815 0
135.5596 49.97531 2.271815 0
135.5596 50.02531 2.421815 0
135.6096 50.02531 2.421815 0
135.6096 50.07531 2.271815 0
135.5596 50.07531 2.371815 0
135.6096 50.07531 2.371815 0
135.7096 50.02531 2.271815 0
135.6596 50.02531 2.421815 0
135.7096 50.07531 2.371815 0
135.7096 50.07531 2.421815 0
135.7596 50.02531 2.071815 0
135.8096 50.02531 2.221815 0
135.8096 50.07531 2.071815 0
135.8596 50.02531 2.071815 0
135.9096 50.02531 2.071815 0
135.8596 50.02531 2.221815 0
135.9096 50.07531 2.221815 0
135.7596 50.02531 2.271815 0
135.8096 49.97531 2.271815 0
135.7596 50.02531 2.421815 0
135.7596 50.07531 2.371815 0
135.8096 50.07531 2.371815 0
135.9096 49.97531 2.271815 0
135.9096 50.02531 2.271815 0
135.8596 50.02531 2.421815 0
135.9096 50.07531 2.371815 0
136.0096 49.87531 1.821815 0
136.1096 49.82531 1.821815 0
136.0596 49.92531 2.021815 0
136.2096 49.87531 1.871815 0
136.1596 49.92531 2.021815 0
136.2596 49.92531 2.021815 0
136.0096 49.87531 2.171815 0
136.1096 49.87531 2.171815 0
136.0596 49.92531 2.421815 0
136.2096 49.82531 2.171815 0
136.1596 49.92531 2.421815 0
136.3096 49.92531 2.371815 0
135.9596 50.02531 1.721815 0
136.0096 50.02531 1.721815 0
135.9596 50.07531 1.671815 0
135.9596 50.07531 1.771815 0
135.9596 50.07531 1.821815 0
136.0596 50.02531 1.671815 0
136.0596 50.02531 1.721815 0
136.1096 50.02531 1.671815 0
136.1096 50.02531 1.721815 0
136.1096 50.07531 1.671815 0
136.0096 50.02531 1.921815 0
135.9596 50.02531 2.021815 0
136.0096 50.07531 2.021815 0
136.0596 49.97531 1.871815 0
136.0596 49.97531 1.921815 0
136.0596 50.02531 1.871815 0
136.1596 50.02531 1.671815 0
136.2096 50.02531 1.721815 0
136.2096 50.07531 1.821815 0
136.2596 50.02531 1.721815 0
136.3096 50.02531 1.721815 0
136.3096 50.07531 1.671815 0
136.1596 49.97531 1.871815 0
136.1596 49.97531 1.921815 0
136.1596 50.02531 1.871815 0
136.2096 50.02531 1.921815 0
136.2096 50.07531 2.021815 0
136.2596 49.97531 1.871815 0
136.3096 50.02531 1.871815 0
136.2596 49.97531 1.971815 0
135.9596 50.02531 2.071815 0
136.0096 50.02531 2.071815 0
135.9596 50.02531 2.221815 0
135.9596 50.07531 2.121815 0
136.0596 50.02531 2.071815 0
136.1096 50.02531 2.071815 0
136.0596 50.02531 2.221815 0
136.1096 50.07531 2.221815 0
135.9596 50.02531 2.271815 0
135.9596 50.02531 2.421815 0
136.0096 50.02531 2.371815 0
135.9596 50.07531 2.421815 0
136.0596 49.97531 2.321815 0
136.0596 50.02531 2.271815 0
136.1096 50.02531 2.321815 0
136.0596 50.02531 2.421815 0
136.1096 50.02531 2.421815 0
136.1596 50.02531 2.071815 0
136.2096 50.02531 2.071815 0
136.1596 49.97531 2.221815 0
136.1596 50.07531 2.121815 0
136.2596 50.02531 2.071815 0
136.3096 50.02531 2.121815 0
136.2596 49.97531 2.221815 0
136.3096 50.07531 2.221815 0
136.1596 49.97531 2.321815 0
136.1596 50.02531 2.271815 0
136.2096 50.02531 2.271815 0
136.2096 50.02531 2.421815 0
136.2096 50.07531 2.421815 0
136.2596 49.97531 2.321815 0
136.3096 50.02531 2.321815 0
136.2596 50.02531 2.421815 0
135.6096 49.87531 2.521815 0
135.7096 49.87531 2.521815 0
135.5596 49.92531 2.821815 0
135.6596 49.92531 2.821815 0
135.8096 49.87531 2.521815 0
135.9096 49.87531 2.521815 0
135.8096 49.92531 2.821815 0
135.9096 49.87531 2.821815 0
135.6096 49.82531 2.871815 0
135.7096 49.82531 2.871815 0
135.8096 49.82531 2.871815 0
135.9096 49.82531 2.871815 0
135.8096 49.92531 3.221815 0
135.9096 49.92531 3.221815 0
135.5596 49.97531 2.621815 0
135.6096 50.02531 2.621815 0
135.6096 50.07531 2.471815 0
135.5596 50.07531 2.571815 0
135.5596 50.07531 2.621815 0
135.7096 49.97531 2.571815 0
135.7096 50.07531 2.521815 0
135.7096 50.07531 2.621815 0
135.5596 49.97531 2.721815 0
135.6096 50.02531 2.671815 0
135.6096 50.07531 2.671815 0
135.6596 49.97531 2.721815 0
135.6596 50.02531 2.721815 0
135.7096 49.97531 2.671815 0
135.7096 50.02531 2.671815 0
135.7096 50.02531 2.721815 0
135.7596 50.02531 2.471815 0
135.7596 50.02531 2.571815 0
135.8096 50.02531 2.571815 0
135.7596 50.07531 2.521815 0
135.8096 50.07531 2.521815 0
135.8096 50.07531 2.621815 0
135.9096 50.02531 2.471815 0
135.9096 50.07531 2.521815 0
135.7596 49.97531 2.721815 0
135.8096 49.97531 2.671815 0
135.8096 49.97531 2.721815 0
135.8096 49.97531 2.771815 0
135.8596 49.97531 2.721815 0
135.9096 49.97531 2.671815 0
135.9096 49.97531 2.721815 0
135.8596 50.02531 2.771815 0
135.6096 50.02531 2.871815 0
135.5596 49.97531 3.021815 0
135.6096 50.02531 2.971815 0
135.5596 50.07531 2.971815 0
135.6096 50.07531 2.971815 0
135.7096 49.97531 3.021815 0
135.7096 50.02531 2.971815 0
135.6596 50.07531 2.921815 0
135.6596 50.07531 2.971815 0
135.7096 50.07531 3.021815 0
135.6096 50.07531 3.121815 0
135.7596 50.02531 2.871815 0
135.8096 49.97531 3.021815 0
135.8096 50.02531 2.971815 0
135.8096 50.07531 2.921815 0
135.7596 50.07531 3.021815 0
135.8096 50.07531 3.021815 0
135.9096 50.02531 2.871815 0
135.9096 50.02531 3.021815 0
135.7596 50.02531 3.171815 0
135.9096 49.97531 3.071815 0
136.0096 49.87531 2.521815 0
136.1096 49.82531 2.521815 0
136.0596 49.92531 2.821815 0
136.2596 49.82531 2.571815 0
136.1596 49.92531 2.821815 0
136.3096 49.87531 2.771815 0
136.0096 49.82531 2.871815 0
136.1096 49.82531 2.871815 0
136.0596 49.92531 3.221815 0
136.2096 49.82531 2.871815 0
136.1596 49.92531 3.221815 0
136.3096 49.92531 3.221815 0
135.9596 49.97531 2.571815 0
136.0096 50.02531 2.621815 0
135.9596 50.07531 2.521815 0
135.9596 50.07531 2.621815 0
136.0596 50.02531 2.471815 0
136.0596 49.97531 2.571815 0
135.9596 49.97531 2.721815 0
135.9596 50.02531 2.671815 0
136.0096 49.97531 2.721815 0
136.0596 49.97531 2.671815 0
136.0596 49.97531 2.721815 0
136.0596 50.02531 2.671815 0
136.1096 49.97531 2.721815 0
136.0596 50.02531 2.771815 0
136.1096 49.97531 2.821815 0
136.2096 50.02531 2.521815 0
136.1596 50.02531 2.571815 0
136.2096 50.02531 2.621815 0
136.2096 50.07531 2.521815 0
136.1596 50.07531 2.571815 0
136.2596 49.97531 2.571815 0
136.3096 50.07531 2.571815 0
136.1596 49.97531 2.671815 0
136.1596 49.97531 2.721815 0
136.2096 49.97531 2.721815 0
136.2596 49.97531 2.721815 0
136.3096 49.97531 2.671815 0
136.2596 49.97531 2.771815 0
136.2596 49.97531 2.821815 0
136.3096 49.97531 2.771815 0
136.0096 49.97531 2.871815 0
135.9596 50.02531 2.971815 0
135.9596 50.07531 2.971815 0
135.9596 50.07531 3.021815 0
136.0096 50.07531 3.021815 0
136.0596 49.97531 2.971815 0
136.0596 50.07531 3.021815 0
135.9596 50.02531 3.221815 0
136.0596 49.97531 3.071815 0
136.0596 50.02531 3.071815 0
136.1596 49.97531 2.921815 0
136.1596 50.02531 2.971815 0
136.1596 50.07531 2.971815 0
136.2096 50.07531 3.021815 0
136.2596 49.97531 2.921815 0
136.3096 49.97531 2.921815 0
136.3096 50.02531 3.021815 0
136.1596 49.97531 3.071815 0
136.1596 50.02531 3.071815 0
136.1596 50.02531 3.221815 0
136.1596 50.07531 3.071815 0
136.2096 50.07531 3.071815 0
136.3096 49.97531 3.071815 0
136.3596 49.82531 1.871815 0
136.4096 49.92531 1.971815 0
136.4596 49.82531 1.871815 0
136.5096 49.87531 1.971815 0
136.5596 49.82531 1.871815 0
136.6596 49.82531 1.871815 0
136.6596 49.92531 1.971815 0
136.3596 49.82531 2.221815 0
136.4596 49.82531 2.221815 0
136.4096 49.92531 2.371815 0
136.5096 49.92531 2.371815 0
136.5596 49.82531 2.221815 0
136.6596 49.82531 2.221815 0
136.6596 49.87531 2.371815 0
136.3596 50.02531 1.671815 0
136.3596 50.02531 1.721815 0
136.4096 50.02531 1.821815 0
136.4596 50.02531 1.721815 0
136.5096 50.02531 1.721815 0
136.4596 49.97531 1.821815 0
136.4596 50.02531 1.771815 0
136.3596 49.97531 1.871815 0
136.3596 50.02531 1.921815 0
136.4096 50.02531 1.871815 0
136.4096 49.97531 1.971815 0
136.4596 50.02531 1.921815 0
136.5096 50.02531 1.871815 0
136.5096 49.97531 1.971815 0
136.5596 50.02531 1.771815 0
136.5596 50.07531 1.671815 0
136.6596 50.02531 1.721815 0
136.6596 50.02531 1.771815 0
136.6596 50.02531 1.821815 0
136.7096 49.97531 1.821815 0
136.5596 49.97531 1.871815 0
136.6096 50.02531 1.921815 0
136.7096 50.02531 1.871815 0
136.6596 49.97531 1.971815 0
136.7096 50.02531 1.971815 0
136.3596 50.02531 2.071815 0
136.3596 50.02531 2.121815 0
136.4096 50.02531 2.071815 0
136.3596 49.97531 2.221815 0
136.4596 50.02531 2.071815 0
136.5096 50.02531 2.121815 0
136.4596 49.97531 2.221815 0
136.4596 50.02531 2.171815 0
136.4096 49.97531 2.321815 0
136.3596 50.02531 2.421815 0
136.4096 50.02531 2.421815 0
136.4596 50.02531 2.271815 0
136.4596 50.02531 2.321815 0
136.5096 49.97531 2.321815 0
136.5096 50.02531 2.321815 0
136.4596 50.02531 2.421815 0
136.5596 50.02531 2.071815 0
136.6096 50.02531 2.071815 0
136.5596 49.97531 2.221815 0
136.6596 50.02531 2.071815 0
136.6596 50.02531 2.121815 0
136.7096 50.02531 2.121815 0
136.6596 50.02531 2.171815 0
136.7096 49.97531 2.221815 0
136.6096 50.02531 2.321815 0
136.5596 50.02531 2.421815 0
136.5596 50.07531 2.271815 0
136.6596 49.97531 2.371815 0
136.6596 49.97531 2.421815 0
136.6596 50.02531 2.421815 0
136.7096 50.02531 2.371815 0
136.7596 49.82531 1.871815 0
136.7596 49.92531 1.971815 0
136.8596 49.82531 1.871815 0
136.9096 49.92531 1.971815 0
137.1096 49.92531 1.821815 0
137.0096 49.82531 1.871815 0
137.0096 49.87531 1.971815 0
137.1096 49.82531 1.871815 0
137.1096 49.87531 1.971815 0
136.7596 49.82531 2.221815 0
136.8596 49.82531 2.221815 0
136.7596 49.92531 2.371815 0
136.9096 49.92531 2.371815 0
137.0096 49.82531 2.221815 0
137.1096 49.82531 2.221815 0
137.0096 49.87531 2.371815 0
137.0096 49.92531 2.371815 0
137.1096 49.92531 2.371815 0
136.7596 50.02531 1.721815 0
136.8096 49.97531 1.721815 0
136.7596 49.97531 1.771815 0
136.8096 49.97531 1.821815 0
136.8096 50.02531 1.771815 0
136.8596 50.02531 1.771815 0
136.8596 50.02531 1.821815 0
136.9096 49.97531 1.821815 0
136.9096 50.02531 1.771815 0
136.8096 50.02531 1.921815 0
136.7596 49.97531 1.971815 0
136.7596 50.02531 1.971815 0
136.9096 50.02531 1.921815 0
136.9096 50.02531 1.971815 0
136.9596 49.97531 1.721815 0
136.9596 50.02531 1.721815 0
136.9596 49.97531 1.771815 0
137.0096 49.97531 1.771815 0
137.0096 49.97531 1.821815 0
137.1096 49.97531 1.721815 0
137.0596 49.97531 1.771815 0
137.0596 50.02531 1.771815 0
137.1096 50.02531 1.821815 0
136.9596 50.02531 1.971815 0
137.1096 50.02531 1.921815 0
137.0596 49.97531 2.021815 0
137.0596 50.02531 1.971815 0
136.7596 50.02531 2.071815 0
136.8096 49.97531 2.121815 0
136.8096 50.02531 2.071815 0
136.8096 50.02531 2.121815 0
136.8096 49.97531 2.221815 0
136.8596 49.97531 2.071815 0
136.9096 50.02531 2.121815 0
136.8596 50.02531 2.171815 0
136.9096 49.97531 2.221815 0
136.7596 50.02531 2.271815 0
136.7596 50.02531 2.321815 0
136.7596 49.97531 2.371815 0
136.7596 49.97531 2.421815 0
136.8596 50.02531 2.421815 0
136.9096 49.97531 2.371815 0
136.9096 50.02531 2.371815 0
136.9596 49.97531 2.121815 0
137.0096 50.02531 2.121815 0
136.9596 49.97531 2.171815 0
137.0096 49.97531 2.221815 0
137.0596 49.97531 2.121815 0
137.1096 49.97531 2.121815 0
137.0596 50.02531 2.221815 0
137.1096 49.97531 2.171815 0
137.1096 49.97531 2.221815 0
136.9596 50.02531 2.271815 0
136.9596 49.97531 2.421815 0
137.0596 49.97531 2.321815 0
137.0596 49.97531 2.371815 0
137.1096 50.02531 2.421815 0
136.3596 49.82531 2.571815 0
136.4596 49.82531 2.571815 0
136.4096 49.82531 2.771815 0
136.5096 49.92531 2.721815 0
136.4596 49.92531 2.771815 0
136.5596 49.82531 2.571815 0
136.6596 49.82531 2.571815 0
136.5596 49.82531 2.771815 0
136.6096 49.87531 2.721815 0
136.5596 49.92531 2.771815 0
136.6596 49.87531 2.771815 0
136.6596 49.92531 2.771815 0
136.3596 49.82531 2.921815 0
136.3596 49.92531 2.921815 0
136.4596 49.82531 2.921815 0
136.4596 49.92531 2.921815 0
136.4096 49.92531 3.171815 0
136.5096 49.92531 3.171815 0
136.5596 49.77531 2.921815 0
136.6096 49.92531 2.921815 0
136.6596 49.82531 2.921815 0
136.6596 49.92531 3.171815 0
136.3596 50.02531 2.521815 0
136.4096 50.02531 2.521815 0
136.3596 49.97531 2.571815 0
136.4096 50.02531 2.571815 0
136.4096 50.07531 2.571815 0
136.5096 50.02531 2.521815 0
136.4596 49.97531 2.571815 0
136.4596 50.02531 2.621815 0
136.5096 50.02531 2.571815 0
136.4096 49.97531 2.671815 0
136.4096 49.97531 2.721815 0
136.4096 50.02531 2.721815 0
136.3596 49.97531 2.771815 0
136.4596 49.97531 2.771815 0
136.5096 49.97531 2.821815 0
136.5596 49.97531 2.571815 0
136.6096 50.02531 2.571815 0
136.7096 50.02531 2.471815 0
136.6596 50.02531 2.571815 0
136.6596 50.02531 2.621815 0
136.7096 49.97531 2.571815 0
136.7096 50.02531 2.621815 0
136.5596 49.97531 2.721815 0
136.5596 49.97531 2.771815 0
136.7096 49.97531 2.721815 0
136.6596 49.97531 2.771815 0
136.6596 49.97531 2.821815 0
136.7096 50.02531 2.821815 0
136.4096 49.97531 2.871815 0
136.4596 50.02531 3.021815 0
136.5096 49.97531 2.971815 0
136.3596 50.02531 3.071815 0
136.4096 49.97531 3.121815 0
136.4096 50.02531 3.071815 0
136.4096 50.02531 3.121815 0
136.4096 50.07531 3.071815 0
136.4596 50.02531 3.071815 0
136.7096 49.97531 2.871815 0
136.7096 49.97531 2.921815 0
136.6596 50.02531 2.971815 0
136.5596 49.97531 3.121815 0
136.6096 50.02531 3.121815 0
136.6596 49.97531 3.121815 0
136.6596 50.02531 3.071815 0
136.7596 49.82531 2.571815 0
136.9096 49.82531 2.571815 0
136.7596 49.92531 2.721815 0
136.7596 49.87531 2.771815 0
136.7596 49.92531 2.771815 0
136.9096 49.82531 2.771815 0
136.8596 49.87531 2.721815 0
136.8596 49.92531 2.771815 0
137.0096 49.82531 2.571815 0
137.1096 49.82531 2.571815 0
137.0096 49.82531 2.721815 0
136.9596 49.92531 2.771815 0
137.0096 49.87531 2.771815 0
137.0096 49.92531 2.771815 0
137.0596 49.92531 2.771815 0
136.7596 49.82531 2.921815 0
136.8096 49.92531 2.921815 0
136.8596 49.77531 2.921815 0
136.9096 49.92531 2.921815 0
136.7596 49.92531 3.171815 0
136.9096 49.92531 3.171815 0
137.0096 49.77531 2.921815 0
137.0096 49.92531 2.921815 0
137.1096 49.77531 2.971815 0
137.1096 49.92531 2.921815 0
137.0096 49.92531 3.171815 0
137.0596 49.92531 3.171815 0
137.1096 49.92531 3.171815 0
136.8096 50.02531 2.471815 0
136.8096 50.02531 2.521815 0
136.8096 49.97531 2.571815 0
136.8096 49.97531 2.621815 0
136.8096 50.02531 2.621815 0
136.8596 50.02531 2.471815 0
136.9096 50.02531 2.471815 0
136.8596 50.02531 2.621815 0
136.9096 49.97531 2.571815 0
136.7596 49.97531 2.821815 0
136.8596 49.97531 2.721815 0
136.9096 49.97531 2.821815 0
137.0096 49.97531 2.471815 0
136.9596 49.97531 2.571815 0
137.0096 49.97531 2.571815 0
137.0096 50.02531 2.621815 0
137.0596 50.02531 2.471815 0
137.1096 50.02531 2.471815 0
137.1096 49.97531 2.571815 0
137.1096 49.97531 2.621815 0
136.9596 49.97531 2.671815 0
137.0096 49.97531 2.821815 0
137.1096 49.97531 2.821815 0
136.8096 50.02531 3.021815 0
136.8596 49.97531 2.871815 0
136.7596 50.02531 3.121815 0
136.8096 49.97531 3.121815 0
136.8096 50.02531 3.121815 0
136.7596 50.02531 3.171815 0
136.8596 50.02531 3.071815 0
136.8596 50.02531 3.121815 0
136.9096 49.97531 3.171815 0
136.9096 50.02531 3.171815 0
136.9596 50.02531 2.871815 0
137.0096 49.97531 2.921815 0
136.9596 49.97531 3.021815 0
137.0596 49.97531 2.871815 0
137.1096 49.97531 3.021815 0
137.0096 50.02531 3.171815 0
137.0596 50.02531 3.121815 0
137.1096 50.02531 3.121815 0
137.0596 50.02531 3.171815 0
137.2096 49.82531 0.1218147 0
137.1596 49.92531 0.1218147 0
137.2096 49.92531 0.07181472 0
137.3096 49.77531 0.1218147 0
137.2596 49.87531 0.07181472 0
137.2596 49.92531 0.1218147 0
137.3096 49.92531 0.07181472 0
137.2096 49.92531 0.4218147 0
137.2596 49.87531 0.4218147 0
137.3096 49.92531 0.4218147 0
137.4096 49.77531 0.1218147 0
137.4096 49.82531 0.07181472 0
137.4096 49.87531 0.1218147 0
137.4096 49.92531 0.07181472 0
137.5096 49.77531 0.1218147 0
137.4596 49.92531 0.07181472 0
137.5096 49.87531 0.07181472 0
137.3596 49.82531 0.4218147 0
137.4096 49.92531 0.4218147 0
137.4596 49.87531 0.4218147 0
137.4596 49.92531 0.4218147 0
137.5096 49.87531 0.4218147 0
137.2096 49.82531 0.4718147 0
137.1596 49.92531 0.4718147 0
137.3096 49.82531 0.4718147 0
137.3096 49.92531 0.4718147 0
137.2096 49.82531 0.8218147 0
137.2096 49.92531 0.7718147 0
137.3096 49.82531 0.8218147 0
137.2596 49.87531 0.8218147 0
137.3096 49.92531 0.7718147 0
137.4096 49.77531 0.4718147 0
137.4096 49.87531 0.4718147 0
137.4096 49.92531 0.4718147 0
137.4596 49.92531 0.5218147 0
137.4596 49.92531 0.6218147 0
137.3596 49.82531 0.8218147 0
137.4096 49.77531 0.8218147 0
137.4096 49.92531 0.7718147 0
137.4596 49.87531 0.8218147 0
137.4596 49.92531 0.7718147 0
137.4596 49.92531 0.8218147 0
137.5096 49.87531 0.7718147 0
137.1596 49.97531 0.1218147 0
137.2596 49.97531 0.07181472 0
137.1596 49.97531 0.4218147 0
137.2096 49.97531 0.4218147 0
137.2596 49.97531 0.4218147 0
137.3596 49.97531 0.07181472 0
137.3596 49.97531 0.4218147 0
137.4096 49.97531 0.4218147 0
137.1596 49.97531 0.6218147 0
137.2096 49.97531 0.5718147 0
137.2096 50.02531 0.5718147 0
137.2596 49.97531 0.4718147 0
137.3096 49.97531 0.5218147 0
137.2596 50.02531 0.5718147 0
137.1596 49.97531 0.7718147 0
137.1596 49.97531 0.8218147 0
137.2596 49.97531 0.7718147 0
137.3596 50.02531 0.5718147 0
137.4096 49.97531 0.5718147 0
137.4096 50.02531 0.5718147 0
137.4596 49.97531 0.5718147 0
137.3596 49.97531 0.7718147 0
137.3596 49.97531 0.8218147 0
137.5596 49.92531 0.1218147 0
137.6096 49.87531 0.07181472 0
137.6096 49.92531 0.07181472 0
137.6596 49.77531 0.1218147 0
137.7096 49.87531 0.07181472 0
137.7096 49.92531 0.1218147 0
137.6096 49.87531 0.4218147 0
137.6096 49.92531 0.4218147 0
137.6596 49.92531 0.4218147 0
137.7096 49.87531 0.4218147 0
137.9096 49.57531 0.1218147 0
137.9096 49.62531 0.1218147 0
137.7596 49.77531 0.1218147 0
137.7596 49.92531 0.07181472 0
137.8096 49.87531 0.07181472 0
137.8096 49.92531 0.07181472 0
137.8596 49.77531 0.1218147 0
137.8596 49.92531 0.07181472 0
137.8596 49.92531 0.1218147 0
137.9096 49.92531 0.07181472 0
137.7596 49.92531 0.4218147 0
137.8096 49.87531 0.4218147 0
137.8096 49.92531 0.4218147 0
137.8596 49.92531 0.4218147 0
137.9096 49.92531 0.4218147 0
137.5596 49.77531 0.4718147 0
137.5596 49.92531 0.4718147 0
137.6596 49.77531 0.4718147 0
137.7096 49.92531 0.4718147 0
137.5596 49.77531 0.8218147 0
137.6096 49.87531 0.8218147 0
137.6596 49.77531 0.8218147 0
137.6596 49.92531 0.7718147 0
137.7096 49.87531 0.8218147 0
137.7596 49.77531 0.4718147 0
137.9096 49.77531 0.4718147 0
137.8596 49.92531 0.4718147 0
137.7596 49.77531 0.8218147 0
137.7596 49.92531 0.7718147 0
137.8096 49.87531 0.8218147 0
137.8096 49.92531 0.7718147 0
137.8596 49.77531 0.8218147 0
137.8596 49.92531 0.7718147 0
137.6096 49.97531 0.07181472 0
137.7096 49.97531 0.07181472 0
137.6096 49.97531 0.4218147 0
137.6596 49.97531 0.4218147 0
137.7096 49.97531 0.4218147 0
137.7596 49.97531 0.07181472 0
137.7596 49.97531 0.4218147 0
137.8096 49.97531 0.4218147 0
137.8596 49.97531 0.4218147 0
137.6096 49.97531 0.4718147 0
137.6096 50.02531 0.5718147 0
137.7096 49.97531 0.5218147 0
137.6596 49.97531 0.5718147 0
137.7096 49.97531 0.5718147 0
137.6096 49.97531 0.7718147 0
137.6596 49.97531 0.8218147 0
137.7096 49.97531 0.7718147 0
137.7596 49.97531 0.4718147 0
137.8096 49.97531 0.5718147 0
137.9096 49.97531 0.5718147 0
137.7596 49.97531 0.7718147 0
137.8096 49.97531 0.8218147 0
137.8596 49.97531 0.7718147 0
137.9096 49.97531 0.7718147 0
137.1596 49.92531 0.8718147 0
137.3096 49.92531 0.8718147 0
137.2096 49.77531 1.171815 0
137.2096 49.92531 1.121815 0
137.3096 49.82531 1.171815 0
137.3096 49.92531 1.121815 0
137.2596 49.87531 1.171815 0
137.3096 49.92531 1.221815 0
137.4096 49.87531 0.8718147 0
137.4096 49.92531 0.9218147 0
137.4596 49.92531 0.9718148 0
137.3596 49.82531 1.171815 0
137.4096 49.77531 1.171815 0
137.4096 49.92531 1.121815 0
137.4096 49.87531 1.221815 0
137.4596 49.92531 1.071815 0
137.4596 49.92531 1.121815 0
137.5096 49.87531 1.121815 0
137.4596 49.87531 1.171815 0
137.4596 49.92531 1.221815 0
137.2096 49.82531 1.521815 0
137.1596 49.92531 1.621815 0
137.3096 49.77531 1.521815 0
137.3096 49.92531 1.471815 0
137.2596 49.87531 1.571815 0
137.3096 49.92531 1.621815 0
137.4096 49.92531 1.321815 0
137.4596 49.92531 1.271815 0
137.4596 49.92531 1.421815 0
137.4096 49.77531 1.521815 0
137.4096 49.92531 1.471815 0
137.3596 49.87531 1.571815 0
137.4096 49.87531 1.621815 0
137.4596 49.92531 1.471815 0
137.5096 49.87531 1.471815 0
137.4596 49.87531 1.571815 0
137.4596 49.92531 1.621815 0
137.2096 49.97531 0.8718147 0
137.2596 49.97531 0.9218147 0
137.3096 49.97531 0.9718148 0
137.1596 49.97531 1.071815 0
137.2096 50.02531 1.071815 0
137.1596 49.97531 1.221815 0
137.2096 49.97531 1.221815 0
137.2096 50.02531 1.171815 0
137.2596 49.97531 1.071815 0
137.2596 49.97531 1.121815 0
137.4096 49.97531 0.8718147 0
137.3596 49.97531 1.071815 0
137.3596 49.97531 1.121815 0
137.4096 49.97531 1.071815 0
137.3596 49.97531 1.221815 0
137.4096 49.97531 1.171815 0
137.4596 49.97531 1.071815 0
137.4596 50.02531 1.171815 0
137.1596 49.97531 1.271815 0
137.2096 49.97531 1.271815 0
137.2096 49.97531 1.321815 0
137.1596 49.97531 1.421815 0
137.2596 49.97531 1.321815 0
137.2596 49.97531 1.421815 0
137.2096 49.97531 1.471815 0
137.1596 50.02531 1.621815 0
137.2096 49.97531 1.621815 0
137.2596 49.97531 1.471815 0
137.3096 49.97531 1.471815 0
137.2596 50.02531 1.571815 0
137.3596 49.97531 1.421815 0
137.4596 49.97531 1.271815 0
137.4596 50.02531 1.321815 0
137.3596 49.97531 1.471815 0
137.3596 50.02531 1.621815 0
137.4096 49.97531 1.621815 0
137.4596 50.02531 1.621815 0
137.5596 49.92531 0.8718147 0
137.7096 49.92531 0.8718147 0
137.5596 49.82531 1.171815 0
137.6096 49.87531 1.171815 0
137.6596 49.77531 1.171815 0
137.6596 49.92531 1.121815 0
137.7096 49.87531 1.171815 0
137.7596 49.92531 0.9218147 0
137.8596 49.92531 0.8718147 0
137.7596 49.77531 1.171815 0
137.7596 49.92531 1.121815 0
137.8096 49.92531 1.121815 0
137.8096 49.87531 1.171815 0
137.9096 49.77531 1.171815 0
137.8596 49.92531 1.121815 0
137.5596 49.92531 1.271815 0
137.7096 49.92531 1.271815 0
137.5596 49.77531 1.521815 0
137.5596 49.92531 1.621815 0
137.6096 49.87531 1.571815 0
137.6596 49.77531 1.521815 0
137.6596 49.92531 1.471815 0
137.7096 49.87531 1.571815 0
137.8596 49.92531 1.271815 0
137.9096 49.92531 1.421815 0
137.7596 49.77531 1.521815 0
137.7596 49.92531 1.471815 0
137.8096 49.87531 1.571815 0
137.9096 49.77531 1.571815 0
137.8596 49.92531 1.471815 0
137.6096 49.97531 0.9218147 0
137.7096 49.97531 1.021815 0
137.6096 49.97531 1.121815 0
137.5596 49.97531 1.221815 0
137.6596 49.97531 1.071815 0
137.7096 49.97531 1.071815 0
137.7096 49.97531 1.121815 0
137.6596 49.97531 1.171815 0
137.6596 49.97531 1.221815 0
137.7096 49.97531 1.171815 0
