# .PCD v0.7 - Point Cloud Data file format
VERSION 0.7
FIELDS x y z intensity
SIZE 4 4 4 4
TYPE F F F F
COUNT 1 1 1 1
WIDTH 1611
HEIGHT 1
VIEWPOINT 0 0 0 1 0 0 0
POINTS 1611
DATA ascii
26.15961 37.27531 0.2218147 0
26.20961 37.27531 0.2218147 0
26.25961 37.17531 0.2218147 0
26.30961 37.22531 0.2218147 0
26.25961 37.27531 0.2218147 0
26.30961 37.27531 0.2218147 0
26.15961 37.27531 0.4218147 0
26.25961 37.27531 0.4218147 0
25.95961 37.17531 0.4718147 0
26.00961 37.17531 0.5218147 0
26.00961 37.22531 0.5718147 0
26.05961 37.17531 0.4718147 0
26.10961 37.22531 0.4718147 0
26.05961 37.27531 0.5218147 0
26.10961 37.27531 0.4718147 0
26.10961 37.27531 0.5718147 0
25.95961 37.17531 0.6718147 0
26.00961 37.17531 0.6718147 0
26.00961 37.17531 0.8218147 0
26.00961 37.22531 0.7718147 0
26.05961 37.17531 0.6718147 0
26.10961 37.22531 0.7218148 0
26.10961 37.27531 0.6718147 0
26.10961 37.27531 0.7218148 0
26.05961 37.27531 0.8218147 0
26.15961 37.17531 0.4718147 0
26.20961 37.22531 0.4718147 0
26.15961 37.27531 0.5218147 0
26.20961 37.27531 0.4718147 0
26.25961 37.17531 0.4718147 0
26.30961 37.22531 0.4718147 0
26.30961 37.27531 0.4718147 0
26.20961 37.22531 0.7218148 0
26.15961 37.17531 0.7718147 0
26.15961 37.27531 0.6718147 0
26.20961 37.27531 0.6718147 0
26.20961 37.27531 0.7718147 0
26.20961 37.27531 0.8218147 0
26.25961 37.17531 0.7718147 0
26.25961 37.27531 0.6718147 0
26.30961 37.27531 0.7218148 0
26.30961 37.27531 0.7718147 0
26.40961 36.82531 0.1718147 0
26.35961 37.02531 0.2218147 0
26.40961 36.97531 0.1718147 0
26.40961 37.07531 0.1718147 0
26.40961 36.82531 0.5718147 0
26.40961 36.82531 0.6218147 0
26.35961 36.92531 0.5218147 0
26.35961 36.92531 0.6218147 0
26.35961 37.02531 0.4718147 0
26.40961 36.97531 0.5718147 0
26.35961 37.07531 0.5218147 0
26.35961 37.02531 0.7218148 0
26.35961 36.97531 0.8218147 0
26.35961 37.02531 0.7718147 0
26.40961 37.07531 0.8218147 0
26.35961 37.17531 0.2218147 0
26.35961 37.17531 0.4718147 0
26.35961 37.17531 0.7218148 0
26.35961 37.17531 0.7718147 0
26.00961 37.02531 0.8718147 0
25.95961 36.97531 0.9718148 0
25.95961 37.12531 0.9718148 0
26.00961 37.02531 1.171815 0
25.95961 37.07531 1.071815 0
25.95961 37.12531 1.221815 0
26.30961 36.77531 0.8718147 0
26.30961 36.82531 1.071815 0
26.30961 36.77531 1.171815 0
26.25961 37.12531 1.171815 0
25.95961 36.97531 1.371815 0
25.95961 37.12531 1.371815 0
25.95961 37.02531 1.521815 0
25.95961 37.12531 1.471815 0
26.30961 36.82531 1.371815 0
26.30961 36.77531 1.521815 0
26.30961 36.82531 1.621815 0
26.25961 37.12531 1.521815 0
25.95961 37.17531 0.9218147 0
26.00961 37.17531 0.9218147 0
26.00961 37.22531 0.9218147 0
25.95961 37.17531 1.021815 0
26.05961 37.17531 0.9218147 0
26.05961 37.22531 1.021815 0
26.10961 37.22531 0.9718148 0
26.10961 37.27531 0.8718147 0
26.10961 37.27531 0.9218147 0
26.10961 37.27531 1.021815 0
26.00961 37.17531 1.121815 0
26.00961 37.17531 1.171815 0
26.10961 37.22531 1.171815 0
26.05961 37.27531 1.121815 0
26.10961 37.27531 1.121815 0
26.20961 37.22531 0.9218147 0
26.15961 37.27531 0.8718147 0
26.15961 37.27531 0.9218147 0
26.20961 37.27531 0.9218147 0
26.20961 37.27531 1.021815 0
26.30961 37.22531 0.9218147 0
26.25961 37.22531 1.021815 0
26.25961 37.27531 0.8718147 0
26.30961 37.27531 1.021815 0
26.15961 37.17531 1.071815 0
26.20961 37.22531 1.171815 0
26.15961 37.27531 1.121815 0
26.20961 37.27531 1.121815 0
26.20961 37.27531 1.171815 0
26.30961 37.22531 1.171815 0
26.25961 37.27531 1.121815 0
26.00961 37.22531 1.271815 0
25.95961 37.17531 1.371815 0
26.00961 37.17531 1.371815 0
26.00961 37.17531 1.421815 0
26.05961 37.17531 1.371815 0
26.10961 37.22531 1.421815 0
26.10961 37.27531 1.271815 0
26.10961 37.27531 1.321815 0
26.05961 37.27531 1.421815 0
26.10961 37.27531 1.371815 0
25.95961 37.17531 1.521815 0
25.95961 37.17531 1.571815 0
26.00961 37.17531 1.571815 0
26.00961 37.17531 1.621815 0
26.05961 37.22531 1.521815 0
26.05961 37.22531 1.621815 0
26.10961 37.27531 1.521815 0
26.10961 37.27531 1.571815 0
26.10961 37.27531 1.621815 0
26.15961 37.17531 1.321815 0
26.20961 37.22531 1.421815 0
26.15961 37.27531 1.321815 0
26.20961 37.27531 1.271815 0
26.15961 37.27531 1.421815 0
26.20961 37.27531 1.371815 0
26.25961 37.17531 1.321815 0
26.30961 37.22531 1.421815 0
26.25961 37.27531 1.321815 0
26.30961 37.27531 1.271815 0
26.15961 37.17531 1.621815 0
26.20961 37.27531 1.521815 0
26.15961 37.27531 1.571815 0
26.20961 37.27531 1.621815 0
26.25961 37.17531 1.621815 0
26.30961 37.27531 1.521815 0
26.25961 37.27531 1.571815 0
26.40961 36.82531 0.9218147 0
26.40961 36.92531 1.071815 0
26.45961 36.82531 1.071815 0
26.40961 36.97531 0.9218147 0
26.35961 37.02531 0.9718148 0
26.35961 37.07531 0.9218147 0
26.35961 37.07531 1.021815 0
26.35961 37.02531 1.221815 0
26.40961 36.97531 1.171815 0
26.35961 37.07531 1.171815 0
26.40961 36.82531 1.321815 0
26.40961 36.77531 1.521815 0
26.35961 36.92531 1.521815 0
26.40961 36.92531 1.521815 0
26.35961 37.02531 1.321815 0
26.40961 36.97531 1.321815 0
26.35961 37.07531 1.321815 0
26.35961 37.02531 1.471815 0
26.35961 37.02531 1.621815 0
26.40961 37.07531 1.471815 0
26.35961 37.17531 1.021815 0
26.35961 37.17531 1.321815 0
26.35961 37.17531 1.571815 0
25.20961 36.97531 1.821815 0
25.20961 37.12531 1.721815 0
25.30961 37.12531 1.721815 0
25.20961 37.12531 2.021815 0
25.30961 37.02531 1.971815 0
25.30961 37.12531 2.021815 0
25.45961 36.97531 1.821815 0
25.45961 37.12531 1.721815 0
25.50961 37.12531 1.771815 0
25.45961 37.02531 1.921815 0
25.45961 37.12531 2.021815 0
25.20961 36.82531 2.071815 0
25.20961 36.97531 2.271815 0
25.20961 37.12531 2.371815 0
25.30961 37.07531 2.321815 0
25.30961 37.12531 2.321815 0
25.45961 36.97531 2.221815 0
25.45961 37.02531 2.321815 0
25.45961 37.12531 2.321815 0
25.50961 37.12531 2.271815 0
25.20961 37.22531 1.671815 0
25.20961 37.22531 1.721815 0
25.15961 37.17531 1.771815 0
25.25961 37.17531 1.771815 0
25.30961 37.22531 1.771815 0
25.15961 37.22531 1.871815 0
25.20961 37.22531 1.871815 0
25.20961 37.22531 1.971815 0
25.20961 37.22531 2.021815 0
25.25961 37.17531 1.871815 0
25.25961 37.22531 1.871815 0
25.30961 37.22531 1.871815 0
25.30961 37.22531 1.921815 0
25.30961 37.22531 1.971815 0
25.30961 37.22531 2.021815 0
25.35961 37.22531 1.671815 0
25.40961 37.17531 1.771815 0
25.40961 37.22531 1.771815 0
25.45961 37.22531 1.671815 0
25.35961 37.17531 1.871815 0
25.40961 37.17531 1.871815 0
25.40961 37.22531 1.871815 0
25.40961 37.17531 2.021815 0
25.40961 37.22531 2.021815 0
25.45961 37.22531 1.871815 0
25.45961 37.22531 1.921815 0
25.45961 37.22531 1.971815 0
25.50961 37.17531 2.021815 0
25.15961 37.17531 2.071815 0
25.20961 37.22531 2.071815 0
25.15961 37.22531 2.221815 0
25.25961 37.17531 2.071815 0
25.25961 37.17531 2.121815 0
25.25961 37.22531 2.071815 0
25.30961 37.22531 2.071815 0
25.30961 37.22531 2.221815 0
25.20961 37.22531 2.271815 0
25.15961 37.17531 2.371815 0
25.25961 37.17531 2.321815 0
25.25961 37.22531 2.271815 0
25.30961 37.22531 2.271815 0
25.35961 37.17531 2.121815 0
25.40961 37.17531 2.121815 0
25.40961 37.22531 2.071815 0
25.45961 37.22531 2.121815 0
25.35961 37.17531 2.321815 0
25.35961 37.22531 2.271815 0
25.45961 37.17531 2.271815 0
25.45961 37.17531 2.321815 0
25.45961 37.22531 2.271815 0
25.50961 37.17531 2.321815 0
25.55961 37.07531 1.671815 0
25.70961 36.97531 1.771815 0
25.70961 37.12531 1.671815 0
25.70961 37.12531 1.721815 0
25.60961 37.12531 1.971815 0
25.60961 37.12531 2.021815 0
25.65961 37.02531 1.921815 0
25.70961 37.12531 1.971815 0
25.85961 36.82531 2.021815 0
25.80961 37.12531 1.671815 0
25.80961 37.12531 1.721815 0
25.90961 37.12531 1.721815 0
25.80961 37.02531 1.921815 0
25.80961 37.07531 1.971815 0
25.80961 37.12531 1.971815 0
25.85961 37.12531 1.971815 0
25.55961 36.82531 2.071815 0
25.70961 36.97531 2.221815 0
25.55961 37.07531 2.321815 0
25.60961 37.12531 2.271815 0
25.65961 37.02531 2.271815 0
25.70961 37.07531 2.271815 0
25.70961 37.12531 2.271815 0
25.80961 37.07531 2.271815 0
25.80961 37.12531 2.271815 0
25.85961 37.02531 2.271815 0
25.90961 37.12531 2.271815 0
25.55961 37.22531 1.671815 0
25.55961 37.22531 1.771815 0
25.60961 37.17531 1.771815 0
25.65961 37.22531 1.721815 0
25.65961 37.17531 1.821815 0
25.70961 37.17531 1.771815 0
25.70961 37.17531 1.821815 0
25.55961 37.17531 1.871815 0
25.60961 37.17531 1.921815 0
25.55961 37.22531 2.021815 0
25.60961 37.22531 2.021815 0
25.70961 37.17531 1.871815 0
25.65961 37.22531 2.021815 0
25.70961 37.17531 2.021815 0
25.75961 37.22531 1.721815 0
25.80961 37.17531 1.821815 0
25.80961 37.22531 1.771815 0
25.90961 37.17531 1.721815 0
25.85961 37.17531 1.821815 0
25.90961 37.17531 1.771815 0
25.90961 37.17531 1.821815 0
25.80961 37.17531 1.871815 0
25.75961 37.17531 2.021815 0
25.75961 37.22531 1.971815 0
25.90961 37.17531 1.871815 0
25.90961 37.17531 1.971815 0
25.90961 37.17531 2.021815 0
25.55961 37.17531 2.071815 0
25.55961 37.22531 2.121815 0
25.60961 37.17531 2.121815 0
25.65961 37.17531 2.071815 0
25.70961 37.17531 2.071815 0
25.70961 37.17531 2.121815 0
25.55961 37.22531 2.321815 0
25.60961 37.17531 2.271815 0
25.60961 37.22531 2.321815 0
25.65961 37.22531 2.321815 0
25.70961 37.22531 2.321815 0
25.80961 37.17531 2.071815 0
25.80961 37.17531 2.121815 0
25.80961 37.22531 2.071815 0
25.85961 37.17531 2.071815 0
25.85961 37.22531 2.071815 0
25.90961 37.17531 2.121815 0
25.75961 37.17531 2.321815 0
25.80961 37.22531 2.321815 0
25.90961 37.17531 2.321815 0
25.90961 37.17531 2.371815 0
25.20961 36.82531 2.571815 0
25.20961 36.97531 2.721815 0
25.20961 37.12531 2.671815 0
25.30961 37.02531 2.721815 0
25.45961 37.07531 2.621815 0
25.35961 37.12531 2.671815 0
25.45961 36.97531 2.671815 0
25.50961 37.02531 2.671815 0
25.20961 36.87531 3.071815 0
25.20961 36.97531 3.121815 0
25.25961 37.02531 3.071815 0
25.45961 36.97531 3.071815 0
25.45961 37.02531 3.071815 0
25.15961 37.22531 2.571815 0
25.20961 37.22531 2.571815 0
25.30961 37.22531 2.571815 0
25.30961 37.22531 2.621815 0
25.45961 37.22531 2.621815 0
25.15961 37.22531 2.921815 0
25.30961 37.22531 2.971815 0
25.45961 37.17531 2.971815 0
25.55961 36.82531 2.521815 0
25.55961 37.12531 2.621815 0
25.65961 37.02531 2.621815 0
25.70961 36.97531 2.621815 0
25.70961 37.12531 2.571815 0
25.85961 36.82531 2.471815 0
25.80961 37.02531 2.621815 0
25.80961 37.07531 2.571815 0
25.55961 36.82531 3.021815 0
25.65961 37.02531 3.021815 0
25.70961 36.97531 3.021815 0
25.85961 36.82531 2.971815 0
25.80961 37.02531 2.971815 0
25.55961 37.22531 2.621815 0
25.65961 37.22531 2.621815 0
25.60961 37.22531 2.671815 0
25.75961 37.17531 2.671815 0
25.85961 37.22531 2.671815 0
25.90961 37.17531 2.721815 0
25.60961 37.22531 3.021815 0
25.75961 37.17531 3.021815 0
25.90961 37.17531 3.071815 0
25.95961 36.92531 1.771815 0
25.95961 37.07531 1.671815 0
25.95961 37.12531 1.721815 0
26.00961 37.02531 1.871815 0
25.95961 37.07531 1.921815 0
25.95961 37.12531 1.971815 0
26.30961 36.77531 1.671815 0
26.30961 36.77531 1.871815 0
26.30961 36.82531 1.921815 0
26.30961 37.02531 1.721815 0
26.30961 37.12531 1.821815 0
25.95961 36.97531 2.171815 0
26.00961 37.02531 2.221815 0
25.95961 37.12531 2.221815 0
26.30961 36.77531 2.221815 0
26.30961 36.82531 2.221815 0
26.30961 37.02531 2.121815 0
26.25961 37.12531 2.171815 0
26.00961 37.17531 1.721815 0
25.95961 37.17531 1.821815 0
26.00961 37.17531 1.821815 0
26.10961 37.22531 1.671815 0
26.05961 37.22531 1.821815 0
26.05961 37.27531 1.721815 0
26.10961 37.27531 1.821815 0
25.95961 37.17531 1.871815 0
26.00961 37.22531 1.971815 0
26.05961 37.17531 1.871815 0
26.10961 37.22531 1.921815 0
26.10961 37.27531 1.871815 0
26.05961 37.32531 2.021815 0
26.10961 37.27531 1.971815 0
26.10961 37.27531 2.021815 0
26.20961 37.22531 1.671815 0
26.15961 37.27531 1.721815 0
26.15961 37.27531 1.821815 0
26.20961 37.27531 1.821815 0
26.30961 37.22531 1.671815 0
26.25961 37.27531 1.771815 0
26.30961 37.27531 1.821815 0
26.15961 37.17531 1.921815 0
26.20961 37.22531 1.921815 0
26.20961 37.27531 1.871815 0
26.15961 37.27531 2.021815 0
26.25961 37.17531 1.871815 0
26.30961 37.22531 1.921815 0
26.25961 37.27531 2.021815 0
25.95961 37.17531 2.071815 0
25.95961 37.17531 2.121815 0
26.00961 37.17531 2.071815 0
26.05961 37.17531 2.121815 0
26.05961 37.22531 2.071815 0
26.10961 37.22531 2.171815 0
26.10961 37.27531 2.071815 0
26.10961 37.32531 2.071815 0
25.95961 37.17531 2.371815 0
26.00961 37.17531 2.371815 0
26.00961 37.22531 2.371815 0
26.05961 37.22531 2.371815 0
26.10961 37.27531 2.321815 0
26.05961 37.27531 2.371815 0
26.10961 37.27531 2.371815 0
26.15961 37.17531 2.171815 0
26.20961 37.22531 2.171815 0
26.15961 37.27531 2.071815 0
26.20961 37.27531 2.071815 0
26.20961 37.27531 2.121815 0
26.25961 37.22531 2.171815 0
26.30961 37.17531 2.171815 0
26.30961 37.27531 2.071815 0
26.15961 37.27531 2.371815 0
26.20961 37.27531 2.371815 0
26.30961 37.27531 2.371815 0
26.40961 36.82531 1.721815 0
26.35961 36.92531 1.821815 0
26.40961 36.82531 1.971815 0
26.40961 36.92531 1.971815 0
26.35961 37.02531 1.721815 0
26.40961 36.97531 1.721815 0
26.35961 37.07531 1.821815 0
26.35961 37.02531 1.921815 0
26.35961 37.02531 1.971815 0
26.40961 36.82531 2.121815 0
26.35961 36.92531 2.171815 0
26.40961 36.92531 2.421815 0
26.45961 36.82531 2.421815 0
26.40961 36.97531 2.121815 0
26.35961 37.02531 2.171815 0
26.35961 37.02531 2.221815 0
26.40961 37.07531 2.171815 0
26.35961 37.17531 1.871815 0
26.35961 37.17531 2.171815 0
25.95961 36.97531 2.571815 0
26.00961 37.02531 2.571815 0
25.95961 37.07531 2.571815 0
26.30961 36.82531 2.521815 0
26.30961 36.77531 2.571815 0
26.30961 36.77531 2.721815 0
26.25961 37.12531 2.521815 0
25.95961 36.92531 2.971815 0
26.00961 37.02531 2.921815 0
26.30961 36.77531 2.921815 0
26.30961 37.12531 2.871815 0
26.00961 37.22531 2.671815 0
26.00961 37.22531 2.721815 0
26.05961 37.27531 2.671815 0
26.10961 37.27531 2.721815 0
26.15961 37.17531 2.471815 0
26.25961 37.17531 2.471815 0
26.15961 37.27531 2.721815 0
26.00961 37.22531 3.071815 0
26.10961 37.27531 3.121815 0
26.40961 36.82531 2.521815 0
26.35961 36.92531 2.521815 0
26.35961 37.02531 2.471815 0
26.40961 36.97531 2.521815 0
26.35961 37.07531 2.521815 0
26.40961 37.07531 2.521815 0
26.40961 36.82531 2.921815 0
26.35961 36.92531 2.871815 0
26.40961 36.92531 2.871815 0
26.45961 36.82531 2.871815 0
26.40961 36.97531 2.921815 0
26.35961 37.07531 2.871815 0
26.35961 37.07531 2.921815 0
26.35961 37.17531 2.471815 0
25.15961 39.72531 0.1218147 0
25.25961 39.72531 0.1218147 0
25.30961 39.72531 0.1218147 0
25.35961 39.72531 0.1218147 0
25.45961 39.77531 0.1218147 0
25.55961 39.77531 0.1218147 0
25.65961 39.77531 0.1218147 0
25.80961 39.77531 0.1218147 0
25.80961 39.92531 0.1218147 0
25.90961 39.82531 0.1218147 0
25.90961 39.92531 0.1218147 0
26.70961 38.62531 0.1718147 0
26.50961 39.12531 0.1718147 0
26.60961 38.87531 0.1718147 0
26.65961 38.77531 0.1718147 0
26.55961 39.02531 0.1718147 0
25.95961 39.82531 0.1218147 0
26.00961 39.87531 0.1218147 0
26.05961 39.82531 0.1218147 0
26.10961 39.82531 0.1218147 0
26.10961 39.87531 0.1218147 0
26.20961 39.77531 0.1218147 0
26.20961 39.87531 0.1218147 0
26.30961 39.77531 0.1218147 0
26.25961 39.82531 0.1718147 0
26.25961 39.92531 0.1218147 0
26.30961 39.92531 0.1218147 0
26.45961 39.22531 0.1718147 0
26.40961 39.47531 0.1718147 0
26.45961 39.37531 0.1718147 0
26.35961 39.62531 0.1718147 0
26.40961 39.72531 0.1218147 0
26.35961 39.72531 0.1718147 0
26.45961 39.72531 0.1218147 0
26.55961 39.67531 0.1218147 0
26.55961 39.72531 0.1218147 0
26.60961 39.67531 0.1218147 0
26.70961 39.67531 0.1218147 0
23.65961 36.87531 3.371815 0
23.60961 37.07531 3.471815 0
23.75961 36.97531 3.421815 0
23.85961 37.07531 3.421815 0
23.65961 36.87531 3.921815 0
23.75961 36.97531 3.921815 0
24.05961 36.87531 3.271815 0
24.10961 36.97531 3.371815 0
24.05961 37.07531 3.371815 0
24.30961 37.07531 3.321815 0
24.05961 36.87531 3.821815 0
24.05961 36.97531 3.871815 0
23.65961 36.87531 4.471815 0
24.05961 36.87531 4.371815 0
24.35961 36.97531 3.321815 0
24.50961 37.07531 3.271815 0
24.65961 36.97531 3.271815 0
24.45961 36.82531 3.771815 0
24.35961 36.97531 3.771815 0
24.65961 36.97531 3.721815 0
24.85961 36.87531 3.671815 0
24.95961 36.97531 3.671815 0
24.85961 37.22531 3.271815 0
24.50961 36.87531 4.271815 0
24.85961 36.82531 4.171815 0
25.20961 36.82531 3.571815 0
25.20961 36.97531 3.571815 0
25.45961 36.97531 3.521815 0
25.55961 36.82531 3.521815 0
25.70961 36.97531 3.471815 0
25.85961 36.82531 3.471815 0
25.55961 36.82531 4.021815 0
25.90961 36.82531 3.921815 0
25.20961 36.82531 4.121815 0
25.95961 36.97531 3.421815 0
26.30961 36.77531 3.271815 0
26.30961 36.77531 3.821815 0
26.40961 36.77531 3.321815 0
26.40961 36.82531 3.321815 0
26.40961 36.92531 3.321815 0
26.35961 37.02531 3.321815 0
26.40961 36.97531 3.321815 0
26.40961 36.92531 3.821815 0
26.45961 36.82531 3.821815 0
26.30961 36.77531 4.371815 0
29.65961 36.67531 0.1718147 0
27.45961 36.92531 0.1718147 0
27.40961 37.02531 0.1718147 0
27.35961 37.12531 0.1718147 0
27.25961 37.22531 0.1718147 0
27.15961 37.47531 0.1718147 0
27.25961 37.37531 0.1718147 0
27.10961 37.57531 0.1718147 0
27.05961 37.67531 0.1718147 0
27.00961 37.82531 0.1718147 0
26.95961 37.92531 0.1718147 0
26.90961 38.07531 0.1718147 0
26.80961 38.27531 0.1718147 0
26.85961 38.17531 0.1718147 0
26.75961 38.42531 0.1718147 0
26.75961 38.52531 0.1718147 0
26.80961 39.67531 0.1218147 0
26.90961 39.67531 0.1218147 0
27.00961 39.62531 0.1218147 0
27.10961 39.62531 0.1218147 0
27.20961 39.62531 0.1218147 0
27.30961 39.62531 0.1218147 0
27.35961 39.62531 0.1218147 0
27.40961 39.62531 0.1218147 0
27.50961 39.62531 0.1218147 0
27.50961 39.92531 0.1218147 0
27.60961 39.62531 0.1218147 0
27.70961 39.62531 0.1218147 0
27.55961 39.87531 0.1218147 0
27.65961 39.82531 0.1218147 0
27.70961 39.82531 0.1218147 0
27.80961 39.62531 0.1218147 0
27.90961 39.67531 0.1218147 0
27.75961 39.77531 0.1218147 0
27.85961 39.77531 0.1218147 0
27.95961 39.72531 0.1218147 0
28.00961 39.67531 0.1218147 0
28.10961 39.62531 0.1218147 0
28.05961 39.67531 0.1218147 0
28.10961 39.72531 0.1218147 0
28.15961 39.62531 0.1218147 0
28.20961 39.57531 0.1218147 0
28.20961 39.72531 0.1218147 0
28.30961 39.57531 0.1218147 0
28.30961 39.72531 0.1218147 0
28.25961 39.67531 0.1718147 0
29.10961 37.67531 0.1718147 0
29.00961 37.92531 0.1718147 0
29.05961 37.82531 0.1718147 0
28.90961 38.12531 0.1718147 0
28.85961 38.27531 0.1718147 0
28.95961 38.02531 0.1718147 0
29.40961 37.12531 0.1718147 0
29.50961 37.02531 0.1718147 0
29.30961 37.32531 0.1718147 0
29.20961 37.47531 0.1718147 0
29.35961 37.22531 0.1718147 0
29.60961 36.77531 0.1718147 0
29.55961 36.92531 0.1718147 0
29.15961 37.57531 0.1718147 0
28.70961 38.62531 0.1718147 0
28.65961 38.72531 0.1718147 0
28.60961 38.87531 0.1718147 0
28.55961 38.97531 0.1718147 0
28.55961 39.07531 0.1718147 0
28.80961 38.37531 0.1718147 0
28.75961 38.47531 0.1718147 0
28.50961 39.22531 0.1718147 0
28.45961 39.32531 0.1718147 0
28.40961 39.47531 0.1718147 0
28.50961 39.52531 0.1218147 0
28.60961 39.52531 0.1218147 0
28.70961 39.47531 0.1218147 0
28.35961 39.57531 0.1718147 0
28.45961 39.57531 0.1218147 0
28.40961 39.77531 0.1218147 0
28.50961 39.77531 0.1218147 0
28.55961 39.82531 0.1218147 0
28.60961 39.82531 0.1218147 0
28.70961 39.87531 0.1218147 0
28.75961 39.47531 0.1218147 0
28.80961 39.47531 0.1218147 0
28.90961 39.42531 0.1218147 0
28.85961 39.47531 0.1218147 0
29.00961 39.42531 0.1218147 0
29.10961 39.42531 0.1218147 0
28.85961 39.92531 0.1218147 0
29.50961 38.67531 0.1718147 0
29.45961 38.87531 0.1718147 0
29.40961 39.07531 0.1718147 0
29.20961 39.42531 0.1218147 0
29.30961 39.42531 0.1218147 0
29.40961 39.32531 0.1718147 0
29.40961 39.42531 0.1218147 0
29.35961 39.52531 0.1718147 0
29.50961 39.42531 0.1218147 0
29.25961 39.92531 0.1218147 0
29.30961 39.92531 0.1718147 0
29.35961 39.72531 0.1718147 0
29.35961 39.92531 0.1218147 0
29.40961 39.87531 0.1218147 0
29.45961 39.82531 0.1218147 0
29.50961 39.77531 0.1218147 0
29.60961 39.42531 0.1218147 0
29.70961 39.42531 0.1218147 0
29.80961 39.42531 0.1218147 0
29.90961 39.47531 0.1218147 0
29.55961 39.72531 0.1218147 0
29.65961 39.72531 0.1218147 0
29.70961 39.67531 0.1218147 0
29.80961 39.62531 0.1218147 0
29.90961 39.57531 0.1218147 0
17.15961 40.52531 0.1218147 0
17.20961 40.52531 0.07181472 0
17.20961 40.52531 0.1218147 0
17.25961 40.52531 0.1218147 0
17.30961 40.52531 0.07181472 0
17.30961 40.52531 0.1218147 0
17.35961 40.52531 0.1218147 0
17.40961 40.52531 0.07181472 0
17.40961 40.52531 0.1218147 0
17.45961 40.52531 0.1218147 0
17.50961 40.52531 0.07181472 0
17.50961 40.52531 0.1218147 0
17.60961 40.37531 0.1218147 0
17.60961 40.52531 0.07181472 0
17.60961 40.52531 0.1218147 0
17.70961 40.52531 0.07181472 0
17.70961 40.52531 0.1218147 0
17.80961 40.47531 0.1218147 0
17.80961 40.52531 0.07181472 0
17.80961 40.52531 0.1218147 0
17.85961 40.52531 0.1218147 0
17.90961 40.47531 0.07181472 0
17.90961 40.52531 0.1218147 0
18.10961 40.12531 0.1218147 0
18.00961 40.32531 0.1218147 0
18.05961 40.22531 0.1218147 0
18.15961 39.97531 0.1218147 0
18.00961 40.47531 0.07181472 0
18.00961 40.47531 0.1218147 0
18.10961 40.47531 0.07181472 0
18.10961 40.47531 0.1218147 0
18.15961 40.47531 0.07181472 0
18.15961 40.47531 0.1218147 0
18.20961 40.47531 0.1218147 0
18.25961 40.47531 0.07181472 0
18.30961 40.47531 0.07181472 0
18.30961 40.47531 0.1218147 0
18.35961 40.47531 0.1218147 0
18.40961 40.47531 0.07181472 0
18.40961 40.47531 0.1218147 0
18.45961 40.47531 0.1218147 0
18.50961 40.47531 0.07181472 0
18.50961 40.47531 0.1218147 0
18.60961 40.47531 0.07181472 0
18.60961 40.47531 0.1218147 0
18.65961 40.42531 0.07181472 0
18.65961 40.47531 0.07181472 0
18.65961 40.47531 0.1218147 0
18.70961 40.47531 0.1218147 0
18.75961 40.42531 0.07181472 0
18.75961 40.47531 0.07181472 0
18.75961 40.47531 0.1218147 0
18.80961 40.47531 0.1218147 0
18.85961 40.42531 0.07181472 0
18.85961 40.47531 0.07181472 0
18.90961 40.47531 0.1218147 0
18.95961 40.42531 0.07181472 0
18.95961 40.42531 0.1218147 0
19.00961 40.47531 0.1218147 0
19.05961 40.42531 0.07181472 0
19.10961 40.42531 0.1218147 0
19.10961 40.47531 0.1218147 0
19.15961 40.42531 0.07181472 0
19.20961 40.42531 0.1218147 0
19.15961 40.47531 0.1218147 0
19.25961 40.42531 0.07181472 0
19.30961 40.42531 0.1218147 0
19.30961 40.47531 0.1218147 0
19.35961 40.42531 0.07181472 0
19.35961 40.42531 0.1218147 0
19.40961 40.42531 0.1218147 0
19.45961 40.42531 0.07181472 0
19.45961 40.42531 0.1218147 0
19.50961 40.42531 0.07181472 0
19.50961 40.42531 0.1218147 0
19.50961 40.47531 0.1218147 0
19.90961 40.22531 0.1218147 0
19.55961 40.42531 0.1218147 0
19.60961 40.42531 0.07181472 0
19.60961 40.42531 0.1218147 0
19.65961 40.42531 0.07181472 0
19.65961 40.42531 0.1218147 0
19.70961 40.42531 0.07181472 0
19.70961 40.42531 0.1218147 0
19.75961 40.42531 0.07181472 0
19.80961 40.42531 0.07181472 0
19.80961 40.42531 0.1218147 0
19.85961 40.42531 0.07181472 0
19.90961 40.42531 0.07181472 0
19.90961 40.42531 0.1218147 0
20.20961 40.02531 0.1218147 0
20.15961 40.17531 0.1218147 0
19.95961 40.42531 0.1218147 0
20.00961 40.42531 0.1218147 0
20.05961 40.37531 0.1218147 0
20.05961 40.42531 0.07181472 0
20.10961 40.42531 0.07181472 0
20.10961 40.42531 0.1218147 0
20.15961 40.37531 0.1218147 0
20.20961 40.42531 0.07181472 0
20.20961 40.42531 0.1218147 0
20.25961 40.37531 0.1218147 0
20.25961 40.42531 0.1218147 0
20.30961 40.42531 0.1218147 0
17.20961 44.82531 0.3218147 0
17.15961 44.82531 0.3718147 0
17.15961 44.82531 0.4218147 0
17.20961 44.82531 0.4218147 0
17.15961 44.82531 0.4718147 0
17.15961 44.82531 0.5218147 0
17.20961 44.82531 0.4718147 0
17.20961 44.82531 0.5218147 0
18.90961 44.57531 0.3718147 0
18.90961 44.62531 0.4218147 0
18.90961 44.67531 0.2718147 0
18.90961 44.67531 0.3718147 0
18.90961 44.67531 0.4218147 0
18.95961 44.57531 0.3218147 0
19.05961 44.67531 0.3218147 0
18.90961 44.77531 0.2718147 0
18.90961 44.82531 0.2718147 0
18.90961 44.77531 0.3718147 0
18.90961 44.77531 0.4218147 0
18.90961 44.87531 0.3718147 0
18.90961 44.87531 0.4218147 0
19.10961 44.77531 0.3218147 0
19.15961 44.87531 0.1718147 0
19.20961 44.87531 0.1718147 0
19.30961 44.92531 0.3218147 0
19.25961 44.92531 0.3718147 0
19.25961 44.92531 0.4218147 0
19.30961 44.92531 0.3718147 0
19.25961 44.92531 0.4718147 0
19.25961 44.92531 0.5218147 0
20.35961 40.37531 0.1218147 0
20.35961 40.42531 0.07181472 0
20.40961 40.37531 0.1218147 0
20.40961 40.42531 0.07181472 0
20.40961 40.42531 0.1218147 0
20.50961 40.37531 0.1218147 0
20.50961 40.42531 0.07181472 0
20.50961 40.42531 0.1218147 0
20.55961 40.37531 0.1218147 0
20.60961 40.37531 0.07181472 0
20.60961 40.37531 0.1218147 0
20.65961 40.37531 0.07181472 0
20.65961 40.37531 0.1218147 0
20.70961 40.37531 0.1218147 0
20.75961 40.37531 0.07181472 0
20.75961 40.37531 0.1218147 0
20.80961 40.37531 0.1218147 0
20.85961 40.37531 0.1218147 0
20.90961 40.37531 0.07181472 0
20.90961 40.37531 0.1218147 0
20.95961 40.37531 0.1218147 0
21.00961 40.37531 0.07181472 0
21.00961 40.37531 0.1218147 0
21.05961 40.37531 0.1218147 0
21.10961 40.37531 0.07181472 0
21.10961 40.37531 0.1218147 0
21.20961 40.32531 0.07181472 0
21.35961 40.32531 0.07181472 0
21.40961 40.32531 0.07181472 0
21.50961 40.32531 0.07181472 0
21.15961 40.37531 0.1218147 0
21.20961 40.37531 0.1218147 0
21.25961 40.37531 0.1218147 0
21.30961 40.37531 0.1218147 0
21.35961 40.37531 0.1218147 0
21.40961 40.37531 0.1218147 0
21.45961 40.37531 0.1218147 0
21.50961 40.37531 0.1218147 0
21.55961 40.32531 0.1218147 0
21.60961 40.32531 0.07181472 0
21.60961 40.32531 0.1218147 0
21.65961 40.32531 0.1218147 0
21.70961 40.32531 0.07181472 0
21.75961 40.27531 0.1218147 0
21.80961 40.32531 0.07181472 0
21.80961 40.32531 0.1218147 0
21.85961 40.27531 0.1218147 0
21.90961 40.32531 0.07181472 0
21.60961 40.37531 0.07181472 0
21.70961 40.37531 0.07181472 0
21.70961 40.37531 0.1218147 0
21.90961 40.37531 0.1218147 0
22.05961 40.12531 0.1718147 0
21.95961 40.22531 0.1218147 0
22.00961 40.22531 0.1218147 0
22.00961 40.32531 0.07181472 0
22.00961 40.32531 0.1218147 0
22.05961 40.17531 0.1218147 0
22.10961 40.32531 0.07181472 0
22.10961 40.32531 0.1218147 0
22.30961 40.07531 0.1718147 0
22.15961 40.17531 0.1218147 0
22.15961 40.32531 0.07181472 0
22.20961 40.32531 0.07181472 0
22.20961 40.32531 0.1218147 0
22.25961 40.17531 0.1218147 0
22.30961 40.32531 0.07181472 0
22.30961 40.32531 0.1218147 0
22.35961 40.12531 0.1218147 0
22.45961 40.12531 0.1218147 0
22.35961 40.32531 0.07181472 0
22.40961 40.32531 0.07181472 0
22.40961 40.32531 0.1218147 0
22.50961 40.32531 0.07181472 0
22.50961 40.32531 0.1218147 0
22.55961 40.12531 0.1218147 0
22.60961 40.12531 0.1218147 0
22.65961 40.12531 0.1218147 0
22.70961 40.07531 0.1218147 0
22.55961 40.32531 0.07181472 0
22.60961 40.32531 0.1218147 0
22.65961 40.32531 0.1218147 0
22.70961 40.27531 0.1218147 0
22.70961 40.32531 0.07181472 0
22.70961 40.32531 0.1218147 0
22.80961 40.07531 0.1218147 0
22.80961 40.12531 0.1218147 0
22.85961 40.07531 0.1218147 0
22.90961 40.07531 0.1218147 0
22.80961 40.32531 0.1218147 0
22.85961 40.27531 0.1218147 0
22.85961 40.32531 0.07181472 0
22.90961 40.27531 0.1218147 0
22.90961 40.32531 0.07181472 0
22.90961 40.32531 0.1218147 0
22.95961 40.07531 0.1218147 0
23.00961 40.07531 0.1218147 0
23.05961 40.07531 0.1218147 0
23.00961 40.27531 0.1218147 0
23.00961 40.32531 0.07181472 0
23.00961 40.32531 0.1218147 0
23.10961 40.22531 0.1218147 0
23.05961 40.27531 0.1218147 0
23.10961 40.32531 0.07181472 0
23.10961 40.32531 0.1218147 0
23.15961 40.12531 0.1718147 0
23.25961 40.07531 0.1218147 0
23.30961 40.12531 0.1218147 0
23.20961 40.17531 0.1218147 0
23.15961 40.27531 0.1218147 0
23.25961 40.17531 0.1218147 0
23.25961 40.27531 0.07181472 0
23.25961 40.27531 0.1218147 0
23.30961 40.27531 0.1218147 0
23.40961 40.07531 0.1218147 0
23.35961 40.12531 0.1718147 0
23.40961 40.12531 0.1718147 0
23.50961 40.02531 0.1218147 0
23.45961 40.12531 0.1218147 0
23.50961 40.12531 0.1718147 0
23.35961 40.22531 0.07181472 0
23.35961 40.27531 0.1218147 0
23.45961 40.22531 0.07181472 0
23.50961 40.22531 0.07181472 0
23.45961 40.32531 0.1218147 0
23.50961 40.27531 0.1218147 0
21.00961 44.42531 0.2718147 0
21.00961 44.42531 0.3718147 0
21.00961 44.42531 0.4218147 0
21.00961 44.52531 0.2718147 0
21.00961 44.47531 0.3718147 0
21.00961 44.52531 0.4218147 0
21.00961 44.62531 0.2718147 0
21.05961 44.57531 0.3718147 0
21.05961 44.62531 0.4218147 0
21.05961 44.67531 0.2718147 0
21.05961 44.67531 0.3718147 0
21.05961 44.67531 0.4218147 0
21.15961 44.47531 0.3218147 0
21.30961 44.67531 0.1718147 0
21.25961 44.57531 0.3218147 0
21.35961 44.62531 0.1718147 0
21.40961 44.72531 0.3218147 0
21.40961 44.67531 0.3718147 0
21.40961 44.67531 0.4218147 0
21.45961 44.67531 0.3218147 0
21.45961 44.72531 0.3218147 0
21.45961 44.67531 0.3718147 0
21.40961 44.67531 0.4718147 0
21.40961 44.67531 0.5218147 0
21.40961 44.72531 0.4718147 0
21.40961 44.72531 0.5218147 0
23.10961 44.17531 0.3218147 0
23.10961 44.22531 0.2718147 0
23.10961 44.17531 0.3718147 0
23.10961 44.17531 0.4218147 0
23.10961 44.22531 0.3718147 0
23.10961 44.22531 0.4218147 0
23.10961 44.32531 0.2718147 0
23.10961 44.32531 0.3718147 0
23.10961 44.32531 0.4218147 0
23.10961 44.42531 0.2718147 0
23.20961 44.22531 0.3218147 0
23.30961 44.32531 0.3218147 0
23.15961 44.42531 0.3718147 0
23.40961 44.37531 0.1718147 0
23.40961 44.42531 0.1718147 0
23.50961 44.42531 0.3218147 0
23.45961 44.42531 0.3718147 0
23.50961 44.42531 0.3718147 0
23.50961 44.47531 0.3718147 0
23.15961 44.42531 0.4718147 0
23.50961 44.42531 0.4718147 0
23.50961 44.42531 0.5218147 0
23.50961 44.47531 0.4718147 0
23.50961 44.47531 0.5218147 0
23.60961 40.02531 0.1218147 0
23.55961 40.12531 0.1718147 0
23.65961 39.97531 0.1218147 0
23.65961 40.12531 0.1718147 0
23.60961 40.27531 0.07181472 0
23.65961 40.22531 0.07181472 0
23.70961 40.27531 0.07181472 0
23.75961 40.22531 0.07181472 0
23.80961 40.22531 0.07181472 0
23.75961 40.17531 0.1718147 0
23.80961 40.27531 0.07181472 0
23.90961 40.22531 0.07181472 0
23.85961 40.17531 0.1718147 0
23.90961 40.27531 0.07181472 0
24.10961 39.97531 0.1718147 0
24.00961 40.22531 0.07181472 0
23.95961 40.22531 0.1718147 0
23.95961 40.27531 0.07181472 0
24.05961 40.22531 0.1718147 0
24.10961 40.27531 0.1718147 0
24.15961 40.22531 0.07181472 0
24.20961 40.22531 0.07181472 0
24.15961 40.27531 0.1718147 0
24.30961 40.22531 0.07181472 0
24.25961 40.27531 0.1218147 0
24.35961 40.22531 0.07181472 0
24.35961 40.27531 0.1218147 0
24.45961 40.22531 0.07181472 0
24.45961 40.22531 0.1218147 0
24.55961 40.22531 0.07181472 0
24.55961 40.22531 0.1218147 0
24.60961 40.17531 0.1218147 0
24.65961 40.22531 0.1218147 0
24.75961 40.22531 0.1218147 0
24.85961 40.17531 0.1218147 0
24.85961 40.22531 0.1218147 0
24.95961 40.17531 0.07181472 0
24.95961 40.17531 0.1218147 0
24.95961 40.22531 0.1218147 0
25.05961 40.17531 0.1218147 0
25.05961 40.22531 0.1218147 0
25.10961 40.17531 0.07181472 0
25.15961 40.17531 0.1218147 0
25.15961 40.22531 0.1218147 0
25.20961 40.17531 0.07181472 0
25.25961 40.17531 0.1218147 0
25.30961 40.17531 0.07181472 0
25.30961 40.22531 0.1218147 0
25.45961 40.12531 0.07181472 0
25.45961 40.12531 0.1218147 0
25.50961 40.12531 0.1218147 0
25.35961 40.17531 0.07181472 0
25.35961 40.17531 0.1218147 0
25.35961 40.22531 0.1218147 0
25.45961 40.22531 0.1218147 0
25.50961 40.22531 0.1218147 0
25.60961 40.02531 0.1218147 0
25.55961 40.07531 0.1218147 0
25.70961 39.97531 0.1218147 0
25.55961 40.17531 0.07181472 0
25.55961 40.22531 0.1218147 0
25.65961 40.17531 0.07181472 0
25.65961 40.22531 0.1218147 0
25.75961 39.97531 0.1218147 0
25.75961 40.12531 0.07181472 0
25.85961 40.12531 0.07181472 0
25.75961 40.17531 0.1218147 0
25.85961 40.17531 0.1218147 0
25.95961 40.12531 0.07181472 0
26.05961 40.12531 0.07181472 0
25.95961 40.17531 0.1218147 0
26.15961 40.12531 0.1218147 0
26.20961 40.12531 0.1218147 0
26.25961 40.12531 0.1218147 0
26.40961 39.97531 0.1218147 0
26.35961 40.12531 0.1218147 0
26.45961 39.97531 0.1218147 0
26.45961 40.12531 0.1218147 0
26.55961 40.02531 0.1218147 0
26.60961 40.02531 0.1218147 0
26.55961 40.12531 0.1218147 0
26.65961 40.12531 0.1218147 0
26.70961 40.07531 0.07181472 0
26.70961 40.07531 0.1218147 0
25.20961 43.92531 0.2718147 0
25.20961 43.92531 0.3218147 0
25.20961 44.02531 0.2718147 0
25.20961 44.02531 0.3218147 0
25.20961 43.97531 0.3718147 0
25.20961 44.02531 0.4218147 0
25.20961 44.12531 0.2718147 0
25.20961 44.12531 0.3218147 0
25.20961 44.12531 0.4218147 0
25.30961 43.97531 0.2718147 0
25.20961 44.17531 0.2718147 0
25.25961 44.22531 0.3218147 0
25.25961 44.22531 0.4218147 0
25.40961 44.07531 0.2718147 0
25.50961 44.17531 0.1718147 0
25.55961 44.22531 0.3218147 0
25.60961 44.22531 0.3218147 0
25.55961 44.22531 0.3718147 0
25.55961 44.22531 0.4218147 0
25.60961 44.22531 0.4218147 0
25.55961 44.22531 0.4718147 0
25.60961 44.22531 0.4718147 0
25.60961 44.22531 0.5218147 0
26.80961 40.07531 0.07181472 0
26.80961 40.12531 0.1218147 0
26.85961 40.12531 0.1218147 0
26.90961 40.07531 0.07181472 0
26.90961 40.17531 0.1218147 0
26.95961 40.12531 0.1218147 0
27.05961 40.07531 0.07181472 0
27.05961 40.12531 0.1218147 0
27.10961 40.07531 0.07181472 0
27.10961 40.12531 0.1218147 0
27.00961 40.17531 0.1218147 0
27.15961 40.12531 0.1218147 0
27.25961 40.07531 0.07181472 0
27.25961 40.07531 0.1218147 0
27.25961 40.12531 0.1218147 0
27.30961 40.07531 0.07181472 0
27.35961 39.97531 0.1218147 0
27.35961 40.02531 0.1218147 0
27.35961 40.12531 0.1218147 0
27.40961 40.07531 0.07181472 0
27.40961 40.12531 0.1218147 0
27.45961 39.97531 0.1218147 0
27.50961 40.07531 0.07181472 0
27.50961 40.12531 0.1218147 0
27.55961 40.02531 0.07181472 0
27.60961 40.12531 0.1218147 0
27.70961 40.02531 0.07181472 0
27.70961 40.12531 0.1218147 0
27.80961 40.12531 0.1218147 0
27.85961 40.02531 0.07181472 0
27.90961 40.02531 0.1218147 0
28.00961 40.02531 0.1218147 0
27.95961 40.12531 0.07181472 0
28.05961 40.12531 0.07181472 0
28.10961 40.07531 0.1218147 0
28.20961 40.02531 0.1218147 0
28.30961 40.02531 0.1218147 0
28.40961 40.02531 0.1218147 0
28.50961 40.02531 0.1218147 0
28.60961 40.02531 0.1218147 0
28.70961 39.97531 0.07181472 0
28.70961 40.02531 0.1218147 0
28.65961 40.07531 0.07181472 0
28.80961 39.97531 0.07181472 0
28.80961 40.02531 0.1218147 0
28.75961 40.07531 0.07181472 0
28.85961 40.02531 0.07181472 0
28.90961 39.97531 0.07181472 0
28.90961 39.97531 0.1218147 0
28.90961 40.02531 0.1218147 0
28.95961 39.97531 0.1218147 0
29.00961 39.97531 0.07181472 0
29.00961 40.02531 0.1218147 0
29.00961 40.07531 0.07181472 0
29.05961 39.97531 0.1218147 0
29.10961 39.97531 0.07181472 0
29.10961 40.02531 0.1218147 0
29.05961 40.07531 0.07181472 0
29.10961 40.07531 0.07181472 0
29.15961 40.02531 0.07181472 0
29.15961 40.02531 0.1218147 0
29.20961 39.97531 0.07181472 0
29.20961 39.97531 0.1218147 0
29.15961 40.07531 0.1218147 0
29.30961 39.97531 0.07181472 0
29.25961 40.07531 0.07181472 0
29.25961 40.07531 0.1218147 0
29.30961 40.12531 0.1718147 0
29.25961 40.32531 0.1718147 0
29.35961 40.02531 0.07181472 0
29.40961 39.97531 0.07181472 0
29.35961 40.07531 0.1218147 0
29.45961 40.02531 0.07181472 0
29.45961 40.07531 0.1218147 0
29.25961 40.52531 0.1718147 0
29.55961 39.97531 0.07181472 0
29.60961 40.02531 0.1218147 0
29.55961 40.07531 0.1218147 0
29.60961 40.07531 0.07181472 0
29.65961 40.02531 0.07181472 0
29.70961 39.97531 0.07181472 0
29.75961 40.02531 0.07181472 0
29.75961 40.02531 0.1218147 0
29.85961 39.97531 0.07181472 0
29.85961 40.02531 0.07181472 0
29.85961 40.02531 0.1218147 0
29.90961 39.97531 0.1218147 0
29.25961 40.77531 0.1718147 0
29.20961 40.97531 0.1718147 0
29.20961 41.17531 0.1718147 0
29.15961 41.37531 0.1718147 0
29.15961 41.57531 0.1718147 0
29.15961 41.77531 0.1718147 0
29.20961 42.02531 0.1718147 0
29.15961 42.22531 0.1718147 0
29.15961 42.42531 0.1718147 0
29.15961 42.62531 0.1718147 0
29.15961 42.82531 0.1718147 0
29.15961 43.07531 0.1718147 0
27.45961 43.67531 0.3218147 0
27.50961 43.67531 0.2718147 0
27.50961 43.72531 0.3718147 0
27.50961 43.77531 0.2718147 0
27.50961 43.77531 0.3218147 0
27.50961 43.77531 0.4218147 0
27.50961 43.87531 0.2718147 0
27.50961 43.87531 0.3218147 0
27.50961 43.87531 0.4218147 0
27.50961 43.97531 0.2718147 0
27.50961 43.97531 0.3218147 0
27.50961 43.97531 0.4218147 0
27.60961 43.77531 0.2718147 0
27.70961 43.82531 0.2718147 0
27.80961 43.92531 0.1718147 0
27.75961 43.97531 0.1718147 0
27.85961 43.97531 0.3218147 0
27.90961 43.97531 0.2718147 0
27.90961 43.97531 0.3218147 0
27.85961 43.97531 0.4218147 0
27.90961 43.97531 0.3718147 0
27.90961 43.97531 0.4218147 0
27.85961 43.97531 0.5218147 0
29.20961 43.27531 0.1718147 0
29.20961 43.47531 0.1718147 0
29.20961 43.67531 0.1718147 0
29.25961 43.87531 0.1718147 0
29.55961 43.47531 0.2718147 0
29.55961 43.47531 0.3718147 0
29.55961 43.52531 0.4218147 0
29.55961 43.57531 0.2718147 0
29.55961 43.57531 0.3718147 0
29.55961 43.57531 0.4218147 0
29.55961 43.67531 0.2718147 0
29.60961 43.67531 0.3718147 0
29.60961 43.67531 0.4218147 0
29.70961 43.57531 0.3218147 0
29.60961 43.77531 0.2718147 0
29.60961 43.77531 0.3718147 0
29.60961 43.77531 0.4218147 0
29.85961 43.72531 0.1718147 0
29.80961 43.67531 0.3218147 0
29.85961 43.77531 0.1718147 0
29.90961 43.77531 0.3718147 0
29.25961 44.07531 0.1718147 0
29.25961 44.32531 0.1718147 0
29.30961 44.52531 0.1718147 0
29.30961 44.72531 0.1718147 0
29.35961 44.92531 0.1718147 0
31.25961 33.12531 0.8718147 0
31.45961 32.92531 0.8718147 0
31.50961 32.87531 0.9218147 0
31.35961 33.02531 0.8718147 0
31.35961 33.07531 0.9218147 0
31.45961 32.97531 0.9218147 0
31.45961 32.97531 0.9718148 0
31.45961 33.12531 1.221815 0
31.30961 32.97531 1.271815 0
31.20961 33.32531 0.9218147 0
31.30961 33.22531 0.9218147 0
31.30961 33.27531 0.9718148 0
31.20961 33.47531 0.8718147 0
31.25961 33.52531 0.8718147 0
31.30961 33.52531 0.8718147 0
31.30961 33.52531 0.9718148 0
31.30961 33.52531 1.221815 0
31.40961 33.17531 0.9718148 0
31.35961 33.32531 1.221815 0
31.40961 33.37531 0.9718148 0
31.35961 33.42531 1.221815 0
31.25961 33.27531 1.271815 0
31.45961 33.17531 1.271815 0
31.45961 33.27531 1.321815 0
31.45961 33.32531 1.271815 0
32.30961 31.07531 0.7718147 0
32.00961 31.42531 0.7718147 0
32.15961 31.27531 0.7718147 0
32.70961 30.87531 0.07181472 0
32.55961 31.02531 0.07181472 0
32.80961 30.67531 0.07181472 0
32.95961 30.52531 0.07181472 0
33.05961 30.37531 0.07181472 0
32.45961 31.22531 0.07181472 0
32.35961 31.37531 0.07181472 0
32.55961 31.92531 0.9218147 0
32.70961 31.92531 0.9218147 0
32.80961 31.92531 0.9218147 0
32.85961 31.82531 1.021815 0
32.85961 31.77531 1.121815 0
33.05961 31.82531 1.021815 0
33.05961 31.77531 1.071815 0
31.70961 32.62531 0.8718147 0
31.65961 32.72531 0.8718147 0
31.70961 32.67531 0.8718147 0
31.70961 32.67531 0.9218147 0
31.70961 32.72531 0.9718148 0
31.80961 32.52531 0.8718147 0
31.80961 32.52531 0.9218147 0
31.90961 32.37531 0.9218147 0
31.85961 32.47531 0.9218147 0
31.90961 32.52531 0.9718148 0
31.80961 32.57531 0.9218147 0
31.80961 32.62531 0.9718148 0
32.00961 32.27531 0.9218147 0
32.00961 32.32531 0.9218147 0
32.10961 32.17531 0.9218147 0
32.05961 32.27531 0.9218147 0
32.05961 32.27531 0.9718148 0
32.20961 32.02531 0.9218147 0
32.15961 32.07531 0.9218147 0
32.15961 32.12531 0.9218147 0
32.20961 32.07531 0.9218147 0
32.20961 32.12531 0.9718148 0
32.30961 32.02531 0.9218147 0
32.30961 32.12531 0.9718148 0
32.15961 32.17531 0.9718148 0
31.95961 32.37531 0.9218147 0
32.00961 32.42531 0.9718148 0
31.55961 32.82531 0.8718147 0
31.60961 32.77531 0.9218147 0
31.55961 32.92531 0.9718148 0
31.60961 32.87531 1.021815 0
31.65961 32.82531 0.9718148 0
31.55961 33.02531 1.021815 0
31.55961 33.22531 1.021815 0
31.55961 33.42531 1.021815 0
31.85961 33.42531 1.571815 0
32.35961 32.02531 0.9218147 0
32.40961 32.07531 0.9218147 0
32.45961 31.97531 0.9218147 0
32.45961 32.02531 0.9218147 0
32.45961 32.12531 0.9718148 0
32.55961 32.02531 0.9218147 0
32.60961 32.07531 0.9718148 0
32.65961 32.02531 0.9218147 0
32.70961 32.07531 0.9718148 0
32.75961 32.02531 0.9218147 0
32.80961 31.97531 0.9218147 0
32.90961 32.02531 0.9218147 0
32.85961 32.12531 0.9718148 0
32.95961 31.97531 0.9218147 0
33.00961 32.12531 0.9218147 0
33.05961 32.02531 0.9218147 0
33.10961 31.97531 0.9218147 0
33.10961 32.12531 0.9218147 0
32.95961 32.17531 0.9718148 0
33.05961 32.22531 1.021815 0
32.60961 33.42531 0.1218147 0
32.65961 33.52531 0.1718147 0
32.70961 33.47531 0.1718147 0
32.65961 33.52531 0.5218147 0
32.70961 33.47531 0.5218147 0
32.70961 33.52531 0.5218147 0
32.70961 33.47531 0.8218147 0
32.90961 33.12531 0.1218147 0
32.95961 33.12531 0.1718147 0
33.05961 33.02531 0.1218147 0
33.05961 33.02531 0.5718147 0
32.85961 33.27531 0.1718147 0
32.90961 33.27531 0.1718147 0
32.80961 33.42531 0.1718147 0
32.75961 33.52531 0.1718147 0
32.80961 33.47531 0.1718147 0
32.90961 33.22531 0.5718147 0
32.80961 33.42531 0.5218147 0
32.80961 33.47531 0.5218147 0
32.80961 33.47531 0.8218147 0
31.75961 32.72531 1.921815 0
31.60961 33.32531 1.721815 0
31.60961 33.27531 1.921815 0
31.60961 33.47531 1.921815 0
31.75961 33.27531 1.871815 0
31.75961 33.52531 1.871815 0
31.85961 33.42531 1.871815 0
31.90961 33.37531 1.971815 0
31.75961 33.52531 2.071815 0
31.90961 33.47531 2.221815 0
31.85961 33.37531 2.771815 0
31.90961 33.52531 2.721815 0
31.90961 33.17531 2.971815 0
32.20961 33.07531 2.571815 0
32.05961 33.12531 2.971815 0
32.05961 33.17531 2.571815 0
32.10961 33.22531 2.621815 0
32.05961 33.32531 2.571815 0
32.15961 33.47531 2.621815 0
32.30961 33.47531 2.671815 0
32.00961 33.17531 3.021815 0
32.05961 33.27531 3.071815 0
32.00961 33.47531 2.921815 0
32.10961 33.37531 2.971815 0
32.05961 33.52531 3.021815 0
32.25961 33.17531 3.071815 0
32.30961 33.47531 3.071815 0
32.90961 33.27531 2.371815 0
32.35961 33.52531 2.821815 0
32.85961 33.52531 3.121815 0
33.10961 33.42531 2.871815 0
33.05961 33.47531 3.121815 0
32.05961 33.27531 3.271815 0
32.15961 33.22531 3.371815 0
32.15961 33.37531 3.721815 0
33.10961 33.02531 3.521815 0
32.85961 33.32531 3.671815 0
32.75961 33.47531 3.771815 0
32.90961 33.42531 3.771815 0
33.05961 33.32531 3.671815 0
33.05961 33.37531 3.771815 0
33.65961 28.32531 1.371815 0
33.75961 28.52531 1.371815 0
33.90961 28.72531 1.371815 0
34.35961 28.72531 0.07181472 0
34.50961 28.57531 0.07181472 0
34.65961 28.42531 0.07181472 0
34.45961 28.57531 1.571815 0
34.60961 28.67531 1.571815 0
34.70961 28.57531 1.621815 0
34.70961 28.72531 1.571815 0
33.90961 28.07531 1.921815 0
33.90961 27.97531 2.071815 0
34.00961 28.27531 1.921815 0
34.05961 28.17531 2.071815 0
34.15961 28.32531 2.071815 0
34.10961 28.47531 1.921815 0
34.25961 28.57531 2.071815 0
34.55961 28.32531 2.121815 0
34.55961 28.47531 2.121815 0
34.70961 28.72531 2.071815 0
34.40961 28.02531 2.771815 0
34.70961 28.22531 2.621815 0
34.65961 28.32531 3.221815 0
34.40961 28.37531 2.771815 0
34.60961 28.42531 2.771815 0
34.70961 28.37531 2.671815 0
33.70961 29.52531 0.07181472 0
33.80961 29.37531 0.07181472 0
33.45961 29.87531 0.07181472 0
33.30961 30.02531 0.07181472 0
33.20961 30.17531 0.07181472 0
33.55961 29.72531 0.07181472 0
34.10961 29.07531 0.07181472 0
34.20961 28.92531 0.07181472 0
34.00961 29.02531 0.6718147 0
34.15961 29.12531 0.6718147 0
33.95961 29.22531 0.07181472 0
34.35961 29.22531 0.6718147 0
34.20961 28.87531 1.121815 0
34.30961 28.87531 1.071815 0
34.00961 28.92531 1.371815 0
34.20961 28.97531 1.371815 0
34.40961 28.82531 1.071815 0
34.35961 29.02531 1.121815 0
34.45961 28.97531 1.071815 0
34.50961 29.07531 1.071815 0
34.50961 29.07531 1.121815 0
34.60961 28.92531 1.071815 0
34.65961 29.07531 1.071815 0
34.65961 29.17531 1.071815 0
34.35961 28.77531 2.021815 0
34.55961 28.82531 2.021815 0
35.20961 27.87531 0.07181472 0
34.80961 28.27531 0.07181472 0
35.05961 27.97531 0.07181472 0
34.95961 28.17531 0.07181472 0
34.95961 28.72531 1.171815 0
34.75961 28.72531 1.571815 0
34.85961 28.62531 1.571815 0
35.00961 28.52531 1.621815 0
35.00961 28.67531 1.571815 0
35.15961 28.57531 1.621815 0
35.35961 28.67531 1.621815 0
35.70961 28.72531 1.121815 0
35.85961 28.72531 1.121815 0
35.55961 28.72531 1.621815 0
35.85961 28.72531 1.571815 0
36.05961 28.72531 1.121815 0
36.20961 28.72531 1.071815 0
36.25961 28.62531 1.071815 0
36.30961 28.57531 1.071815 0
36.25961 28.67531 1.071815 0
35.95961 28.72531 1.571815 0
36.00961 28.67531 1.621815 0
36.10961 28.67531 1.571815 0
36.30961 28.37531 1.571815 0
36.30961 28.47531 1.621815 0
36.15961 28.57531 1.621815 0
36.25961 28.57531 1.571815 0
34.90961 28.22531 1.721815 0
35.10961 28.32531 1.721815 0
35.10961 28.22531 2.271815 0
34.80961 28.47531 1.671815 0
34.75961 28.67531 2.071815 0
34.85961 28.57531 2.121815 0
34.85961 28.72531 2.071815 0
34.90961 28.72531 2.071815 0
34.95961 28.42531 2.171815 0
35.00961 28.62531 2.071815 0
35.30961 28.27531 2.221815 0
35.35961 28.42531 1.671815 0
35.15961 28.52531 2.171815 0
35.15961 28.67531 2.071815 0
35.50961 28.37531 2.221815 0
35.35961 28.57531 2.121815 0
35.35961 28.72531 2.071815 0
35.50961 28.62531 2.121815 0
35.45961 28.72531 2.071815 0
35.50961 28.67531 2.071815 0
35.50961 28.72531 2.071815 0
34.85961 28.12531 2.771815 0
35.05961 28.22531 2.721815 0
35.10961 28.27531 2.671815 0
34.85961 28.12531 3.171815 0
34.75961 28.17531 3.221815 0
34.90961 28.22531 3.221815 0
35.05961 28.12531 3.221815 0
35.05961 28.22531 3.171815 0
34.85961 28.52531 2.621815 0
34.90961 28.47531 2.621815 0
34.75961 28.57531 2.771815 0
34.95961 28.37531 2.621815 0
35.05961 28.42531 2.621815 0
35.05961 28.47531 2.621815 0
35.10961 28.47531 2.721815 0
35.05961 28.42531 3.171815 0
35.20961 28.12531 2.721815 0
35.40961 28.27531 2.721815 0
35.50961 28.32531 2.771815 0
35.40961 28.27531 3.221815 0
35.20961 28.52531 2.571815 0
35.20961 28.52531 2.621815 0
35.30961 28.42531 2.621815 0
35.25961 28.67531 2.721815 0
35.35961 28.47531 2.571815 0
35.35961 28.52531 2.621815 0
35.45961 28.42531 2.621815 0
35.45961 28.52531 2.721815 0
35.50961 28.57531 2.571815 0
35.50961 28.57531 2.621815 0
35.20961 28.52531 3.121815 0
35.30961 28.42531 3.121815 0
35.20961 28.57531 3.121815 0
35.50961 28.37531 3.171815 0
35.45961 28.47531 3.121815 0
35.50961 28.47531 3.121815 0
35.35961 28.57531 3.071815 0
35.35961 28.57531 3.121815 0
36.30961 27.92531 2.171815 0
35.85961 28.27531 2.221815 0
35.65961 28.62531 1.671815 0
35.80961 28.62531 1.671815 0
35.70961 28.42531 2.221815 0
35.65961 28.52531 2.121815 0
35.60961 28.57531 2.221815 0
35.65961 28.62531 2.071815 0
35.65961 28.67531 2.071815 0
35.65961 28.67531 2.121815 0
35.80961 28.47531 2.121815 0
35.80961 28.47531 2.221815 0
35.90961 28.52531 2.071815 0
35.75961 28.57531 2.071815 0
35.80961 28.57531 2.121815 0
35.80961 28.62531 2.071815 0
36.00961 28.22531 2.221815 0
36.25961 28.27531 2.121815 0
36.10961 28.47531 1.671815 0
35.95961 28.57531 1.671815 0
35.95961 28.42531 2.121815 0
35.95961 28.52531 2.071815 0
36.00961 28.47531 2.121815 0
36.05961 28.42531 2.071815 0
36.10961 28.37531 2.121815 0
36.10961 28.42531 2.071815 0
36.20961 28.37531 2.071815 0
35.65961 28.27531 2.771815 0
35.80961 28.32531 2.621815 0
35.90961 28.22531 2.621815 0
35.80961 28.17531 2.771815 0
35.75961 28.32531 2.671815 0
35.85961 28.17531 2.671815 0
35.90961 28.32531 2.671815 0
35.60961 28.32531 3.221815 0
35.70961 28.17531 3.221815 0
35.70961 28.22531 3.221815 0
35.65961 28.32531 3.121815 0
35.85961 28.07531 3.221815 0
35.80961 28.17531 3.171815 0
35.75961 28.27531 3.171815 0
35.85961 28.17531 3.171815 0
35.85961 28.17531 3.221815 0
35.60961 28.47531 2.621815 0
35.65961 28.52531 2.571815 0
35.65961 28.52531 2.621815 0
35.60961 28.42531 2.671815 0
35.65961 28.42531 2.771815 0
35.75961 28.42531 2.621815 0
35.80961 28.37531 2.771815 0
35.60961 28.42531 3.121815 0
36.00961 28.07531 2.721815 0
36.00961 28.12531 2.671815 0
35.95961 28.07531 2.771815 0
36.10961 28.07531 2.771815 0
36.15961 27.97531 2.721815 0
36.25961 27.97531 2.771815 0
36.00961 28.07531 3.171815 0
35.95961 28.17531 3.171815 0
34.75961 28.87531 1.121815 0
34.80961 29.02531 1.071815 0
35.00961 28.97531 1.121815 0
34.95961 29.12531 1.071815 0
35.05961 29.02531 1.071815 0
34.85961 28.82531 1.571815 0
34.90961 28.77531 1.571815 0
35.00961 28.82531 1.571815 0
35.05961 28.82531 1.571815 0
34.75961 29.22531 1.071815 0
34.80961 29.17531 1.071815 0
