# .PCD v0.7 - Point Cloud Data file format
VERSION 0.7
FIELDS x y z intensity
SIZE 4 4 4 4
TYPE F F F F
COUNT 1 1 1 1
WIDTH 1552
HEIGHT 1
VIEWPOINT 0 0 0 1 0 0 0
POINTS 1552
DATA ascii
147.7596 16.12531 2.071815 0
147.9096 16.07531 2.121815 0
147.8096 16.02531 2.271815 0
147.8096 16.02531 2.421815 0
147.8096 16.22531 2.221815 0
147.9096 16.17531 2.121815 0
147.8596 16.22531 2.171815 0
147.9096 16.32531 2.221815 0
147.9096 16.22531 2.371815 0
147.6096 16.37531 1.771815 0
147.7096 16.47531 1.771815 0
147.7096 16.47531 1.921815 0
147.8096 16.37531 1.671815 0
147.7596 16.42531 1.771815 0
147.8596 16.47531 1.671815 0
147.8596 16.47531 1.771815 0
147.7596 16.42531 1.921815 0
147.8596 16.52531 1.921815 0
147.9096 16.47531 1.921815 0
147.8596 16.62531 1.771815 0
147.9596 16.32531 1.721815 0
148.0096 16.22531 2.021815 0
148.0096 16.32531 1.871815 0
147.9596 15.97531 2.421815 0
147.9596 16.02531 2.421815 0
148.0596 16.07531 2.421815 0
148.0596 16.12531 2.421815 0
147.9596 16.32531 2.171815 0
148.1096 16.22531 2.121815 0
148.0096 16.22531 2.271815 0
148.1596 16.32531 2.171815 0
148.3096 16.27531 2.071815 0
148.3096 16.27531 2.171815 0
148.2596 16.17531 2.271815 0
148.0096 16.52531 1.771815 0
148.0596 16.47531 1.721815 0
148.0596 16.52531 1.971815 0
147.9596 16.57531 1.671815 0
148.1096 16.62531 1.821815 0
148.1096 16.67531 1.671815 0
148.0596 16.67531 1.771815 0
148.0596 16.57531 1.921815 0
148.2596 16.52531 1.971815 0
148.2596 16.67531 1.771815 0
148.2596 16.67531 1.821815 0
148.2596 16.62531 1.921815 0
148.0096 16.37531 2.371815 0
148.1096 16.52531 2.371815 0
148.3096 16.37531 2.171815 0
147.9096 16.07531 2.471815 0
147.9096 15.97531 2.721815 0
147.9096 15.97531 2.821815 0
147.9096 16.02531 2.821815 0
147.8096 16.02531 3.121815 0
148.0096 15.97531 2.521815 0
148.1096 16.07531 2.571815 0
148.1096 16.12531 2.621815 0
147.9596 16.07531 2.721815 0
148.0096 16.17531 2.471815 0
148.1096 16.27531 2.471815 0
148.0596 16.17531 2.721815 0
148.1596 16.02531 2.571815 0
148.2596 16.12531 2.621815 0
148.1596 16.12531 2.721815 0
148.2596 16.12531 2.771815 0
148.1596 16.22531 2.471815 0
148.2096 16.17531 2.471815 0
148.2096 16.17531 2.571815 0
148.2096 16.32531 2.621815 0
148.2596 16.27531 2.571815 0
148.1596 16.27531 2.721815 0
148.1596 16.32531 2.721815 0
148.3096 16.32531 2.721815 0
147.9596 16.02531 2.971815 0
148.0096 15.97531 2.971815 0
148.0096 16.12531 3.021815 0
148.0596 16.07531 2.971815 0
148.0096 16.07531 3.171815 0
147.9596 16.22531 2.921815 0
148.1096 16.27531 3.021815 0
148.2596 16.07531 3.221815 0
148.1596 16.22531 2.971815 0
148.3096 16.27531 3.021815 0
148.1596 16.42531 2.471815 0
148.3096 16.42531 2.721815 0
148.0596 15.12531 3.271815 0
148.1096 15.02531 3.571815 0
148.0596 15.12531 3.571815 0
148.1596 15.12531 3.421815 0
148.2596 15.07531 3.371815 0
148.1596 15.12531 3.621815 0
148.2596 15.12531 3.671815 0
148.3096 15.07531 3.871815 0
147.8096 15.27531 3.421815 0
147.9096 15.27531 3.271815 0
147.8096 15.42531 3.421815 0
147.8096 15.52531 3.371815 0
147.9096 15.52531 3.271815 0
147.9096 15.42531 3.571815 0
147.9096 15.62531 3.521815 0
147.9596 15.17531 3.271815 0
148.0596 15.22531 3.371815 0
148.1096 15.32531 3.421815 0
148.0596 15.27531 3.571815 0
147.9596 15.42531 3.271815 0
148.0096 15.42531 3.371815 0
148.0596 15.37531 3.371815 0
148.0596 15.47531 3.371815 0
148.1096 15.42531 3.621815 0
148.1096 15.52531 3.621815 0
148.1596 15.17531 3.371815 0
148.3096 15.32531 3.421815 0
148.1596 15.27531 3.621815 0
148.2096 15.37531 3.421815 0
148.1096 15.47531 3.721815 0
147.9596 15.52531 3.921815 0
148.2596 15.32531 3.721815 0
148.2596 15.27531 3.971815 0
148.2096 15.42531 3.671815 0
148.0096 15.57531 3.421815 0
148.0096 15.72531 3.421815 0
148.0596 15.62531 3.421815 0
148.1096 15.62531 3.421815 0
148.1096 15.72531 3.421815 0
148.1096 15.67531 3.521815 0
148.1096 15.67531 3.621815 0
147.9596 15.77531 3.321815 0
148.1096 15.87531 3.271815 0
148.1096 15.87531 3.521815 0
148.1596 15.67531 3.471815 0
148.1596 15.77531 3.471815 0
148.0596 15.67531 3.671815 0
148.1096 15.67531 3.721815 0
148.0096 15.72531 3.871815 0
148.0596 15.72531 4.021815 0
148.1096 15.82531 3.671815 0
148.1096 15.87531 3.871815 0
148.2096 15.57531 3.671815 0
148.2596 15.72531 3.721815 0
148.2596 15.72531 3.771815 0
148.3096 15.57531 3.921815 0
148.1596 15.82531 3.671815 0
148.2096 15.92531 3.671815 0
148.2096 15.77531 4.021815 0
148.2596 15.92531 4.021815 0
148.0596 15.47531 4.071815 0
148.1096 15.62531 4.071815 0
148.2596 15.67531 4.321815 0
147.9096 16.02531 3.321815 0
147.9596 16.02531 3.271815 0
148.1096 16.07531 3.321815 0
148.0596 16.02531 3.621815 0
148.1096 16.07531 3.471815 0
148.1596 16.07531 3.271815 0
148.2596 15.97531 3.471815 0
148.3096 16.07531 3.521815 0
148.2596 16.02531 3.671815 0
148.2096 16.02531 3.871815 0
148.2096 15.97531 4.021815 0
148.3596 15.37531 0.1218147 0
148.4096 15.52531 0.1218147 0
148.4596 15.37531 0.1218147 0
148.4596 15.47531 0.1218147 0
148.4596 15.52531 0.1218147 0
148.5596 15.37531 0.1218147 0
148.3596 15.37531 0.5218147 0
148.4096 15.47531 0.5218147 0
148.4596 15.37531 0.5218147 0
148.4596 15.52531 0.5218147 0
148.5096 15.52531 0.5718147 0
149.8096 15.07531 1.021815 0
149.2596 15.47531 1.021815 0
149.5096 15.47531 1.021815 0
149.8096 15.22531 1.021815 0
149.8596 15.32531 0.9718148 0
149.8096 15.37531 1.021815 0
149.8096 15.47531 0.9718148 0
149.5596 15.62531 1.021815 0
149.7596 15.57531 1.021815 0
149.8096 15.62531 0.9718148 0
149.7596 15.72531 1.021815 0
149.8096 15.77531 0.9718148 0
149.7596 15.87531 1.021815 0
149.8096 15.92531 0.9718148 0
148.4096 16.72531 1.221815 0
148.7096 16.62531 1.221815 0
148.7596 16.72531 0.9718148 0
148.9096 16.67531 1.121815 0
148.3596 16.87531 0.9218147 0
148.5096 16.82531 0.9718148 0
148.5596 16.82531 1.021815 0
148.6096 16.77531 1.121815 0
148.7096 16.87531 1.221815 0
148.3596 16.82531 1.621815 0
148.5096 16.87531 1.471815 0
148.5596 16.82531 1.321815 0
148.6096 16.92531 1.371815 0
148.7596 16.82531 0.9718148 0
148.8596 16.77531 1.021815 0
148.8596 16.97531 1.121815 0
149.0096 16.82531 1.221815 0
148.8596 16.77531 1.321815 0
149.0096 16.87531 1.321815 0
149.1596 16.67531 1.071815 0
149.7596 16.02531 0.9718148 0
149.8096 16.02531 0.9718148 0
148.3596 16.27531 2.071815 0
148.5096 16.32531 2.171815 0
148.4596 16.22531 2.321815 0
148.5596 16.32531 2.121815 0
148.6096 16.27531 2.321815 0
148.4596 16.72531 1.821815 0
148.4096 16.57531 1.971815 0
148.4096 16.72531 1.971815 0
148.5596 16.62531 1.971815 0
148.5096 16.42531 2.171815 0
148.5096 16.52531 2.271815 0
148.7096 16.37531 2.221815 0
148.6596 16.52531 2.171815 0
148.8596 16.62531 1.871815 0
148.8096 16.57531 2.221815 0
148.4096 16.27531 2.621815 0
148.4596 16.27531 2.621815 0
148.5596 16.32531 2.771815 0
148.4096 16.02531 2.921815 0
148.4096 16.07531 3.221815 0
148.5096 16.02531 3.071815 0
148.3596 16.22531 2.971815 0
148.5596 16.22531 3.021815 0
148.6096 16.22531 3.021815 0
148.4096 16.37531 2.471815 0
148.5096 16.42531 2.721815 0
148.6096 16.42531 2.621815 0
148.8096 16.32531 2.821815 0
148.3596 15.12531 3.421815 0
148.3596 15.02531 3.671815 0
148.4596 15.02531 3.921815 0
148.6596 15.07531 3.721815 0
148.5596 15.07531 4.021815 0
148.8096 15.07531 4.021815 0
148.4096 15.17531 3.971815 0
148.3596 15.32531 3.921815 0
148.4096 15.47531 3.971815 0
148.3596 15.82531 3.471815 0
148.3596 15.57531 3.771815 0
148.4096 15.92531 3.721815 0
148.5096 15.92531 3.921815 0
148.4596 15.27531 4.271815 0
148.4096 15.47531 4.321815 0
148.6596 15.22531 4.321815 0
148.5096 15.92531 4.071815 0
148.3596 15.87531 4.321815 0
148.5596 15.87531 4.321815 0
148.3596 16.07531 3.321815 0
148.3596 16.12531 3.321815 0
148.4596 16.02531 3.471815 0
148.4596 16.12531 3.521815 0
148.6096 16.07531 3.321815 0
148.4096 16.07531 3.671815 0
148.3596 16.07531 4.021815 0
148.6096 16.02531 3.921815 0
148.6596 15.97531 4.071815 0
146.4596 20.77531 0.07181472 0
146.6596 20.82531 0.07181472 0
146.8096 20.92531 0.07181472 0
147.0096 21.02531 0.07181472 0
147.2096 21.12531 0.07181472 0
147.4096 21.17531 0.07181472 0
147.6096 21.27531 0.07181472 0
147.8096 21.37531 0.07181472 0
147.9596 21.47531 0.07181472 0
148.1596 21.57531 0.07181472 0
148.3596 21.72531 0.07181472 0
148.5596 21.82531 0.07181472 0
148.7096 21.92531 0.07181472 0
148.9096 22.02531 0.07181472 0
149.0596 22.17531 0.07181472 0
149.2596 22.27531 0.07181472 0
149.4596 22.37531 0.07181472 0
156.6596 17.02531 4.721815 0
156.7596 17.22531 4.771815 0
156.8596 17.42531 4.771815 0
156.2596 17.92531 5.321815 0
156.1096 18.27531 5.421815 0
156.3096 17.97531 5.321815 0
156.2596 18.12531 5.421815 0
156.2596 18.22531 5.321815 0
156.2096 18.42531 5.421815 0
156.2096 18.52531 5.421815 0
156.3096 18.57531 5.321815 0
156.2596 18.72531 5.271815 0
156.1596 18.92531 5.371815 0
156.3096 18.82531 5.271815 0
156.9096 17.62531 4.771815 0
157.0596 17.77531 4.771815 0
157.0596 18.22531 4.771815 0
156.6096 18.52531 3.971815 0
156.7096 18.37531 4.021815 0
156.7096 18.72531 4.021815 0
156.7596 18.47531 4.021815 0
156.8096 18.57531 4.021815 0
156.8096 18.67531 4.021815 0
156.8096 18.77531 4.021815 0
156.7596 18.87531 3.971815 0
156.8096 18.92531 4.021815 0
156.9096 19.07531 4.021815 0
157.0096 19.07531 4.021815 0
156.6096 18.57531 4.121815 0
156.6096 18.72531 4.071815 0
156.7096 18.92531 4.071815 0
156.6596 19.02531 4.121815 0
156.8096 19.07531 4.071815 0
156.9596 18.97531 4.071815 0
157.0096 19.07531 4.721815 0
157.1596 18.42531 4.771815 0
157.1596 18.82531 4.771815 0
156.3596 18.12531 5.321815 0
156.4596 18.17531 5.371815 0
156.5096 18.32531 5.371815 0
156.3596 18.32531 5.471815 0
156.3596 18.37531 5.321815 0
156.4096 18.52531 5.321815 0
156.4596 18.37531 5.371815 0
156.3596 18.62531 5.421815 0
156.4596 18.57531 5.371815 0
156.5096 19.02531 5.421815 0
156.5596 18.77531 5.371815 0
156.6596 18.87531 5.371815 0
156.5596 18.97531 5.371815 0
156.6596 18.97531 5.421815 0
156.7096 19.07531 5.371815 0
156.5596 19.37531 3.971815 0
156.6596 19.52531 3.971815 0
156.6596 19.57531 4.021815 0
156.8096 19.17531 4.021815 0
156.8596 19.27531 4.021815 0
156.9596 19.27531 4.021815 0
156.7596 19.57531 3.971815 0
156.9096 19.27531 4.071815 0
156.8596 19.17531 4.771815 0
156.8596 19.27531 4.721815 0
156.8096 19.52531 4.671815 0
156.9596 19.27531 4.721815 0
157.0096 19.47531 4.721815 0
156.8096 19.67531 4.671815 0
156.8596 19.57531 4.771815 0
157.0096 19.72531 4.721815 0
156.9596 19.72531 4.771815 0
157.0096 19.87531 4.721815 0
157.1096 19.87531 4.721815 0
157.1096 20.27531 4.021815 0
156.8096 20.72531 3.271815 0
157.0096 20.52531 3.321815 0
156.7596 20.72531 3.971815 0
156.9096 20.12531 4.671815 0
157.0096 20.12531 4.671815 0
157.3096 19.87531 4.071815 0
157.2096 20.07531 4.071815 0
157.3596 20.07531 4.071815 0
156.5596 19.17531 5.421815 0
156.6096 19.17531 5.421815 0
156.6596 19.17531 5.371815 0
156.6596 19.32531 5.371815 0
156.5596 19.37531 5.371815 0
156.5596 19.42531 5.421815 0
156.5596 19.52531 5.321815 0
156.6596 19.37531 5.371815 0
156.4596 19.57531 5.371815 0
156.5096 19.62531 5.371815 0
156.4596 19.72531 5.271815 0
156.4096 19.77531 5.371815 0
156.4596 19.87531 5.321815 0
156.4596 19.92531 5.271815 0
156.6096 19.57531 5.321815 0
156.5596 19.82531 5.271815 0
156.4596 20.22531 5.221815 0
156.4096 20.12531 5.321815 0
156.4596 20.02531 5.271815 0
156.4096 20.77531 3.971815 0
156.6096 20.92531 4.021815 0
156.6596 20.87531 3.921815 0
156.8096 21.07531 3.371815 0
156.9096 20.97531 3.271815 0
156.9096 21.02531 3.271815 0
156.8096 21.07531 4.021815 0
156.8596 20.97531 3.921815 0
156.8596 21.02531 3.971815 0
157.0596 20.92531 4.021815 0
157.1096 21.12531 3.971815 0
157.0596 21.17531 3.371815 0
157.0596 21.17531 3.971815 0
156.4096 21.52531 4.521815 0
157.0096 21.22531 4.071815 0
157.0596 22.17531 3.971815 0
157.1096 22.22531 3.971815 0
157.0596 22.27531 4.021815 0
156.5096 21.82531 4.621815 0
156.5596 21.72531 4.571815 0
156.7096 21.72531 4.621815 0
156.6596 21.77531 4.571815 0
156.7096 21.97531 4.671815 0
156.7096 22.22531 4.771815 0
156.7596 21.87531 4.571815 0
156.9096 21.92531 4.671815 0
156.8096 21.97531 4.571815 0
156.9096 22.07531 4.621815 0
156.8596 22.12531 4.671815 0
157.0096 22.17531 4.621815 0
157.0596 22.22531 4.621815 0
157.0096 22.17531 4.721815 0
157.0096 22.32531 4.671815 0
157.1596 20.92531 3.321815 0
157.2096 21.12531 3.321815 0
157.2096 21.17531 3.321815 0
157.5096 21.27531 3.371815 0
157.3096 21.32531 4.021815 0
157.3596 21.32531 4.021815 0
157.7596 21.47531 3.421815 0
157.8096 21.47531 3.421815 0
157.5596 21.52531 4.071815 0
157.7096 21.92531 3.371815 0
157.7596 21.67531 3.371815 0
157.8596 21.87531 3.371815 0
157.6096 21.97531 3.421815 0
157.6596 22.12531 3.371815 0
157.5596 22.17531 3.421815 0
157.6096 22.32531 3.371815 0
157.8096 22.07531 3.371815 0
157.7596 22.32531 3.371815 0
157.2096 22.17531 4.071815 0
157.5596 21.72531 4.071815 0
156.8596 22.37531 4.071815 0
157.0596 22.47531 4.121815 0
156.8596 22.37531 4.771815 0
157.0596 22.37531 4.621815 0
157.0596 22.42531 4.621815 0
157.0596 22.37531 4.721815 0
157.0596 22.52531 4.671815 0
157.1096 22.57531 4.621815 0
157.1096 22.62531 4.621815 0
156.9596 22.57531 4.771815 0
157.0596 22.72531 4.671815 0
157.5096 22.37531 3.421815 0
157.2596 22.42531 4.021815 0
157.3096 22.37531 4.021815 0
157.3596 22.37531 3.971815 0
157.3596 22.57531 4.021815 0
157.3596 22.62531 4.021815 0
157.4596 22.57531 4.021815 0
157.3096 22.97531 4.021815 0
157.3596 22.77531 4.021815 0
157.3596 22.82531 4.021815 0
157.4096 22.77531 3.971815 0
157.4096 22.97531 3.971815 0
157.3596 23.07531 4.021815 0
157.6096 22.52531 3.371815 0
157.7096 22.52531 3.371815 0
157.3096 22.37531 4.071815 0
157.1596 22.67531 4.121815 0
157.2596 22.57531 4.071815 0
157.1596 22.92531 4.071815 0
157.2596 22.77531 4.071815 0
157.2096 22.97531 4.071815 0
157.1596 23.12531 4.071815 0
157.3096 23.17531 3.971815 0
157.3096 23.37531 3.971815 0
157.4096 23.22531 3.971815 0
157.3596 23.27531 4.021815 0
157.4096 23.42531 3.971815 0
157.3596 23.47531 4.021815 0
157.1596 23.37531 4.071815 0
135.0096 27.17531 0.02181472 0
135.4096 28.27531 0.02181472 0
135.4596 28.22531 0.02181472 0
135.5096 28.17531 0.02181472 0
135.3096 28.57531 0.02181472 0
135.2596 28.67531 0.02181472 0
135.4096 28.37531 0.02181472 0
135.3596 28.47531 0.02181472 0
135.1096 29.07531 0.02181472 0
135.1096 29.12531 0.02181472 0
135.0096 29.32531 0.02181472 0
135.1096 29.22531 0.02181472 0
135.0596 29.27531 0.02181472 0
135.0596 29.32531 0.02181472 0
135.1096 29.27531 0.02181472 0
135.0096 29.52531 0.02181472 0
135.0596 29.42531 0.02181472 0
135.2096 28.77531 0.02181472 0
135.1596 28.92531 0.02181472 0
135.1596 29.02531 0.02181472 0
135.3096 29.12531 0.02181472 0
135.4096 29.02531 0.02181472 0
135.3596 29.07531 0.02181472 0
135.5096 28.97531 0.02181472 0
135.2096 29.22531 0.02181472 0
135.0096 29.62531 0.02181472 0
135.0096 29.72531 0.02181472 0
135.0096 29.92531 0.02181472 0
135.0096 30.57531 0.02181472 0
135.0096 30.62531 0.02181472 0
135.0096 30.72531 0.02181472 0
135.0096 30.87531 0.02181472 0
135.0596 30.92531 0.02181472 0
135.0596 31.02531 0.02181472 0
135.0596 31.12531 0.02181472 0
135.5096 30.82531 -0.02818528 0
135.4596 30.92531 -0.02818528 0
135.4096 31.12531 -0.02818528 0
135.4596 31.02531 -0.02818528 0
135.1096 31.22531 0.02181472 0
135.0096 31.72531 0.02181472 0
135.1096 31.62531 0.02181472 0
135.0596 31.67531 0.02181472 0
135.1596 31.32531 0.02181472 0
135.1596 31.42531 0.02181472 0
135.2096 31.52531 0.02181472 0
135.3096 31.42531 -0.02818528 0
135.3096 31.42531 0.02181472 0
135.2596 31.47531 0.02181472 0
135.3096 31.52531 -0.02818528 0
135.3596 31.22531 -0.02818528 0
135.3596 31.32531 -0.02818528 0
135.4596 31.32531 0.02181472 0
135.5096 31.27531 0.02181472 0
135.3596 31.37531 0.02181472 0
135.1596 31.57531 0.02181472 0
135.2096 31.62531 0.02181472 0
135.2596 31.57531 -0.02818528 0
135.2596 31.67531 -0.02818528 0
135.2096 31.87531 -0.02818528 0
135.2596 31.77531 -0.02818528 0
135.2096 31.97531 -0.02818528 0
135.2096 32.07531 -0.02818528 0
135.2096 32.17531 -0.02818528 0
135.2096 32.27531 -0.02818528 0
135.2096 32.37531 -0.02818528 0
135.1596 32.47531 -0.02818528 0
135.2096 32.57531 -0.02818528 0
135.2096 32.67531 -0.02818528 0
135.0096 33.17531 -0.02818528 0
135.0596 33.17531 -0.02818528 0
135.0096 33.52531 0.02181472 0
135.1096 33.52531 0.02181472 0
135.2096 32.77531 -0.02818528 0
135.2096 32.87531 -0.02818528 0
135.2096 32.97531 -0.02818528 0
135.2596 33.07531 -0.02818528 0
135.1596 33.17531 -0.02818528 0
135.2096 33.17531 -0.02818528 0
135.2596 33.17531 -0.02818528 0
135.3096 33.17531 -0.02818528 0
135.2596 33.27531 -0.02818528 0
135.2096 33.47531 0.02181472 0
135.2096 33.52531 0.02181472 0
135.3096 33.37531 -0.02818528 0
135.3096 33.42531 -0.02818528 0
135.2596 33.52531 0.02181472 0
135.3096 33.47531 0.02181472 0
135.3596 33.17531 -0.02818528 0
135.4596 33.17531 -0.02818528 0
135.5096 33.17531 -0.02818528 0
135.4096 33.42531 0.02181472 0
135.3596 33.47531 -0.02818528 0
135.3596 33.52531 -0.02818528 0
135.5096 33.37531 0.02181472 0
135.5096 33.42531 0.02181472 0
135.5096 33.47531 -0.02818528 0
135.5096 33.52531 -0.02818528 0
135.9096 27.37531 0.02181472 0
135.9096 27.47531 0.02181472 0
135.7096 27.82531 0.02181472 0
135.6596 27.87531 0.02181472 0
135.6596 27.92531 0.02181472 0
135.8096 27.72531 0.02181472 0
135.9096 27.57531 0.02181472 0
135.9096 27.62531 0.02181472 0
135.8596 27.67531 0.02181472 0
135.8596 27.77531 0.02181472 0
135.8596 27.87531 0.02181472 0
135.9596 27.17531 0.02181472 0
135.9596 27.27531 0.02181472 0
135.9596 27.37531 0.02181472 0
135.9596 27.52531 0.02181472 0
136.0096 27.47531 0.02181472 0
136.1096 27.37531 0.02181472 0
136.1596 27.32531 0.02181472 0
136.2096 27.27531 0.02181472 0
136.2596 27.22531 0.02181472 0
135.6096 28.02531 0.02181472 0
135.5596 28.07531 0.02181472 0
135.5596 28.12531 0.02181472 0
135.8596 27.97531 0.02181472 0
135.8596 28.07531 0.02181472 0
135.8596 28.17531 0.02181472 0
135.8596 28.27531 0.02181472 0
135.9096 28.37531 0.02181472 0
135.9096 28.47531 0.02181472 0
135.9096 28.57531 0.02181472 0
135.8596 28.72531 0.02181472 0
135.9596 28.67531 0.02181472 0
136.0596 28.62531 0.02181472 0
136.2596 28.52531 0.02181472 0
136.1596 28.57531 0.02181472 0
136.2096 28.57531 0.02181472 0
136.6096 27.27531 0.02181472 0
136.6596 27.17531 0.02181472 0
136.6596 27.22531 0.02181472 0
136.6096 27.37531 0.02181472 0
136.5596 27.47531 0.02181472 0
136.5596 27.52531 0.02181472 0
136.5096 27.67531 0.02181472 0
136.5096 27.77531 0.02181472 0
136.5096 27.87531 0.02181472 0
136.5096 27.92531 0.02181472 0
136.5596 27.57531 0.02181472 0
137.1096 27.22531 0.02181472 0
137.0596 27.27531 0.02181472 0
137.0596 27.32531 0.02181472 0
137.0096 27.42531 0.02181472 0
137.0096 27.52531 0.02181472 0
136.9096 27.82531 -0.02818528 0
136.9596 27.57531 -0.02818528 0
136.9596 27.62531 0.02181472 0
136.9596 27.72531 0.02181472 0
136.9596 27.92531 0.02181472 0
136.5096 27.97531 0.02181472 0
136.5096 28.07531 0.02181472 0
136.5096 28.17531 0.02181472 0
136.5596 28.27531 0.02181472 0
136.6096 28.32531 0.02181472 0
136.7096 28.27531 0.02181472 0
136.3596 28.47531 0.02181472 0
136.4596 28.42531 0.02181472 0
136.5096 28.37531 0.02181472 0
136.5596 28.37531 0.02181472 0
136.6096 28.47531 -0.02818528 0
136.7096 28.42531 0.02181472 0
136.6596 28.52531 0.02181472 0
136.7096 28.47531 0.02181472 0
136.5596 28.62531 0.02181472 0
136.6096 28.57531 -0.02818528 0
136.6096 28.57531 0.02181472 0
136.5596 28.72531 0.02181472 0
136.6596 28.67531 -0.02818528 0
136.9096 27.97531 -0.02818528 0
136.8096 28.27531 0.02181472 0
136.8096 28.32531 0.02181472 0
136.8596 28.22531 0.02181472 0
136.9096 28.17531 0.02181472 0
136.9096 28.22531 0.02181472 0
136.8596 28.27531 0.02181472 0
136.9596 28.02531 -0.02818528 0
136.9596 28.12531 0.02181472 0
137.0096 28.12531 0.02181472 0
137.0596 28.07531 0.02181472 0
137.1096 28.12531 0.02181472 0
136.9596 28.17531 -0.02818528 0
136.9596 28.22531 0.02181472 0
137.0096 28.17531 0.02181472 0
136.9596 28.27531 0.02181472 0
136.9596 28.32531 -0.02818528 0
136.9596 28.32531 0.02181472 0
136.7596 28.37531 0.02181472 0
137.0096 28.42531 -0.02818528 0
137.0596 28.52531 -0.02818528 0
137.0596 28.62531 -0.02818528 0
135.5596 28.92531 0.02181472 0
135.7096 28.82531 0.02181472 0
135.6596 28.87531 0.02181472 0
135.7596 28.77531 0.02181472 0
135.8096 28.77531 0.02181472 0
136.0096 28.77531 0.02181472 0
136.0096 28.87531 0.02181472 0
136.0596 28.97531 -0.02818528 0
136.0596 28.97531 0.02181472 0
136.0596 29.02531 0.02181472 0
136.3096 29.17531 0.02181472 0
136.2596 29.27531 0.02181472 0
136.3096 29.27531 0.02181472 0
136.2096 29.47531 0.02181472 0
136.2096 29.52531 0.02181472 0
136.2596 29.37531 0.02181472 0
135.8096 30.27531 -0.02818528 0
135.8596 30.22531 -0.02818528 0
135.9096 30.17531 -0.02818528 0
136.1096 29.87531 -0.02818528 0
136.2096 29.57531 0.02181472 0
136.1596 29.67531 0.02181472 0
136.3096 29.62531 -0.02818528 0
136.2596 29.72531 -0.02818528 0
136.1596 29.77531 -0.02818528 0
136.1596 29.77531 0.02181472 0
136.1596 29.87531 0.02181472 0
136.1596 29.92531 0.02181472 0
135.9596 30.07531 -0.02818528 0
136.0596 29.97531 -0.02818528 0
136.1096 30.17531 0.02181472 0
136.1596 29.97531 0.02181472 0
136.1596 30.07531 0.02181472 0
136.1596 30.27531 0.02181472 0
136.4596 28.77531 0.02181472 0
136.4596 28.87531 0.02181472 0
136.4596 28.92531 0.02181472 0
136.3596 29.02531 0.02181472 0
136.4096 28.97531 0.02181472 0
136.3596 29.07531 0.02181472 0
136.6596 28.77531 -0.02818528 0
136.4096 29.52531 -0.02818528 0
136.5096 29.47531 -0.02818528 0
136.6596 29.32531 -0.02818528 0
136.7096 29.27531 -0.02818528 0
136.5596 29.37531 -0.02818528 0
136.8596 29.12531 -0.02818528 0
136.9596 29.12531 -0.02818528 0
137.0096 29.07531 -0.02818528 0
137.0596 29.02531 -0.02818528 0
137.1096 28.97531 -0.02818528 0
137.1096 28.97531 0.02181472 0
137.0596 29.07531 0.02181472 0
136.7596 29.22531 -0.02818528 0
136.8096 29.17531 -0.02818528 0
136.9096 29.37531 0.02181472 0
136.8596 29.52531 0.02181472 0
136.9096 29.47531 0.02181472 0
137.0096 29.17531 0.02181472 0
137.0096 29.22531 0.02181472 0
136.9596 29.27531 0.02181472 0
136.3596 29.57531 -0.02818528 0
136.8096 29.72531 0.02181472 0
136.8596 29.62531 0.02181472 0
136.8596 29.67531 0.02181472 0
136.8096 29.82531 0.02181472 0
136.8096 29.92531 0.02181472 0
136.8096 30.02531 0.02181472 0
136.7596 30.12531 0.02181472 0
136.7596 30.22531 0.02181472 0
136.8096 30.17531 0.02181472 0
136.8096 30.32531 0.02181472 0
137.3096 27.47531 0.02181472 0
137.4096 27.22531 0.02181472 0
137.3596 27.27531 0.02181472 0
137.4596 27.17531 0.02181472 0
137.3596 27.37531 0.02181472 0
137.2596 27.62531 0.02181472 0
137.3096 27.57531 0.02181472 0
137.2596 27.67531 -0.02818528 0
137.2096 27.82531 -0.02818528 0
137.2096 27.92531 -0.02818528 0
137.2096 27.92531 0.02181472 0
137.2596 27.87531 0.02181472 0
137.2596 27.92531 0.02181472 0
137.4596 27.57531 -0.02818528 0
137.5096 27.57531 -0.02818528 0
137.4596 27.67531 -0.02818528 0
137.4596 27.72531 0.02181472 0
137.3596 27.82531 0.02181472 0
137.4096 27.77531 0.02181472 0
137.4596 27.77531 -0.02818528 0
137.4596 27.87531 -0.02818528 0
137.6096 27.27531 -0.02818528 0
137.6096 27.32531 -0.02818528 0
137.6596 27.22531 -0.02818528 0
137.5596 27.37531 -0.02818528 0
137.5596 27.47531 -0.02818528 0
137.9096 27.52531 0.02181472 0
137.5596 27.72531 0.02181472 0
137.6096 27.67531 0.02181472 0
137.6596 27.62531 0.02181472 0
137.7096 27.57531 0.02181472 0
137.6596 27.92531 0.02181472 0
137.8096 27.57531 0.02181472 0
137.8096 27.92531 0.02181472 0
137.9096 27.87531 0.02181472 0
137.1596 27.97531 0.02181472 0
137.2096 27.97531 -0.02818528 0
137.2096 28.12531 0.02181472 0
137.2596 28.02531 0.02181472 0
137.2596 28.07531 -0.02818528 0
137.3096 28.07531 0.02181472 0
137.2596 28.17531 -0.02818528 0
137.2596 28.27531 -0.02818528 0
137.4096 27.97531 -0.02818528 0
137.4096 28.02531 0.02181472 0
137.4596 27.97531 -0.02818528 0
137.5096 28.02531 0.02181472 0
137.4596 28.07531 -0.02818528 0
137.4596 28.07531 0.02181472 0
137.4596 28.17531 -0.02818528 0
137.4596 28.17531 0.02181472 0
137.4596 28.27531 -0.02818528 0
137.3096 28.37531 -0.02818528 0
137.3096 28.42531 -0.02818528 0
137.3096 28.47531 -0.02818528 0
137.3096 28.72531 0.02181472 0
137.5096 28.37531 -0.02818528 0
137.3596 28.67531 0.02181472 0
137.4596 28.57531 0.02181472 0
137.5096 28.57531 0.02181472 0
137.6096 27.97531 0.02181472 0
137.7596 28.32531 0.02181472 0
137.8096 28.27531 0.02181472 0
137.9096 28.22531 0.02181472 0
137.5596 28.42531 -0.02818528 0
137.6096 28.42531 0.02181472 0
137.5596 28.52531 0.02181472 0
137.6096 28.47531 0.02181472 0
137.7096 28.37531 0.02181472 0
137.6096 28.72531 -0.02818528 0
137.7096 28.67531 -0.02818528 0
137.8096 28.67531 -0.02818528 0
137.9096 28.62531 -0.02818528 0
138.0096 27.47531 0.02181472 0
138.1096 27.47531 0.02181472 0
138.2096 27.42531 0.02181472 0
138.3096 27.37531 0.02181472 0
138.0096 27.87531 0.02181472 0
138.1096 27.87531 0.02181472 0
138.1596 27.87531 0.02181472 0
138.2596 27.82531 0.02181472 0
138.4096 27.37531 0.02181472 0
138.5096 27.37531 0.02181472 0
138.6096 27.32531 0.02181472 0
138.7096 27.32531 0.02181472 0
138.4096 27.82531 0.02181472 0
138.4596 27.77531 0.02181472 0
138.5596 27.77531 0.02181472 0
138.6596 27.77531 0.02181472 0
137.9596 28.22531 0.02181472 0
138.0096 28.17531 0.02181472 0
138.1096 28.17531 0.02181472 0
138.1596 28.12531 0.02181472 0
138.3096 28.02531 0.02181472 0
138.2596 28.07531 0.02181472 0
138.1096 28.52531 -0.02818528 0
138.0096 28.57531 -0.02818528 0
137.9596 28.67531 0.02181472 0
137.9596 28.72531 0.02181472 0
138.0596 28.57531 -0.02818528 0
138.0596 28.62531 0.02181472 0
138.1096 28.62531 0.02181472 0
138.2096 28.52531 -0.02818528 0
138.2596 28.47531 -0.02818528 0
138.2596 28.52531 0.02181472 0
138.3096 28.47531 0.02181472 0
138.1596 28.57531 0.02181472 0
138.3596 28.02531 0.02181472 0
138.4096 28.02531 0.02181472 0
138.4596 28.02531 0.02181472 0
138.5596 27.97531 0.02181472 0
138.6596 27.97531 0.02181472 0
138.4096 28.47531 -0.02818528 0
138.5096 28.42531 0.02181472 0
138.4596 28.47531 0.02181472 0
138.5096 28.47531 -0.02818528 0
138.5596 28.42531 -0.02818528 0
138.5596 28.42531 0.02181472 0
138.6096 28.37531 0.02181472 0
138.6096 28.42531 0.02181472 0
138.7096 28.37531 0.02181472 0
138.7096 28.42531 -0.02818528 0
138.5596 28.72531 0.02181472 0
138.6596 28.67531 0.02181472 0
137.1596 28.92531 -0.02818528 0
137.1596 28.92531 0.02181472 0
137.2096 28.87531 0.02181472 0
137.2596 28.82531 0.02181472 0
137.3096 28.77531 0.02181472 0
137.2596 28.92531 -0.02818528 0
137.3096 28.87531 -0.02818528 0
137.4096 28.82531 -0.02818528 0
137.5096 28.77531 -0.02818528 0
137.5096 29.12531 0.02181472 0
137.3096 29.52531 0.02181472 0
137.4096 29.32531 0.02181472 0
137.5096 29.17531 0.02181472 0
137.4596 29.27531 0.02181472 0
137.3596 29.37531 0.02181472 0
137.3596 29.42531 0.02181472 0
137.7096 28.92531 0.02181472 0
137.6096 29.02531 0.02181472 0
137.5596 29.07531 0.02181472 0
137.6596 28.97531 0.02181472 0
137.8096 28.82531 0.02181472 0
137.7596 28.87531 0.02181472 0
137.8596 28.77531 0.02181472 0
137.8596 29.12531 0.02181472 0
137.7096 29.37531 0.02181472 0
137.7096 29.42531 0.02181472 0
137.6596 29.47531 0.02181472 0
137.7596 29.32531 0.02181472 0
137.8096 29.27531 0.02181472 0
137.8596 29.22531 0.02181472 0
137.9096 29.42531 0.02181472 0
137.9096 29.47531 0.02181472 0
137.2596 29.62531 0.02181472 0
137.3096 29.57531 0.02181472 0
137.2596 29.72531 0.02181472 0
137.2096 29.77531 0.02181472 0
137.2096 29.87531 0.02181472 0
137.5096 29.82531 0.02181472 0
137.5096 29.92531 0.02181472 0
137.2096 29.97531 0.02181472 0
137.2096 30.07531 0.02181472 0
137.1596 30.17531 -0.02818528 0
137.2096 30.17531 0.02181472 0
137.2096 30.22531 0.02181472 0
137.1596 30.32531 0.02181472 0
137.2096 30.27531 0.02181472 0
137.2596 30.27531 0.02181472 0
137.2596 30.32531 -0.02818528 0
137.3096 30.27531 -0.02818528 0
137.3096 30.27531 0.02181472 0
137.5096 30.02531 0.02181472 0
137.4596 30.12531 0.02181472 0
137.5096 30.12531 0.02181472 0
137.3596 30.22531 -0.02818528 0
137.4096 30.22531 -0.02818528 0
137.4596 30.17531 -0.02818528 0
137.4596 30.22531 0.02181472 0
137.5096 30.22531 0.02181472 0
137.5096 30.32531 -0.02818528 0
137.6096 29.57531 0.02181472 0
137.6096 29.62531 0.02181472 0
137.5596 29.72531 0.02181472 0
137.7096 29.87531 0.02181472 0
137.8096 29.67531 0.02181472 0
137.8596 29.57531 0.02181472 0
137.7596 29.77531 0.02181472 0
137.7596 29.82531 -0.02818528 0
137.8596 29.92531 -0.02818528 0
137.9096 29.87531 -0.02818528 0
137.5596 30.07531 -0.02818528 0
137.6596 30.02531 -0.02818528 0
137.7096 29.97531 -0.02818528 0
137.7096 30.02531 0.02181472 0
137.6596 30.07531 -0.02818528 0
137.6596 30.12531 0.02181472 0
137.7096 30.12531 0.02181472 0
137.5596 30.17531 0.02181472 0
137.6096 30.17531 0.02181472 0
137.7096 30.17531 0.02181472 0
137.7096 30.22531 -0.02818528 0
137.7096 30.27531 0.02181472 0
137.7096 30.32531 -0.02818528 0
137.7596 29.97531 -0.02818528 0
137.7596 30.12531 0.02181472 0
137.8596 30.12531 0.02181472 0
138.0096 29.02531 0.02181472 0
137.9596 29.07531 0.02181472 0
138.0596 28.97531 0.02181472 0
138.1096 28.97531 0.02181472 0
138.1596 28.87531 0.02181472 0
138.2096 28.87531 0.02181472 0
138.2596 28.82531 0.02181472 0
138.2096 29.12531 0.02181472 0
138.3096 29.07531 0.02181472 0
138.0096 29.32531 0.02181472 0
138.1096 29.22531 0.02181472 0
138.0596 29.27531 0.02181472 0
137.9596 29.37531 0.02181472 0
138.1596 29.17531 0.02181472 0
138.3596 28.77531 0.02181472 0
138.4596 28.77531 0.02181472 0
138.3596 29.02531 -0.02818528 0
138.4096 29.02531 0.02181472 0
138.5096 28.97531 0.02181472 0
138.6096 28.92531 -0.02818528 0
138.6096 28.92531 0.02181472 0
138.6596 28.92531 0.02181472 0
138.7096 28.92531 0.02181472 0
137.9596 29.82531 -0.02818528 0
137.9596 29.87531 -0.02818528 0
138.0596 29.82531 -0.02818528 0
138.2096 29.72531 -0.02818528 0
138.2596 29.72531 -0.02818528 0
138.3096 29.67531 -0.02818528 0
138.1596 29.77531 -0.02818528 0
137.9596 30.07531 0.02181472 0
138.0096 30.07531 0.02181472 0
138.1096 30.02531 0.02181472 0
138.2596 30.02531 0.02181472 0
138.4596 29.67531 -0.02818528 0
138.5596 29.62531 -0.02818528 0
138.6096 29.62531 -0.02818528 0
138.7096 29.62531 -0.02818528 0
138.6096 29.92531 0.02181472 0
138.3596 29.97531 0.02181472 0
138.4596 29.97531 0.02181472 0
138.5096 29.97531 0.02181472 0
138.5096 30.32531 -0.02818528 0
138.5596 30.32531 -0.02818528 0
138.6096 30.27531 -0.02818528 0
138.7096 30.27531 -0.02818528 0
135.6596 30.52531 -0.02818528 0
135.7096 30.47531 -0.02818528 0
135.6096 30.62531 -0.02818528 0
135.5596 30.72531 -0.02818528 0
135.7596 30.37531 -0.02818528 0
135.7596 30.42531 -0.02818528 0
135.6596 31.12531 0.02181472 0
135.7096 31.12531 0.02181472 0
135.8096 31.07531 0.02181472 0
135.8596 31.02531 0.02181472 0
136.1596 30.37531 0.02181472 0
136.1596 30.47531 0.02181472 0
136.1596 30.57531 0.02181472 0
136.1596 30.67531 0.02181472 0
136.0096 30.92531 0.02181472 0
136.1096 30.87531 0.02181472 0
135.9596 30.97531 0.02181472 0
136.1596 30.82531 0.02181472 0
136.2096 30.77531 0.02181472 0
136.2096 30.87531 0.02181472 0
136.2596 30.77531 0.02181472 0
136.2596 30.97531 0.02181472 0
136.2596 31.07531 0.02181472 0
135.5596 31.22531 0.02181472 0
135.6096 31.22531 0.02181472 0
136.3096 31.17531 0.02181472 0
136.3096 31.92531 -0.02818528 0
136.3596 30.72531 0.02181472 0
136.4096 30.67531 0.02181472 0
136.4596 30.67531 0.02181472 0
136.5596 30.57531 0.02181472 0
136.6596 30.57531 0.02181472 0
136.7096 31.02531 -0.02818528 0
136.7096 31.07531 -0.02818528 0
136.8096 30.42531 0.02181472 0
136.7596 30.52531 0.02181472 0
136.8096 30.52531 0.02181472 0
136.8596 30.42531 0.02181472 0
136.8096 30.62531 0.02181472 0
136.8596 30.62531 0.02181472 0
136.8596 30.72531 0.02181472 0
136.9096 30.72531 -0.02818528 0
136.9596 30.42531 0.02181472 0
137.0596 30.37531 0.02181472 0
137.1096 30.52531 -0.02818528 0
137.0096 30.62531 -0.02818528 0
136.9596 30.67531 -0.02818528 0
137.0596 30.57531 -0.02818528 0
136.8096 30.87531 -0.02818528 0
136.8596 30.82531 -0.02818528 0
136.8596 30.82531 0.02181472 0
136.9096 30.77531 -0.02818528 0
136.9096 30.92531 -0.02818528 0
136.7596 30.97531 -0.02818528 0
136.9096 30.97531 -0.02818528 0
137.1096 31.12531 -0.02818528 0
136.3596 31.27531 0.02181472 0
136.5096 31.52531 -0.02818528 0
136.6096 31.27531 -0.02818528 0
136.6596 31.17531 -0.02818528 0
136.5596 31.42531 -0.02818528 0
136.6596 31.52531 -0.02818528 0
136.7096 31.52531 -0.02818528 0
136.4596 31.62531 -0.02818528 0
136.4596 31.72531 -0.02818528 0
136.4096 31.77531 -0.02818528 0
136.4096 31.82531 -0.02818528 0
136.3596 31.87531 -0.02818528 0
136.4096 31.92531 -0.02818528 0
136.4596 31.77531 -0.02818528 0
136.6096 31.62531 -0.02818528 0
136.5596 31.67531 -0.02818528 0
136.9096 31.32531 -0.02818528 0
136.8096 31.42531 -0.02818528 0
136.7596 31.47531 -0.02818528 0
137.0096 31.22531 -0.02818528 0
136.9596 31.27531 -0.02818528 0
137.0596 31.17531 -0.02818528 0
137.1096 31.72531 -0.02818528 0
137.0596 31.82531 -0.02818528 0
137.0596 31.92531 -0.02818528 0
135.9096 32.42531 -0.02818528 0
135.9096 32.52531 -0.02818528 0
135.8096 32.62531 -0.02818528 0
135.8096 32.72531 -0.02818528 0
135.8596 32.57531 -0.02818528 0
136.0096 32.32531 -0.02818528 0
136.0596 32.22531 -0.02818528 0
136.1096 32.17531 -0.02818528 0
136.1596 32.07531 -0.02818528 0
136.2596 31.97531 -0.02818528 0
135.9596 32.37531 -0.02818528 0
135.6596 32.97531 -0.02818528 0
135.6596 33.07531 -0.02818528 0
135.7596 32.82531 -0.02818528 0
135.9096 33.12531 0.02181472 0
135.6096 33.17531 -0.02818528 0
135.5596 33.27531 -0.02818528 0
135.6096 33.32531 0.02181472 0
135.6596 33.22531 -0.02818528 0
135.6596 33.27531 0.02181472 0
135.5596 33.37531 -0.02818528 0
135.6096 33.42531 0.02181472 0
135.7096 33.37531 0.02181472 0
135.7596 33.22531 -0.02818528 0
135.7596 33.22531 0.02181472 0
135.8096 33.22531 -0.02818528 0
135.8596 33.17531 0.02181472 0
135.8596 33.22531 -0.02818528 0
135.9096 33.32531 0.02181472 0
135.8096 33.37531 0.02181472 0
136.0096 33.07531 0.02181472 0
136.1096 33.07531 0.02181472 0
136.2096 33.02531 0.02181472 0
136.3096 32.97531 0.02181472 0
135.9596 33.22531 -0.02818528 0
136.0096 33.27531 -0.02818528 0
136.0096 33.32531 0.02181472 0
136.1096 33.27531 -0.02818528 0
136.1596 33.27531 -0.02818528 0
136.1596 33.32531 0.02181472 0
136.2596 33.27531 -0.02818528 0
136.2596 33.32531 0.02181472 0
136.3096 33.32531 -0.02818528 0
136.3096 33.32531 0.02181472 0
136.4096 32.02531 -0.02818528 0
136.3596 32.12531 -0.02818528 0
136.3596 32.17531 -0.02818528 0
136.3596 32.22531 -0.02818528 0
136.3596 32.32531 -0.02818528 0
136.3596 32.42531 -0.02818528 0
136.3596 32.52531 -0.02818528 0
136.3596 32.62531 -0.02818528 0
136.3596 32.72531 -0.02818528 0
137.0096 32.12531 -0.02818528 0
137.0596 32.02531 -0.02818528 0
137.0096 32.27531 -0.02818528 0
137.0096 32.37531 -0.02818528 0
137.0096 32.42531 -0.02818528 0
137.0096 32.47531 -0.02818528 0
137.0096 32.57531 -0.02818528 0
137.0096 32.62531 -0.02818528 0
136.9596 32.72531 0.02181472 0
137.0096 32.72531 -0.02818528 0
137.0596 32.72531 0.02181472 0
137.1096 32.67531 0.02181472 0
136.3596 32.82531 -0.02818528 0
136.3596 32.92531 0.02181472 0
136.4096 32.92531 -0.02818528 0
136.4596 32.92531 0.02181472 0
136.4096 33.02531 -0.02818528 0
136.4596 33.12531 -0.02818528 0
136.5596 32.87531 0.02181472 0
136.6596 32.82531 0.02181472 0
136.4096 33.32531 -0.02818528 0
136.4096 33.32531 0.02181472 0
136.4596 33.22531 -0.02818528 0
136.5096 33.32531 -0.02818528 0
136.5096 33.32531 0.02181472 0
136.5096 33.37531 -0.02818528 0
136.6596 33.27531 0.02181472 0
136.5596 33.42531 -0.02818528 0
136.6096 33.37531 -0.02818528 0
136.5596 33.47531 -0.02818528 0
136.7096 33.42531 -0.02818528 0
136.7096 33.52531 -0.02818528 0
136.7596 32.77531 0.02181472 0
136.8596 32.77531 0.02181472 0
136.9096 33.07531 -0.02818528 0
136.9096 33.12531 -0.02818528 0
137.0096 32.92531 -0.02818528 0
137.1096 32.77531 -0.02818528 0
137.1096 32.82531 -0.02818528 0
137.0596 32.87531 -0.02818528 0
136.9596 33.02531 -0.02818528 0
137.0596 32.97531 -0.02818528 0
137.0596 33.02531 -0.02818528 0
137.1096 33.07531 -0.02818528 0
137.1096 33.12531 -0.02818528 0
136.7596 33.27531 0.02181472 0
136.8096 33.27531 0.02181472 0
136.8096 33.32531 -0.02818528 0
136.8596 33.22531 -0.02818528 0
136.9096 33.17531 -0.02818528 0
136.9096 33.32531 0.02181472 0
136.7596 33.42531 -0.02818528 0
136.8096 33.42531 -0.02818528 0
136.9096 33.42531 -0.02818528 0
136.9596 33.27531 0.02181472 0
137.0596 33.27531 0.02181472 0
137.1096 33.27531 0.02181472 0
137.0096 33.47531 -0.02818528 0
137.0096 33.52531 0.02181472 0
137.1096 33.47531 0.02181472 0
137.1096 33.52531 -0.02818528 0
137.1596 30.42531 -0.02818528 0
137.2096 30.37531 -0.02818528 0
137.2096 30.37531 0.02181472 0
137.2096 30.47531 0.02181472 0
137.2596 30.57531 0.02181472 0
137.2596 30.67531 -0.02818528 0
137.5096 30.42531 0.02181472 0
137.5096 30.52531 -0.02818528 0
137.3096 30.77531 0.02181472 0
137.3096 30.82531 -0.02818528 0
137.2096 31.12531 -0.02818528 0
137.2596 31.07531 -0.02818528 0
137.3596 31.02531 -0.02818528 0
137.4096 30.97531 -0.02818528 0
137.4096 31.12531 -0.02818528 0
137.4596 30.97531 -0.02818528 0
137.5096 31.02531 -0.02818528 0
137.4596 31.07531 -0.02818528 0
137.7096 30.37531 -0.02818528 0
137.7096 30.47531 -0.02818528 0
137.5596 30.57531 0.02181472 0
137.5596 30.62531 -0.02818528 0
137.5596 30.72531 -0.02818528 0
137.7596 30.52531 -0.02818528 0
137.7596 30.57531 -0.02818528 0
137.7596 30.67531 -0.02818528 0
137.8096 30.72531 -0.02818528 0
137.8596 30.67531 -0.02818528 0
137.9096 30.72531 -0.02818528 0
137.5596 30.92531 -0.02818528 0
137.6096 30.87531 -0.02818528 0
137.6096 30.92531 -0.02818528 0
137.6596 30.82531 -0.02818528 0
137.7096 30.77531 -0.02818528 0
137.6596 30.87531 -0.02818528 0
137.5596 30.97531 -0.02818528 0
137.7596 30.77531 -0.02818528 0
137.7596 30.82531 -0.02818528 0
137.8596 30.77531 -0.02818528 0
137.3096 31.32531 -0.02818528 0
137.2096 31.47531 -0.02818528 0
137.2096 31.52531 -0.02818528 0
137.2596 31.42531 -0.02818528 0
137.3596 31.22531 -0.02818528 0
137.4096 31.17531 -0.02818528 0
137.1596 31.62531 -0.02818528 0
137.1596 31.67531 -0.02818528 0
137.5096 31.77531 -0.02818528 0
137.5096 31.87531 -0.02818528 0
137.7096 31.42531 -0.02818528 0
137.6596 31.47531 -0.02818528 0
137.8096 31.27531 -0.02818528 0
137.8096 31.32531 -0.02818528 0
137.9096 31.17531 -0.02818528 0
137.9096 31.22531 -0.02818528 0
137.7596 31.37531 -0.02818528 0
137.8096 31.47531 -0.07818528 0
137.6096 31.62531 -0.02818528 0
137.5596 31.67531 -0.02818528 0
137.6596 31.57531 -0.02818528 0
137.5596 31.77531 -0.02818528 0
137.8596 31.72531 -0.02818528 0
137.9096 31.67531 -0.02818528 0
137.8096 31.87531 -0.02818528 0
137.8596 31.77531 -0.02818528 0
137.8596 31.82531 -0.02818528 0
138.0596 30.52531 -0.02818528 0
138.1096 30.47531 -0.02818528 0
137.9596 30.62531 -0.02818528 0
138.0096 30.57531 -0.02818528 0
138.0096 30.67531 -0.02818528 0
138.1096 30.67531 -0.02818528 0
138.2096 30.47531 -0.02818528 0
138.2596 30.42531 -0.02818528 0
138.3096 30.37531 -0.02818528 0
138.2096 30.62531 -0.02818528 0
138.3096 30.57531 -0.02818528 0
138.0096 31.12531 -0.02818528 0
138.1096 31.02531 -0.02818528 0
138.0596 31.07531 -0.02818528 0
138.2096 30.92531 -0.02818528 0
138.3096 30.87531 -0.02818528 0
138.1596 30.97531 -0.02818528 0
138.3096 31.07531 -0.07818528 0
138.4096 30.37531 -0.02818528 0
138.5096 30.52531 -0.02818528 0
138.4096 30.57531 -0.02818528 0
138.6096 30.52531 -0.02818528 0
138.7096 30.47531 -0.02818528 0
138.5596 30.72531 -0.02818528 0
138.6596 30.67531 -0.02818528 0
138.6596 30.72531 -0.02818528 0
138.3596 30.82531 -0.02818528 0
138.4096 30.82531 -0.02818528 0
138.4596 30.77531 -0.02818528 0
138.4596 30.92531 -0.07818528 0
138.4596 31.12531 -0.02818528 0
138.5096 31.07531 -0.02818528 0
138.6596 30.77531 -0.07818528 0
138.6096 31.02531 -0.02818528 0
138.6596 31.02531 -0.02818528 0
138.7096 30.97531 -0.02818528 0
137.9596 31.32531 -0.07818528 0
137.9596 31.52531 -0.02818528 0
138.0096 31.47531 -0.02818528 0
138.0596 31.42531 -0.02818528 0
138.1096 31.37531 -0.02818528 0
138.1596 31.22531 -0.07818528 0
138.1596 31.32531 -0.02818528 0
138.2096 31.27531 -0.02818528 0
138.3096 31.22531 -0.02818528 0
138.2596 31.52531 -0.02818528 0
137.9596 31.62531 -0.02818528 0
138.0096 31.92531 -0.02818528 0
138.0596 31.82531 -0.02818528 0
138.1096 31.77531 -0.02818528 0
138.0596 31.87531 -0.02818528 0
138.0596 31.92531 -0.02818528 0
138.2096 31.62531 -0.02818528 0
138.1596 31.67531 -0.02818528 0
138.2596 31.57531 -0.02818528 0
138.1596 31.87531 -0.02818528 0
138.2596 31.87531 -0.02818528 0
138.4096 31.17531 -0.02818528 0
138.5096 31.32531 -0.02818528 0
138.4096 31.42531 -0.02818528 0
138.3596 31.47531 -0.02818528 0
138.4596 31.37531 -0.02818528 0
138.5596 31.27531 -0.02818528 0
138.6096 31.27531 -0.02818528 0
138.7096 31.22531 -0.02818528 0
138.3596 31.82531 -0.02818528 0
138.4596 31.77531 -0.02818528 0
138.5596 31.72531 -0.02818528 0
138.6596 31.72531 -0.02818528 0
137.4596 31.97531 -0.02818528 0
137.4596 32.02531 -0.02818528 0
137.4596 32.07531 -0.02818528 0
137.4096 32.17531 -0.02818528 0
137.4096 32.32531 -0.02818528 0
137.5096 32.32531 -0.02818528 0
137.3096 32.52531 -0.02818528 0
137.1596 32.72531 -0.02818528 0
137.2096 32.67531 -0.02818528 0
137.2596 32.57531 -0.02818528 0
137.2596 32.67531 0.02181472 0
137.4096 32.37531 -0.02818528 0
137.4096 32.42531 -0.02818528 0
137.3596 32.47531 -0.02818528 0
137.4096 32.47531 -0.02818528 0
137.4096 32.52531 -0.02818528 0
137.4596 32.37531 -0.02818528 0
137.3596 32.62531 0.02181472 0
137.4096 32.57531 -0.02818528 0
137.4096 32.62531 -0.02818528 0
137.4096 32.67531 -0.02818528 0
137.4596 32.62531 0.02181472 0
137.4596 32.72531 -0.02818528 0
137.6096 32.22531 -0.02818528 0
137.7096 32.17531 -0.02818528 0
137.7096 32.27531 -0.02818528 0
137.7596 31.97531 -0.02818528 0
137.7596 32.02531 -0.02818528 0
137.7596 32.07531 -0.02818528 0
137.8096 32.12531 -0.02818528 0
137.8596 32.07531 -0.02818528 0
137.9096 32.32531 -0.02818528 0
137.7096 32.37531 -0.02818528 0
137.7096 32.47531 -0.02818528 0
137.5596 32.62531 0.02181472 0
137.6096 32.57531 0.02181472 0
137.7096 32.57531 -0.02818528 0
137.7096 32.57531 0.02181472 0
137.7096 32.67531 -0.02818528 0
137.9096 32.42531 -0.02818528 0
137.8596 32.52531 0.02181472 0
137.9096 32.52531 -0.02818528 0
137.9096 32.62531 -0.02818528 0
137.9096 32.72531 -0.02818528 0
137.4596 32.77531 -0.02818528 0
137.4596 32.82531 -0.02818528 0
137.4596 32.87531 -0.02818528 0
137.4596 32.92531 -0.02818528 0
137.5096 33.02531 -0.02818528 0
137.1596 33.22531 -0.02818528 0
137.1596 33.27531 0.02181472 0
137.2596 33.32531 0.02181472 0
137.3096 33.32531 0.02181472 0
137.1596 33.42531 0.02181472 0
137.2096 33.37531 0.02181472 0
137.4096 33.22531 0.02181472 0
137.3596 33.27531 0.02181472 0
137.4096 33.27531 0.02181472 0
137.4596 33.22531 0.02181472 0
137.5096 33.17531 0.02181472 0
137.5096 33.32531 -0.02818528 0
137.5096 33.32531 0.02181472 0
137.4596 33.37531 -0.02818528 0
137.4596 33.47531 -0.02818528 0
137.4596 33.52531 -0.02818528 0
137.5596 33.07531 -0.02818528 0
137.5596 33.12531 0.02181472 0
137.7096 33.02531 -0.02818528 0
137.6596 33.07531 -0.02818528 0
137.6596 33.12531 0.02181472 0
137.7096 33.07531 0.02181472 0
137.7596 32.77531 -0.02818528 0
137.7596 32.82531 -0.02818528 0
137.7596 32.87531 -0.02818528 0
137.8096 32.92531 -0.02818528 0
137.9096 32.82531 -0.02818528 0
137.9096 32.87531 -0.02818528 0
137.7596 32.97531 -0.02818528 0
137.7596 33.02531 0.02181472 0
137.8096 32.97531 -0.02818528 0
137.8596 32.97531 0.02181472 0
137.9096 32.97531 0.02181472 0
137.6096 33.22531 -0.02818528 0
137.5596 33.27531 -0.02818528 0
137.6096 33.32531 0.02181472 0
137.6596 33.17531 -0.02818528 0
137.7096 33.32531 0.02181472 0
137.8596 33.37531 0.02181472 0
137.9096 33.47531 -0.02818528 0
137.9096 33.52531 -0.02818528 0
137.9596 32.02531 -0.02818528 0
138.0096 32.02531 -0.02818528 0
137.9596 32.07531 -0.02818528 0
137.9596 32.12531 -0.02818528 0
137.9596 32.22531 -0.02818528 0
137.9596 32.52531 0.02181472 0
138.0596 32.52531 0.02181472 0
138.1096 32.52531 0.02181472 0
137.9596 32.57531 -0.02818528 0
138.0596 32.72531 -0.02818528 0
138.1096 32.67531 -0.02818528 0
138.2096 32.52531 0.02181472 0
138.2596 32.47531 0.02181472 0
138.1596 32.62531 -0.02818528 0
138.2096 32.62531 -0.02818528 0
138.2596 32.57531 -0.02818528 0
138.3596 32.47531 0.02181472 0
138.3596 32.52531 -0.02818528 0
138.4096 32.47531 -0.02818528 0
138.4596 32.47531 -0.02818528 0
138.4596 32.47531 0.02181472 0
138.5596 32.42531 -0.02818528 0
138.6096 32.37531 -0.02818528 0
138.5596 32.47531 0.02181472 0
138.7096 32.37531 -0.02818528 0
138.6596 32.47531 0.02181472 0
138.5596 32.72531 0.02181472 0
138.6596 32.72531 0.02181472 0
137.9596 32.77531 -0.02818528 0
137.9596 32.82531 -0.02818528 0
137.9596 32.92531 0.02181472 0
138.0096 32.87531 -0.02818528 0
138.0596 32.87531 0.02181472 0
138.1596 32.82531 0.02181472 0
138.1596 32.87531 0.02181472 0
138.2596 32.82531 0.02181472 0
138.2096 33.12531 -0.02818528 0
138.2596 33.12531 -0.02818528 0
138.3096 33.07531 -0.02818528 0
138.1096 33.22531 -0.02818528 0
138.0596 33.32531 -0.02818528 0
137.9596 33.37531 0.02181472 0
137.9596 33.42531 -0.02818528 0
138.0096 33.37531 -0.02818528 0
138.0596 33.42531 0.02181472 0
138.1596 33.17531 -0.02818528 0
138.2096 33.42531 0.02181472 0
138.3096 33.42531 0.02181472 0
138.2596 33.52531 -0.02818528 0
138.3096 33.47531 -0.02818528 0
138.3596 32.77531 0.02181472 0
138.4596 32.77531 0.02181472 0
138.5096 32.92531 -0.02818528 0
138.4096 32.97531 -0.02818528 0
138.5596 32.87531 -0.02818528 0
138.6096 32.87531 -0.02818528 0
138.6596 32.82531 -0.02818528 0
138.7096 33.12531 -0.02818528 0
138.4096 33.32531 -0.02818528 0
138.4596 33.27531 -0.02818528 0
138.3596 33.37531 -0.02818528 0
138.3596 33.42531 -0.02818528 0
138.4096 33.47531 0.02181472 0
138.5096 33.52531 0.02181472 0
138.5596 33.22531 -0.02818528 0
138.6096 33.17531 -0.02818528 0
138.6596 33.17531 -0.02818528 0
138.5596 33.52531 -0.02818528 0
138.6096 33.47531 -0.02818528 0
138.6596 33.42531 -0.02818528 0
138.7096 33.37531 -0.02818528 0
138.6596 33.52531 0.02181472 0
135.0096 33.77531 -0.02818528 0
135.1096 33.77531 -0.02818528 0
135.0096 33.97531 -0.02818528 0
135.0096 34.07531 0.02181472 0
135.1096 34.02531 -0.02818528 0
135.1096 34.12531 0.02181472 0
135.2096 33.82531 -0.02818528 0
135.3096 33.82531 -0.02818528 0
135.3596 33.67531 -0.02818528 0
135.4596 33.62531 -0.02818528 0
135.4596 33.67531 -0.02818528 0
135.4096 33.77531 -0.02818528 0
135.3596 33.87531 -0.02818528 0
135.4096 33.87531 -0.02818528 0
135.4096 33.92531 -0.02818528 0
135.4596 33.77531 -0.02818528 0
135.4596 33.82531 -0.02818528 0
135.5096 33.87531 -0.02818528 0
135.1596 34.02531 -0.02818528 0
135.2096 34.02531 -0.02818528 0
135.1596 34.07531 0.02181472 0
135.2596 34.07531 -0.02818528 0
135.2596 34.12531 0.02181472 0
135.3096 34.12531 0.02181472 0
135.4096 33.97531 -0.02818528 0
135.3596 34.12531 -0.02818528 0
135.4096 34.07531 -0.02818528 0
135.4096 34.12531 0.02181472 0
135.5096 34.12531 0.02181472 0
135.4096 34.22531 -0.02818528 0
135.4096 34.27531 -0.02818528 0
135.4596 34.17531 -0.02818528 0
135.1096 34.82531 -0.02818528 0
135.0096 34.97531 -0.02818528 0
135.1096 35.07531 -0.02818528 0
135.4096 34.42531 -0.02818528 0
135.4096 34.52531 -0.02818528 0
135.4096 34.57531 -0.02818528 0
135.4096 34.72531 -0.02818528 0
135.1596 34.87531 -0.02818528 0
135.2596 34.92531 -0.02818528 0
135.1596 35.12531 -0.02818528 0
135.4096 34.82531 -0.02818528 0
135.4096 34.92531 -0.02818528 0
135.4096 35.02531 -0.02818528 0
135.4596 35.12531 -0.02818528 0
135.5096 35.07531 -0.02818528 0
135.0096 35.37531 0.02181472 0
135.0096 35.92531 -0.02818528 0
135.1096 35.92531 -0.02818528 0
135.2096 35.17531 -0.02818528 0
135.3096 35.27531 -0.02818528 0
135.1596 35.37531 0.02181472 0
135.2096 35.42531 0.02181472 0
135.2596 35.47531 0.02181472 0
135.3096 35.52531 0.02181472 0
135.3596 35.32531 -0.02818528 0
135.4596 35.22531 -0.02818528 0
135.4596 35.27531 -0.02818528 0
135.4096 35.37531 -0.02818528 0
135.4096 35.52531 0.02181472 0
135.4596 35.42531 -0.02818528 0
135.5096 35.37531 -0.02818528 0
135.5096 35.47531 -0.02818528 0
135.5096 35.52531 -0.02818528 0
135.1596 35.92531 -0.02818528 0
