# .PCD v0.7 - Point Cloud Data file format
VERSION 0.7
FIELDS x y z intensity
SIZE 4 4 4 4
TYPE F F F F
COUNT 1 1 1 1
WIDTH 1507
HEIGHT 1
VIEWPOINT 0 0 0 1 0 0 0
POINTS 1507
DATA ascii
-7.390388 -1.524689 0.5218147 0
-7.390388 -1.474689 0.5218147 0
-7.440388 -1.474689 0.6218147 0
-7.340388 -1.624689 0.4718147 0
-7.340388 -1.574689 0.4718147 0
-7.340388 -1.574689 0.5218147 0
-7.290388 -1.624689 0.5218147 0
-7.340388 -1.624689 0.5718147 0
-7.340388 -1.574689 0.6218147 0
-7.340388 -1.524689 0.5218147 0
-7.390388 -1.574689 0.6718147 0
-7.390388 -1.574689 0.7218148 0
-7.390388 -1.574689 0.7718147 0
-7.390388 -1.574689 0.8218147 0
-7.440388 -1.524689 0.7218148 0
-7.440388 -1.474689 0.7218148 0
-7.390388 -1.474689 0.6718147 0
-7.440388 -1.524689 0.7718147 0
-7.440388 -1.474689 0.7718147 0
-7.440388 -1.474689 0.8218147 0
-7.390388 -1.524689 0.8218147 0
-7.390388 -1.474689 0.8218147 0
-7.340388 -1.624689 0.6718147 0
-7.340388 -1.624689 0.7218148 0
-7.290388 -1.624689 0.7218148 0
-7.340388 -1.624689 0.7718147 0
-7.340388 -1.574689 0.8218147 0
-7.440388 -1.424689 0.4718147 0
-7.440388 -1.424689 0.5218147 0
-7.440388 -1.424689 0.5718147 0
-7.440388 -1.424689 0.8218147 0
-7.540388 -1.474689 0.8718147 0
-7.540388 -1.474689 0.9218147 0
-7.540388 -1.474689 1.021815 0
-7.490388 -1.524689 0.9718148 0
-7.490388 -1.474689 0.9718148 0
-7.490388 -1.474689 1.021815 0
-7.590388 -1.574689 1.071815 0
-7.590388 -1.474689 1.121815 0
-7.490388 -1.624689 1.071815 0
-7.490388 -1.524689 1.071815 0
-7.490388 -1.524689 1.121815 0
-7.490388 -1.474689 1.071815 0
-7.490388 -1.474689 1.121815 0
-7.640388 -1.424689 0.9218147 0
-7.640388 -1.374689 0.8718147 0
-7.640388 -1.374689 0.9218147 0
-7.590388 -1.424689 0.9218147 0
-7.640388 -1.424689 0.9718148 0
-7.490388 -1.424689 0.9218147 0
-7.540388 -1.424689 0.9718148 0
-7.390388 -1.624689 0.8718147 0
-7.390388 -1.624689 0.9218147 0
-7.440388 -1.574689 0.9718148 0
-7.440388 -1.574689 1.021815 0
-7.390388 -1.624689 0.9718148 0
-7.390388 -1.624689 1.021815 0
-7.390388 -1.574689 1.021815 0
-7.440388 -1.524689 0.8718147 0
-7.440388 -1.524689 0.9218147 0
-7.390388 -1.474689 0.9218147 0
-7.440388 -1.524689 0.9718148 0
-7.340388 -1.624689 0.9218147 0
-7.440388 -1.624689 1.121815 0
-7.440388 -1.574689 1.071815 0
-7.390388 -1.624689 1.071815 0
-7.440388 -1.524689 1.071815 0
-7.090388 -0.02468853 0.3218147 0
-7.090388 -0.02468853 0.3718147 0
-7.090388 -0.02468853 0.4218147 0
-6.990388 0.02531147 0.1718147 0
-6.940388 0.02531147 0.1718147 0
-7.040388 -0.02468853 0.3718147 0
-7.040388 -0.02468853 0.4218147 0
-6.890388 0.1253115 0.3218147 0
-7.090388 -0.02468853 0.4718147 0
-7.090388 -0.02468853 0.5218147 0
-7.040388 -0.02468853 0.4718147 0
-7.040388 -0.02468853 0.5218147 0
-6.690388 0.07531147 0.2718147 0
-6.690388 0.07531147 0.3718147 0
-6.690388 0.07531147 0.4218147 0
-6.690388 0.1253115 0.3718147 0
-6.690388 0.1253115 0.4218147 0
-6.840388 0.2253115 0.3218147 0
-6.690388 0.1753115 0.2718147 0
-6.690388 0.2253115 0.2718147 0
-6.690388 0.2253115 0.4218147 0
-6.740388 0.3253115 0.2718147 0
-6.740388 0.3253115 0.4218147 0
-6.690388 0.2753115 0.3718147 0
-6.690388 0.3253115 0.3718147 0
-5.240388 -4.324688 0.2218147 0
-5.240388 -4.274689 0.2218147 0
-5.240388 -4.224689 0.2718147 0
-5.240388 -4.374689 0.4718147 0
-5.240388 -4.324688 0.4718147 0
-5.240388 -4.274689 0.4718147 0
-5.240388 -4.424689 0.7218148 0
-5.240388 -4.324688 0.6718147 0
-5.240388 -4.274689 0.6718147 0
-5.240388 -4.274689 0.7218148 0
-5.190388 -4.324688 0.6718147 0
-5.190388 -4.324688 0.7218148 0
-5.240388 -4.324688 0.7718147 0
-5.240388 -4.224689 0.4718147 0
-5.240388 -4.224689 0.6718147 0
-5.240388 -4.224689 0.7218148 0
-5.240388 -4.374689 0.8718147 0
-5.240388 -4.324688 0.8718147 0
-5.240388 -4.324688 0.9218147 0
-5.240388 -4.274689 0.8718147 0
-5.240388 -4.224689 0.8718147 0
-5.240388 -4.174689 0.8718147 0
-5.040388 -3.674689 0.1218147 0
-4.940388 -3.724689 0.1218147 0
-4.940388 -3.674689 0.1218147 0
-4.890388 -3.674689 0.07181472 0
-5.240388 -3.624689 0.07181472 0
-5.240388 -3.624689 0.1218147 0
-5.190388 -3.624689 0.1218147 0
-5.190388 -3.574689 0.1218147 0
-5.140388 -3.624689 0.07181472 0
-5.140388 -3.624689 0.1218147 0
-5.090388 -3.624689 0.1218147 0
-4.990388 -3.624689 0.07181472 0
-4.940388 -3.624689 0.07181472 0
-4.940388 -3.624689 0.1218147 0
-4.740388 -3.974689 0.1218147 0
-4.740388 -3.874689 0.1218147 0
-4.840388 -3.774688 0.1218147 0
-4.840388 -3.674689 0.07181472 0
-4.840388 -3.674689 0.1218147 0
-4.790388 -3.674689 0.1218147 0
-4.740388 -3.824689 0.1218147 0
-4.740388 -3.674689 0.07181472 0
-4.740388 -3.674689 0.1218147 0
-4.690388 -3.724689 0.1218147 0
-4.690388 -3.674689 0.07181472 0
-4.690388 -3.674689 0.1218147 0
-4.590388 -3.874689 0.1218147 0
-4.490388 -3.874689 0.1218147 0
-4.640388 -3.674689 0.07181472 0
-4.640388 -3.674689 0.1218147 0
-4.590388 -3.674689 0.07181472 0
-4.590388 -3.674689 0.1218147 0
-4.490388 -3.774688 0.07181472 0
-4.540388 -3.674689 0.07181472 0
-4.540388 -3.674689 0.1218147 0
-4.490388 -3.674689 0.07181472 0
-4.490388 -3.674689 0.1218147 0
-4.690388 -3.624689 0.07181472 0
-4.540388 -3.624689 0.07181472 0
-4.290388 -4.574688 0.07181472 0
-4.340388 -4.474689 0.07181472 0
-4.190388 -4.824688 0.07181472 0
-4.240388 -4.724689 0.07181472 0
-4.340388 -4.374689 0.07181472 0
-4.390388 -4.224689 0.07181472 0
-4.390388 -4.124689 0.07181472 0
-3.790388 -4.774689 0.07181472 0
-3.740388 -4.824688 0.07181472 0
-3.740388 -4.824688 0.1218147 0
-3.740388 -4.724689 0.07181472 0
-3.740388 -4.724689 0.1218147 0
-3.740388 -4.674689 0.07181472 0
-3.740388 -4.674689 0.1218147 0
-3.740388 -4.624689 0.07181472 0
-3.740388 -4.624689 0.1218147 0
-3.740388 -4.574688 0.07181472 0
-3.740388 -4.574688 0.1218147 0
-3.740388 -4.524689 0.07181472 0
-3.740388 -4.474689 0.07181472 0
-3.740388 -4.474689 0.1218147 0
-4.040388 -4.074688 0.1218147 0
-3.740388 -4.424689 0.07181472 0
-3.740388 -4.374689 0.07181472 0
-3.740388 -4.374689 0.1218147 0
-3.740388 -4.324688 0.07181472 0
-3.740388 -4.274689 0.07181472 0
-3.740388 -4.274689 0.1218147 0
-3.690388 -4.324688 0.07181472 0
-3.790388 -4.174689 0.1218147 0
-3.740388 -4.174689 0.07181472 0
-3.740388 -4.174689 0.1218147 0
-3.690388 -4.224689 0.07181472 0
-3.690388 -4.174689 0.07181472 0
-3.740388 -4.124689 0.07181472 0
-3.740388 -4.074688 0.07181472 0
-3.740388 -4.074688 0.1218147 0
-3.690388 -4.074688 0.07181472 0
-4.440388 -4.024689 0.07181472 0
-4.390388 -3.974689 0.1218147 0
-4.290388 -4.024689 0.1218147 0
-4.440388 -3.674689 0.07181472 0
-4.390388 -3.674689 0.07181472 0
-4.340388 -3.674689 0.1218147 0
-4.290388 -3.674689 0.07181472 0
-4.140388 -4.024689 0.1218147 0
-4.240388 -3.674689 0.07181472 0
-4.240388 -3.674689 0.1218147 0
-4.190388 -3.674689 0.07181472 0
-4.140388 -3.724689 0.1218147 0
-4.140388 -3.674689 0.07181472 0
-4.090388 -3.724689 0.07181472 0
-4.090388 -3.674689 0.07181472 0
-4.390388 -3.624689 0.07181472 0
-4.240388 -3.624689 0.07181472 0
-4.090388 -3.624689 0.07181472 0
-3.990388 -3.774688 0.07181472 0
-4.040388 -3.724689 0.1218147 0
-3.990388 -3.724689 0.07181472 0
-3.990388 -3.724689 0.1218147 0
-3.940388 -3.824689 0.07181472 0
-3.940388 -3.824689 0.1218147 0
-3.940388 -3.774688 0.07181472 0
-3.890388 -3.824689 0.07181472 0
-3.890388 -3.774688 0.07181472 0
-3.890388 -3.774688 0.1218147 0
-3.840388 -3.874689 0.07181472 0
-3.840388 -3.874689 0.1218147 0
-3.790388 -3.924689 0.07181472 0
-3.790388 -3.924689 0.1218147 0
-3.790388 -3.874689 0.07181472 0
-3.740388 -4.024689 0.07181472 0
-3.740388 -3.974689 0.07181472 0
-3.740388 -3.974689 0.1218147 0
-3.840388 -3.824689 0.07181472 0
-3.840388 -3.824689 0.1218147 0
-3.740388 -3.724689 0.07181472 0
-3.740388 -3.674689 0.07181472 0
-3.740388 -3.674689 0.1218147 0
-3.690388 -3.724689 0.07181472 0
-3.690388 -3.674689 0.07181472 0
-3.690388 -3.674689 0.1218147 0
-3.740388 -3.674689 0.2218147 0
-3.690388 -3.674689 0.2218147 0
-3.740388 -3.724689 0.2718147 0
-3.740388 -3.674689 0.2718147 0
-3.690388 -3.674689 0.2718147 0
-3.740388 -3.724689 0.4218147 0
-3.740388 -3.674689 0.3718147 0
-3.740388 -3.674689 0.4218147 0
-3.690388 -3.674689 0.4218147 0
-3.790388 -3.674689 0.4718147 0
-3.740388 -3.674689 0.4718147 0
-3.740388 -3.724689 0.6218147 0
-3.740388 -3.674689 0.5718147 0
-3.690388 -3.674689 0.5718147 0
-3.690388 -3.674689 0.6218147 0
-3.740388 -3.674689 0.6718147 0
-3.740388 -3.674689 0.7218148 0
-3.740388 -3.724689 0.7718147 0
-3.740388 -3.674689 0.8218147 0
-3.690388 -3.674689 0.7718147 0
-3.690388 -3.624689 0.4718147 0
-3.740388 -3.674689 0.8718147 0
-3.740388 -3.674689 0.9218147 0
-3.690388 -3.674689 0.9218147 0
-3.740388 -3.674689 0.9718148 0
-3.740388 -3.674689 1.021815 0
-3.690388 -3.674689 0.9718148 0
-3.740388 -3.774688 1.171815 0
-3.740388 -3.774688 1.221815 0
-3.740388 -3.674689 1.071815 0
-3.740388 -3.674689 1.121815 0
-3.690388 -3.674689 1.071815 0
-3.690388 -3.674689 1.121815 0
-3.740388 -3.724689 1.171815 0
-3.740388 -3.724689 1.221815 0
-3.740388 -3.674689 1.171815 0
-3.740388 -3.674689 1.221815 0
-3.790388 -3.974689 1.371815 0
-3.790388 -3.874689 1.321815 0
-3.790388 -3.924689 1.371815 0
-3.790388 -3.874689 1.371815 0
-3.740388 -3.874689 1.321815 0
-3.690388 -3.924689 1.321815 0
-3.690388 -3.874689 1.321815 0
-3.740388 -3.924689 1.371815 0
-3.740388 -3.924689 1.421815 0
-3.740388 -3.874689 1.371815 0
-3.740388 -3.874689 1.421815 0
-3.790388 -3.974689 1.571815 0
-3.790388 -3.874689 1.521815 0
-3.790388 -3.924689 1.621815 0
-3.790388 -3.874689 1.621815 0
-3.740388 -3.974689 1.521815 0
-3.740388 -3.924689 1.521815 0
-3.740388 -3.874689 1.521815 0
-3.690388 -3.924689 1.521815 0
-3.690388 -3.874689 1.521815 0
-3.740388 -3.924689 1.571815 0
-3.740388 -3.874689 1.571815 0
-3.740388 -3.874689 1.621815 0
-3.790388 -3.774688 1.321815 0
-3.790388 -3.674689 1.321815 0
-3.740388 -3.774688 1.271815 0
-3.740388 -3.774688 1.321815 0
-3.690388 -3.824689 1.321815 0
-3.690388 -3.774688 1.321815 0
-3.740388 -3.824689 1.421815 0
-3.740388 -3.774688 1.371815 0
-3.740388 -3.774688 1.421815 0
-3.740388 -3.674689 1.271815 0
-3.740388 -3.674689 1.321815 0
-3.690388 -3.724689 1.271815 0
-3.690388 -3.674689 1.271815 0
-3.690388 -3.674689 1.321815 0
-3.740388 -3.724689 1.421815 0
-3.740388 -3.674689 1.371815 0
-3.690388 -3.674689 1.421815 0
-3.790388 -3.774688 1.521815 0
-3.790388 -3.824689 1.571815 0
-3.790388 -3.674689 1.521815 0
-3.740388 -3.824689 1.471815 0
-3.740388 -3.774688 1.471815 0
-3.740388 -3.774688 1.521815 0
-3.690388 -3.824689 1.521815 0
-3.690388 -3.774688 1.471815 0
-3.690388 -3.774688 1.521815 0
-3.740388 -3.824689 1.571815 0
-3.740388 -3.774688 1.571815 0
-3.740388 -3.774688 1.621815 0
-3.740388 -3.724689 1.521815 0
-3.690388 -3.674689 1.471815 0
-3.690388 -3.674689 1.521815 0
-3.740388 -3.724689 1.571815 0
-3.740388 -3.674689 1.571815 0
-3.740388 -3.674689 1.621815 0
-3.690388 -3.724689 1.621815 0
-3.690388 -3.624689 0.8718147 0
-3.740388 -3.624689 1.221815 0
-3.740388 -3.574689 1.171815 0
-3.740388 -3.574689 1.221815 0
-3.740388 -3.524688 1.221815 0
-3.790388 -3.574689 1.321815 0
-3.790388 -3.474689 1.271815 0
-3.740388 -3.624689 1.321815 0
-3.740388 -3.574689 1.321815 0
-3.690388 -3.624689 1.271815 0
-3.690388 -3.624689 1.321815 0
-3.690388 -3.574689 1.271815 0
-3.690388 -3.574689 1.321815 0
-3.740388 -3.624689 1.371815 0
-3.740388 -3.624689 1.421815 0
-3.740388 -3.574689 1.421815 0
-3.690388 -3.574689 1.421815 0
-3.740388 -3.524688 1.321815 0
-3.740388 -3.474689 1.321815 0
-3.690388 -3.524688 1.271815 0
-3.740388 -3.474689 1.371815 0
-3.690388 -3.524688 1.421815 0
-3.690388 -3.474689 1.421815 0
-3.740388 -3.624689 1.471815 0
-3.740388 -3.624689 1.521815 0
-3.740388 -3.574689 1.471815 0
-3.740388 -3.574689 1.521815 0
-3.690388 -3.624689 1.471815 0
-3.690388 -3.574689 1.471815 0
-3.740388 -3.624689 1.571815 0
-3.740388 -3.574689 1.571815 0
-3.740388 -3.574689 1.621815 0
-3.690388 -3.574689 1.621815 0
-3.740388 -3.524688 1.471815 0
-3.740388 -3.474689 1.471815 0
-3.690388 -3.524688 1.471815 0
-3.690388 -3.474689 1.471815 0
-3.740388 -3.524688 1.571815 0
-3.740388 -3.474689 1.571815 0
-3.740388 -3.474689 1.621815 0
-3.690388 -3.474689 1.571815 0
-3.690388 -3.474689 1.621815 0
-3.740388 -3.424689 1.321815 0
-3.740388 -3.374689 1.371815 0
-3.690388 -3.424689 1.421815 0
-3.740388 -3.424689 1.471815 0
-3.740388 -3.424689 1.521815 0
-3.690388 -3.424689 1.471815 0
-3.690388 -3.374689 1.471815 0
-3.740388 -3.424689 1.571815 0
-3.740388 -3.424689 1.621815 0
-3.690388 -3.424689 1.571815 0
-3.690388 -3.424689 1.621815 0
-3.790388 -3.874689 1.721815 0
-3.740388 -3.924689 1.671815 0
-3.740388 -3.924689 1.721815 0
-3.740388 -3.874689 1.721815 0
-3.690388 -3.874689 1.721815 0
-3.790388 -3.774688 1.721815 0
-3.790388 -3.674689 1.721815 0
-3.740388 -3.824689 1.671815 0
-3.740388 -3.774688 1.721815 0
-3.690388 -3.824689 1.671815 0
-3.690388 -3.774688 1.671815 0
-3.740388 -3.774688 1.771815 0
-3.740388 -3.724689 1.721815 0
-3.690388 -3.724689 1.671815 0
-3.690388 -3.674689 1.671815 0
-3.790388 -3.474689 1.671815 0
-3.740388 -3.624689 1.721815 0
-3.740388 -3.574689 1.671815 0
-3.690388 -3.624689 1.671815 0
-3.690388 -3.574689 1.671815 0
-3.740388 -3.624689 1.771815 0
-3.740388 -3.574689 1.771815 0
-3.740388 -3.524688 1.721815 0
-3.740388 -3.474689 1.671815 0
-3.690388 -3.524688 1.671815 0
-3.690388 -3.474689 1.671815 0
-3.740388 -3.474689 1.771815 0
-3.690388 -3.424689 1.671815 0
-4.890388 0.1253115 0.1718147 0
-4.940388 0.07531147 0.3718147 0
-4.940388 0.07531147 0.4218147 0
-4.940388 0.07531147 0.4718147 0
-4.940388 0.07531147 0.5218147 0
-4.890388 0.07531147 0.4718147 0
-4.840388 0.1253115 0.1718147 0
-4.790388 0.2253115 0.3218147 0
-4.590388 0.1753115 0.2718147 0
-4.590388 0.1753115 0.3718147 0
-4.590388 0.2253115 0.4218147 0
-4.590388 0.2753115 0.2718147 0
-4.590388 0.2753115 0.3718147 0
-4.590388 0.3253115 0.4218147 0
-4.590388 0.1753115 0.4718147 0
-4.690388 0.3753115 0.3218147 0
-4.590388 0.3753115 0.2718147 0
-4.590388 0.4253115 0.3218147 0
-4.590388 0.3753115 0.3718147 0
-4.590388 0.4253115 0.3718147 0
-4.590388 0.4253115 0.4218147 0
-2.740388 0.2753115 0.1718147 0
-2.840388 0.2253115 0.3718147 0
-2.790388 0.2253115 0.3718147 0
-2.490388 0.3253115 0.2718147 0
-2.490388 0.3253115 0.3718147 0
-2.490388 0.3253115 0.4218147 0
-2.840388 0.2253115 0.4718147 0
-2.840388 0.2253115 0.5218147 0
-2.790388 0.2253115 0.4718147 0
-2.690388 0.3753115 0.3218147 0
-2.590388 0.5253115 0.3218147 0
-2.490388 0.4253115 0.2718147 0
-2.490388 0.4253115 0.3718147 0
-2.490388 0.4253115 0.4218147 0
-2.490388 0.5253115 0.2718147 0
-2.490388 0.4753115 0.4218147 0
-2.490388 0.5253115 0.3718147 0
-2.490388 0.5753115 0.3218147 0
-2.490388 0.5753115 0.3718147 0
-2.490388 0.5753115 0.4218147 0
0.4096119 -9.774689 0.2718147 0
0.3596118 -9.774689 0.3718147 0
0.4096119 -9.774689 0.4218147 0
0.5096118 -9.774689 0.2718147 0
0.4596118 -9.774689 0.3718147 0
0.4596118 -9.774689 0.4218147 0
0.5596119 -9.774689 0.2718147 0
0.5596119 -9.774689 0.4218147 0
0.6096119 -9.774689 0.3718147 0
0.6096119 -9.674688 0.2718147 0
0.6096119 -9.674688 0.3218147 0
0.6596118 -9.774689 0.2718147 0
0.6596118 -9.774689 0.3718147 0
0.6596118 -9.774689 0.4218147 0
0.3096119 -9.424688 0.3218147 0
0.3096119 -9.374689 0.3218147 0
0.3096119 -9.424688 0.3718147 0
0.3096119 -9.424688 0.4218147 0
0.3096119 -9.374689 0.3718147 0
0.3096119 -9.374689 0.4218147 0
0.3096119 -9.424688 0.4718147 0
0.3096119 -9.424688 0.5218147 0
0.3096119 -9.374689 0.4718147 0
0.3096119 -9.374689 0.5218147 0
0.3596118 -9.524689 0.1718147 0
0.4096119 -9.474689 0.1718147 0
0.5096118 -9.574689 0.3218147 0
0.3596118 -9.424688 0.5218147 0
0.3096119 -7.324688 0.3218147 0
0.3096119 -7.274689 0.3218147 0
0.3096119 -7.324688 0.3718147 0
0.3096119 -7.324688 0.4218147 0
0.3096119 -7.274689 0.4218147 0
0.3096119 -7.324688 0.4718147 0
0.3096119 -7.324688 0.5218147 0
0.3096119 -7.274689 0.4718147 0
0.3096119 -7.274689 0.5218147 0
0.3596118 -7.674689 0.2718147 0
0.3596118 -7.674689 0.3718147 0
0.3596118 -7.674689 0.4218147 0
0.4596118 -7.674689 0.2718147 0
0.4596118 -7.674689 0.3718147 0
0.4596118 -7.674689 0.4218147 0
0.5596119 -7.674689 0.2718147 0
0.5596119 -7.674689 0.3718147 0
0.5596119 -7.674689 0.4218147 0
0.6096119 -7.674689 0.4218147 0
0.6596118 -7.674689 0.2718147 0
0.6596118 -7.674689 0.3718147 0
0.4596118 -7.474689 0.2718147 0
0.3596118 -7.424689 0.1718147 0
0.3596118 -7.374689 0.1718147 0
0.5596119 -7.574688 0.2718147 0
0.6096119 -7.574688 0.2718147 0
0.3096119 -5.324688 0.1718147 0
0.3096119 -5.174689 0.3218147 0
0.3096119 -5.224689 0.3718147 0
0.3096119 -5.174689 0.3718147 0
0.3096119 -5.174689 0.4218147 0
0.3096119 -5.224689 0.4718147 0
0.3096119 -5.224689 0.5218147 0
0.3096119 -5.174689 0.5218147 0
0.3596118 -5.574688 0.2718147 0
0.3596118 -5.574688 0.3718147 0
0.4596118 -5.574688 0.2718147 0
0.4596118 -5.574688 0.3718147 0
0.4596118 -5.574688 0.4218147 0
0.3596118 -5.274689 0.1718147 0
0.4596118 -5.374689 0.3218147 0
0.5596119 -5.574688 0.2718147 0
0.5596119 -5.574688 0.3718147 0
0.5596119 -5.574688 0.4218147 0
0.6096119 -5.574688 0.4218147 0
0.6596118 -5.574688 0.3218147 0
0.6596118 -5.574688 0.3718147 0
0.5596119 -5.424689 0.3218147 0
0.3596118 -5.574688 0.4718147 0
3.409612 -9.924688 0.07181472 0
3.459612 -9.974689 0.1218147 0
3.509612 -9.974689 0.07181472 0
3.509612 -9.974689 0.1218147 0
3.459612 -9.924688 0.07181472 0
3.459612 -9.874689 0.07181472 0
3.459612 -9.874689 0.1218147 0
3.509612 -9.924688 0.07181472 0
3.409612 -9.824689 0.1218147 0
3.409612 -9.724689 0.07181472 0
3.409612 -9.674688 0.1218147 0
3.459612 -9.774689 0.07181472 0
3.459612 -9.774689 0.1218147 0
3.459612 -9.674688 0.07181472 0
3.459612 -9.674688 0.1218147 0
3.559612 -10.07469 0.07181472 0
3.609612 -10.07469 0.07181472 0
3.709612 -10.17469 0.07181472 0
3.659612 -10.12469 0.07181472 0
3.659612 -10.07469 0.1218147 0
3.809612 -10.22469 0.07181472 0
3.559612 -9.974689 0.1218147 0
3.659612 -9.974689 0.1218147 0
3.759612 -9.974689 0.1218147 0
3.759612 -9.924688 0.1218147 0
3.859612 -9.874689 0.1218147 0
3.909612 -9.924688 0.1218147 0
3.959612 -10.22469 0.1218147 0
3.959612 -10.17469 0.1218147 0
4.009612 -10.07469 0.1218147 0
4.309612 -10.17469 0.1218147 0
4.309612 -10.12469 0.1218147 0
4.009612 -9.874689 0.1218147 0
4.109612 -9.974689 0.1218147 0
4.109612 -9.874689 0.1218147 0
4.009612 -9.824689 0.1218147 0
3.959612 -9.674688 0.07181472 0
4.009612 -9.674688 0.1218147 0
4.109612 -9.774689 0.1218147 0
4.059612 -9.724689 0.07181472 0
4.059612 -9.724689 0.1218147 0
4.159612 -9.924688 0.1218147 0
4.159612 -9.874689 0.1218147 0
4.209612 -9.924688 0.1218147 0
4.209612 -9.874689 0.1218147 0
4.259612 -10.02469 0.1218147 0
4.259612 -9.874689 0.07181472 0
4.159612 -9.774689 0.07181472 0
4.209612 -9.824689 0.1218147 0
4.209612 -9.774689 0.1218147 0
4.209612 -9.674688 0.1218147 0
4.259612 -9.724689 0.1218147 0
4.309612 -9.674688 0.1218147 0
3.409612 -9.474689 0.07181472 0
3.409612 -9.474689 0.1218147 0
3.459612 -9.574689 0.07181472 0
3.459612 -9.574689 0.1218147 0
3.459612 -9.474689 0.07181472 0
3.459612 -9.474689 0.1218147 0
3.459612 -9.524689 0.1718147 0
3.409612 -9.274689 0.07181472 0
3.459612 -9.424688 0.1218147 0
3.459612 -9.374689 0.07181472 0
3.459612 -9.374689 0.1218147 0
3.459612 -9.274689 0.07181472 0
3.459612 -9.274689 0.1218147 0
3.409612 -9.224689 0.07181472 0
3.409612 -9.074689 0.07181472 0
3.459612 -9.224689 0.1218147 0
3.459612 -9.174688 0.07181472 0
3.509612 -9.174688 0.1218147 0
3.459612 -9.074689 0.07181472 0
3.459612 -9.074689 0.1218147 0
3.409612 -9.024689 0.07181472 0
3.409612 -8.924688 0.07181472 0
3.509612 -8.974689 0.07181472 0
3.509612 -8.974689 0.1218147 0
3.459612 -8.874689 0.1218147 0
3.509612 -8.924688 0.1218147 0
3.509612 -8.874689 0.07181472 0
3.409612 -8.674688 0.07181472 0
3.459612 -8.824689 0.07181472 0
3.459612 -8.774689 0.1218147 0
3.509612 -8.774689 0.07181472 0
3.509612 -8.774689 0.1218147 0
3.459612 -8.674688 0.1218147 0
3.509612 -8.674688 0.07181472 0
3.509612 -8.674688 0.1218147 0
3.459612 -8.624689 0.07181472 0
3.509612 -8.624689 0.1218147 0
3.509612 -8.574689 0.07181472 0
3.509612 -8.574689 0.1218147 0
3.459612 -8.524689 0.07181472 0
3.459612 -8.474689 0.1218147 0
3.509612 -8.524689 0.07181472 0
3.509612 -8.524689 0.1218147 0
3.509612 -8.474689 0.07181472 0
3.509612 -8.474689 0.1218147 0
3.459612 -8.424688 0.07181472 0
3.509612 -8.374689 0.07181472 0
3.459612 -8.324689 0.07181472 0
3.509612 -8.324689 0.1218147 0
3.509612 -8.274689 0.07181472 0
3.459612 -8.224689 0.07181472 0
3.509612 -8.224689 0.07181472 0
3.509612 -8.174688 0.07181472 0
3.459612 -8.124689 0.07181472 0
3.509612 -8.124689 0.1218147 0
3.509612 -8.074689 0.07181472 0
3.509612 -8.074689 0.1218147 0
3.559612 -9.474689 0.1718147 0
3.559612 -9.374689 0.07181472 0
3.659612 -9.424688 0.07181472 0
3.659612 -9.424688 0.1718147 0
3.659612 -9.274689 0.1218147 0
3.709612 -9.324689 0.1218147 0
3.759612 -9.524689 0.07181472 0
3.859612 -9.574689 0.07181472 0
3.909612 -9.574689 0.1218147 0
3.859612 -9.474689 0.1218147 0
3.759612 -9.374689 0.1218147 0
3.809612 -9.424688 0.1218147 0
3.759612 -9.374689 0.1718147 0
3.859612 -9.324689 0.1718147 0
3.609612 -9.174688 0.1218147 0
3.559612 -9.124689 0.1218147 0
3.959612 -9.624689 0.1218147 0
3.959612 -9.274689 0.1718147 0
4.309612 -9.624689 0.1218147 0
4.059612 -9.224689 0.1718147 0
4.209612 -9.174688 0.1718147 0
4.309612 -9.074689 0.1718147 0
4.309612 -8.874689 0.07181472 0
3.559612 -8.574689 0.1218147 0
3.559612 -8.474689 0.1218147 0
3.659612 -8.574689 0.1218147 0
3.759612 -8.524689 0.1218147 0
3.909612 -8.524689 0.1218147 0
3.609612 -8.424688 0.1218147 0
3.659612 -8.374689 0.1218147 0
3.559612 -8.224689 0.1218147 0
3.709612 -8.224689 0.07181472 0
3.659612 -8.124689 0.07181472 0
3.659612 -8.124689 0.1218147 0
3.759612 -8.324689 0.1218147 0
3.759612 -8.274689 0.1218147 0
3.809612 -8.324689 0.07181472 0
3.909612 -8.424688 0.07181472 0
3.809612 -8.224689 0.1218147 0
3.859612 -8.174688 0.1218147 0
3.909612 -8.124689 0.1218147 0
3.959612 -8.474689 0.07181472 0
4.009612 -8.474689 0.1218147 0
4.059612 -8.574689 0.07181472 0
4.209612 -8.774689 0.1218147 0
4.159612 -8.674688 0.07181472 0
4.109612 -8.424688 0.1218147 0
3.959612 -8.074689 0.1218147 0
4.259612 -8.374689 0.1218147 0
4.309612 -8.274689 0.1218147 0
4.209612 -8.074689 0.1218147 0
4.259612 -8.174688 0.1218147 0
4.309612 -8.224689 0.1218147 0
3.459612 -7.974689 0.07181472 0
3.509612 -8.024689 0.1218147 0
3.509612 -7.974689 0.07181472 0
3.509612 -7.974689 0.1218147 0
3.459612 -7.874689 0.07181472 0
3.509612 -7.924689 0.1218147 0
3.509612 -7.874689 0.07181472 0
3.509612 -7.874689 0.1218147 0
3.459612 -7.774689 0.1218147 0
3.509612 -7.774689 0.1218147 0
3.459612 -7.674689 0.07181472 0
3.459612 -7.624689 0.1218147 0
3.509612 -7.524689 0.07181472 0
3.459612 -7.424689 0.1218147 0
3.509612 -7.324688 0.07181472 0
3.509612 -7.274689 0.07181472 0
3.509612 -7.274689 0.1218147 0
3.509612 -7.124689 0.07181472 0
3.509612 -7.124689 0.1218147 0
3.509612 -7.074688 0.07181472 0
3.509612 -6.974689 0.07181472 0
3.509612 -6.924689 0.1218147 0
3.509612 -6.874689 0.07181472 0
3.509612 -6.774689 0.07181472 0
3.509612 -6.774689 0.1218147 0
3.509612 -6.674689 0.07181472 0
3.459612 -6.574688 0.07181472 0
3.459612 -6.574688 0.1218147 0
3.509612 -6.574688 0.07181472 0
3.459612 -6.474689 0.07181472 0
3.509612 -6.524689 0.07181472 0
3.509612 -6.524689 0.1218147 0
3.509612 -6.474689 0.07181472 0
3.559612 -8.024689 0.07181472 0
3.559612 -7.974689 0.07181472 0
3.559612 -7.874689 0.07181472 0
3.559612 -7.774689 0.07181472 0
3.559612 -7.674689 0.07181472 0
3.559612 -7.674689 0.1218147 0
3.759612 -8.024689 0.1218147 0
3.859612 -7.924689 0.1218147 0
3.909612 -7.824688 0.1218147 0
3.559612 -7.624689 0.1218147 0
3.559612 -7.574688 0.07181472 0
3.559612 -7.524689 0.07181472 0
3.559612 -7.474689 0.07181472 0
3.559612 -7.424689 0.07181472 0
3.559612 -7.374689 0.07181472 0
3.559612 -7.374689 0.1218147 0
3.559612 -7.274689 0.07181472 0
3.559612 -7.274689 0.1218147 0
3.709612 -7.274689 0.1218147 0
3.909612 -7.574688 0.1218147 0
3.859612 -7.474689 0.1218147 0
3.759612 -7.374689 0.1218147 0
3.809612 -7.424689 0.1218147 0
4.009612 -7.974689 0.1218147 0
4.059612 -7.874689 0.1218147 0
4.109612 -7.874689 0.1218147 0
4.009612 -7.724689 0.1218147 0
4.009612 -7.674689 0.1218147 0
4.059612 -7.774689 0.1218147 0
4.109612 -7.824688 0.1218147 0
4.209612 -7.974689 0.1218147 0
4.159612 -7.924689 0.1218147 0
4.159612 -7.774689 0.1218147 0
4.209612 -7.724689 0.1218147 0
3.959612 -7.624689 0.1218147 0
4.109612 -7.624689 0.1218147 0
4.159612 -7.524689 0.1218147 0
4.259612 -7.624689 0.1218147 0
4.309612 -7.574688 0.1218147 0
4.309612 -7.524689 0.1218147 0
4.259612 -7.424689 0.1218147 0
3.559612 -7.174689 0.07181472 0
3.559612 -7.174689 0.1218147 0
3.609612 -7.174689 0.1218147 0
3.559612 -7.124689 0.07181472 0
3.559612 -7.124689 0.1218147 0
3.559612 -7.074688 0.07181472 0
3.559612 -7.074688 0.1218147 0
3.659612 -7.224689 0.1218147 0
3.559612 -6.974689 0.07181472 0
3.559612 -6.974689 0.1218147 0
3.559612 -6.874689 0.07181472 0
3.559612 -6.874689 0.1218147 0
3.559612 -6.774689 0.07181472 0
3.559612 -6.774689 0.1218147 0
3.559612 -6.674689 0.07181472 0
3.559612 -6.674689 0.1218147 0
3.559612 -6.574688 0.1218147 0
3.659612 -6.474689 0.1218147 0
3.759612 -6.474689 0.1218147 0
3.459612 -6.424689 0.07181472 0
3.459612 -6.424689 0.1218147 0
3.509612 -6.424689 0.1218147 0
3.509612 -6.374689 0.07181472 0
3.509612 -6.374689 0.1218147 0
3.459612 -6.324688 0.07181472 0
3.459612 -6.274689 0.1218147 0
3.509612 -6.274689 0.07181472 0
3.509612 -6.274689 0.1218147 0
3.509612 -6.174689 0.07181472 0
3.509612 -6.174689 0.1218147 0
3.459612 -6.124689 0.07181472 0
3.459612 -6.124689 0.1218147 0
3.509612 -6.074688 0.07181472 0
3.459612 -5.974689 0.1218147 0
3.509612 -6.024689 0.07181472 0
3.509612 -5.974689 0.07181472 0
3.509612 -5.924689 0.07181472 0
3.509612 -5.874689 0.1218147 0
3.459612 -5.824688 0.1218147 0
3.509612 -5.824688 0.07181472 0
3.509612 -5.774689 0.07181472 0
3.509612 -5.674689 0.1218147 0
3.509612 -5.624689 0.07181472 0
3.509612 -5.574688 0.07181472 0
3.509612 -5.524689 0.1218147 0
3.509612 -5.474689 0.07181472 0
3.509612 -5.424689 0.07181472 0
3.509612 -5.374689 0.1218147 0
3.509612 -5.274689 0.07181472 0
3.509612 -5.274689 0.1218147 0
3.509612 -5.224689 0.07181472 0
3.509612 -5.224689 0.1218147 0
3.509612 -5.124689 0.07181472 0
3.509612 -5.074688 0.07181472 0
3.509612 -4.974689 0.07181472 0
3.509612 -4.874689 0.07181472 0
3.559612 -6.224689 0.07181472 0
3.609612 -6.174689 0.1218147 0
3.559612 -6.124689 0.07181472 0
3.559612 -6.074688 0.07181472 0
3.659612 -6.124689 0.1218147 0
3.709612 -6.074688 0.1218147 0
3.859612 -6.424689 0.1218147 0
3.759612 -6.074688 0.1218147 0
3.559612 -6.024689 0.07181472 0
3.559612 -5.974689 0.07181472 0
3.559612 -5.924689 0.07181472 0
3.559612 -5.874689 0.07181472 0
3.559612 -5.824688 0.07181472 0
3.559612 -5.774689 0.07181472 0
3.559612 -5.724689 0.07181472 0
3.559612 -5.674689 0.07181472 0
3.759612 -5.974689 0.1218147 0
3.809612 -5.924689 0.1218147 0
3.859612 -5.874689 0.1218147 0
3.909612 -5.824688 0.1218147 0
4.009612 -6.374689 0.1218147 0
4.109612 -6.324688 0.1218147 0
4.209612 -6.324688 0.1218147 0
4.309612 -6.124689 0.1218147 0
3.959612 -5.774689 0.1218147 0
4.009612 -5.674689 0.1218147 0
4.109612 -5.674689 0.1218147 0
4.209612 -5.924689 0.1218147 0
4.259612 -6.024689 0.1218147 0
4.309612 -5.874689 0.1218147 0
4.159612 -5.774689 0.1218147 0
4.159612 -5.674689 0.1218147 0
4.209612 -5.724689 0.1218147 0
4.259612 -5.774689 0.1218147 0
3.559612 -5.624689 0.07181472 0
3.559612 -5.574688 0.07181472 0
3.559612 -5.524689 0.07181472 0
3.559612 -5.474689 0.07181472 0
3.559612 -5.424689 0.07181472 0
3.559612 -5.374689 0.07181472 0
3.559612 -5.324688 0.07181472 0
3.559612 -5.274689 0.07181472 0
3.559612 -5.274689 0.1218147 0
3.609612 -5.274689 0.07181472 0
3.859612 -5.274689 0.1218147 0
3.909612 -5.274689 0.1218147 0
3.559612 -5.224689 0.07181472 0
3.559612 -5.174689 0.07181472 0
3.559612 -5.174689 0.1218147 0
3.559612 -5.124689 0.07181472 0
3.559612 -5.124689 0.1218147 0
3.559612 -5.074688 0.07181472 0
3.559612 -5.074688 0.1218147 0
3.609612 -5.074688 0.07181472 0
3.709612 -5.074688 0.1218147 0
3.559612 -5.024689 0.07181472 0
3.559612 -4.974689 0.07181472 0
3.559612 -4.974689 0.1218147 0
3.609612 -4.974689 0.07181472 0
3.609612 -4.974689 0.1218147 0
3.559612 -4.924689 0.07181472 0
3.559612 -4.874689 0.07181472 0
3.559612 -4.874689 0.1218147 0
3.609612 -4.924689 0.1218147 0
3.609612 -4.874689 0.07181472 0
3.609612 -4.874689 0.1218147 0
3.659612 -4.874689 0.1218147 0
3.809612 -5.174689 0.1218147 0
3.809612 -5.124689 0.1218147 0
3.859612 -5.224689 0.1218147 0
3.809612 -4.974689 0.1218147 0
3.759612 -4.874689 0.1218147 0
4.009612 -5.574688 0.1218147 0
3.959612 -5.474689 0.1218147 0
4.059612 -5.574688 0.1218147 0
4.109612 -5.574688 0.1218147 0
4.059612 -5.524689 0.1218147 0
4.059612 -5.474689 0.1218147 0
4.109612 -5.524689 0.1218147 0
4.009612 -5.374689 0.1218147 0
3.959612 -5.324688 0.1218147 0
4.159612 -5.474689 0.1218147 0
4.159612 -5.374689 0.1218147 0
4.209612 -5.324688 0.1218147 0
4.209612 -5.274689 0.1218147 0
4.259612 -5.174689 0.1218147 0
4.309612 -5.124689 0.1218147 0
4.309612 -5.074688 0.1218147 0
0.3596118 -3.474689 0.2718147 0
0.3596118 -3.474689 0.3718147 0
0.3596118 -3.474689 0.4218147 0
0.4596118 -3.474689 0.2718147 0
0.4596118 -3.474689 0.3718147 0
0.4596118 -3.474689 0.4218147 0
0.5596119 -3.474689 0.2718147 0
0.6096119 -3.424689 0.3218147 0
0.5596119 -3.424689 0.3718147 0
0.5596119 -3.424689 0.4218147 0
0.6096119 -3.424689 0.3718147 0
0.6096119 -3.424689 0.4218147 0
0.5596119 -3.324689 0.3218147 0
0.3096119 -3.174689 0.1718147 0
0.3096119 -3.074689 0.3218147 0
0.3096119 -3.124689 0.3718147 0
0.3096119 -3.074689 0.3718147 0
0.3096119 -3.074689 0.4218147 0
0.3096119 -3.124689 0.4718147 0
0.3096119 -3.074689 0.4718147 0
0.3096119 -3.074689 0.5218147 0
0.3596118 -3.174689 0.1718147 0
0.4596118 -3.224689 0.3218147 0
-0.7403882 0.3253115 0.3218147 0
-0.7403882 0.3253115 0.3718147 0
-0.6903881 0.3253115 0.3718147 0
-0.7403882 0.3253115 0.4718147 0
-0.7403882 0.3253115 0.5218147 0
-0.6903881 0.4253115 0.1718147 0
-0.6903881 0.3753115 0.3718147 0
-0.6403882 0.3753115 0.1718147 0
-0.5903882 0.5253115 0.3218147 0
-0.4903882 0.6253115 0.3218147 0
-0.7403882 0.3753115 0.5218147 0
-0.6903881 0.3753115 0.4718147 0
-0.4903882 1.175311 0.2718147 0
-0.4903882 1.175311 0.3718147 0
0.2596118 -1.074689 0.2718147 0
0.3096119 -1.124689 0.2718147 0
0.2596118 -1.074689 0.3718147 0
0.2596118 -1.074689 0.4218147 0
0.3096119 -1.124689 0.3718147 0
0.3096119 -1.124689 0.4218147 0
0.3096119 -0.7746885 0.3718147 0
0.3096119 -0.7246885 0.3218147 0
0.3096119 -0.6746885 0.3218147 0
0.3096119 -0.7246885 0.3718147 0
0.3096119 -0.6746885 0.4218147 0
0.3096119 -0.6246886 0.2718147 0
0.3096119 -0.5746886 0.2718147 0
0.2596118 -0.6246886 0.3718147 0
0.3096119 -0.5746886 0.3718147 0
0.3096119 -0.5746886 0.4218147 0
0.3096119 -0.5246885 0.2718147 0
0.3096119 -0.5246885 0.3718147 0
0.3096119 -0.5246885 0.4218147 0
0.3096119 -0.7746885 0.4718147 0
0.3096119 -0.7246885 0.4718147 0
0.3096119 -0.7246885 0.5218147 0
0.3096119 -0.6746885 0.4718147 0
0.3096119 -0.6746885 0.5218147 0
-0.04038816 -0.3246885 0.3218147 0
-0.04038816 -0.3246885 0.3718147 0
-0.04038816 -0.3246885 0.4218147 0
0.009611839 -0.3246885 0.3718147 0
0.009611839 -0.2746885 0.3718147 0
0.009611839 -0.2746885 0.4218147 0
0.05961184 -0.2246885 0.1718147 0
0.1596118 -0.1746885 0.3218147 0
0.2596118 -0.07468853 0.3218147 0
0.009611839 -0.3246885 0.4718147 0
0.009611839 -0.3246885 0.5218147 0
0.009611839 -0.2746885 0.4718147 0
0.009611839 -0.2746885 0.5218147 0
0.3596118 -1.124689 0.2718147 0
0.3596118 -1.074689 0.2718147 0
0.3596118 -1.124689 0.4218147 0
0.3596118 -1.074689 0.3718147 0
0.3596118 -1.074689 0.4218147 0
0.4096119 -1.124689 0.3718147 0
0.4096119 -1.124689 0.4218147 0
0.4596118 -1.124689 0.2718147 0
0.5096118 -1.124689 0.2718147 0
0.4596118 -1.124689 0.3718147 0
0.4596118 -1.124689 0.4218147 0
0.5096118 -1.124689 0.3718147 0
0.5096118 -1.124689 0.4218147 0
0.4096119 -0.9246885 0.3218147 0
0.4096119 -0.8746886 0.3218147 0
0.4596118 -1.024689 0.3218147 0
0.5096118 -1.024689 0.2718147 0
0.5096118 -1.024689 0.3218147 0
0.4596118 -0.9746885 0.4218147 0
0.5096118 -1.024689 0.3718147 0
0.4596118 -0.9246885 0.2718147 0
0.4596118 -0.9246885 0.3718147 0
0.4596118 -0.9246885 0.4218147 0
0.5596119 -1.124689 0.3218147 0
0.5596119 -1.074689 0.3218147 0
0.6096119 -1.074689 0.3218147 0
0.5596119 -1.124689 0.3718147 0
0.5596119 -1.124689 0.4218147 0
0.6096119 -1.074689 0.3718147 0
0.6596118 -1.074689 0.3718147 0
0.7096118 -1.074689 0.3718147 0
0.7096118 -1.024689 0.1718147 0
0.7096118 -0.9746885 0.1718147 0
0.6096119 -0.9246885 0.2718147 0
0.6096119 -1.074689 0.4718147 0
0.6096119 -1.074689 0.5218147 0
0.6596118 -1.074689 0.4718147 0
0.6596118 -1.074689 0.5218147 0
0.7096118 -1.074689 0.4718147 0
0.7096118 -1.074689 0.5218147 0
0.7596118 -1.074689 0.3218147 0
0.7596118 -0.9746885 0.1718147 0
0.7596118 -1.024689 0.3218147 0
0.7596118 -1.024689 0.3718147 0
0.7596118 -1.024689 0.4218147 0
0.7596118 -0.9246885 0.3218147 0
0.8096119 -0.8746886 0.3218147 0
1.009612 -0.9746885 0.2718147 0
1.009612 -0.9746885 0.3718147 0
1.009612 -0.9746885 0.4218147 0
0.9596118 -0.8746886 0.2718147 0
1.009612 -0.9246885 0.2718147 0
0.9596118 -0.9246885 0.4218147 0
0.9596118 -0.8746886 0.3718147 0
1.009612 -0.9246885 0.3718147 0
1.009612 -0.9246885 0.4218147 0
0.7596118 -1.024689 0.4718147 0
0.7596118 -1.024689 0.5218147 0
0.3596118 -0.8246886 0.1718147 0
0.3596118 -0.7746885 0.1718147 0
0.4596118 -0.8246886 0.2718147 0
0.4596118 -0.8246886 0.3718147 0
0.4596118 -0.8246886 0.4218147 0
0.4596118 -0.7246885 0.2718147 0
0.4596118 -0.7246885 0.3718147 0
0.4596118 -0.7246885 0.4218147 0
0.4096119 -0.6246886 0.3218147 0
0.3596118 -0.4746885 0.2718147 0
0.3596118 -0.5246885 0.3718147 0
0.3596118 -0.4746885 0.4218147 0
0.4096119 -0.4746885 0.3718147 0
0.4096119 -0.4746885 0.4218147 0
0.4596118 -0.5746886 0.3218147 0
0.7096118 -0.6746885 0.1718147 0
0.6596118 -0.8246886 0.3218147 0
0.6596118 -0.5746886 0.1718147 0
0.7096118 -0.5746886 0.1718147 0
0.5596119 -0.5746886 0.3218147 0
0.4096119 -0.3746885 0.2718147 0
0.3596118 -0.2746885 0.3718147 0
0.3596118 -0.2746885 0.4218147 0
0.4596118 -0.4246885 0.2718147 0
0.5096118 -0.3746885 0.2718147 0
0.4596118 -0.4246885 0.3718147 0
0.4596118 -0.4246885 0.4218147 0
0.4596118 -0.3746885 0.3718147 0
0.4596118 -0.3746885 0.4218147 0
0.5096118 -0.3746885 0.3718147 0
0.5096118 -0.3746885 0.4218147 0
0.3596118 -0.2246885 0.2718147 0
0.3596118 -0.1746885 0.2718147 0
0.3596118 -0.1746885 0.3718147 0
0.3596118 -0.1746885 0.4218147 0
0.3596118 -0.07468853 0.2718147 0
0.3596118 -0.07468853 0.3718147 0
0.3596118 -0.07468853 0.4218147 0
0.7596118 -0.7246885 0.1718147 0
0.8096119 -0.8246886 0.3218147 0
0.8596119 -0.8246886 0.3218147 0
0.8596119 -0.7746885 0.3218147 0
0.8596119 -0.6746885 0.3218147 0
0.9096119 -0.6746885 0.3218147 0
0.8096119 -0.5746886 0.3218147 0
0.7596118 -0.5746886 0.3718147 0
0.8096119 -0.6246886 0.3718147 0
0.8096119 -0.6246886 0.4218147 0
0.8096119 -0.5746886 0.3718147 0
0.8096119 -0.5746886 0.4218147 0
0.7596118 -0.5246885 0.3218147 0
0.7596118 -0.5246885 0.3718147 0
0.9096119 -0.5746886 0.2718147 0
0.9096119 -0.5746886 0.3718147 0
0.9096119 -0.5746886 0.4218147 0
0.9596118 -0.7746885 0.2718147 0
1.009612 -0.8246886 0.2718147 0
1.009612 -0.7746885 0.2718147 0
0.9596118 -0.8246886 0.4218147 0
0.9596118 -0.7746885 0.3718147 0
1.009612 -0.8246886 0.3718147 0
1.009612 -0.8246886 0.4218147 0
0.9596118 -0.7246885 0.2718147 0
1.009612 -0.7246885 0.2718147 0
0.9596118 -0.7246885 0.3718147 0
0.9596118 -0.7246885 0.4218147 0
0.9596118 -0.6746885 0.3718147 0
0.9596118 -0.6746885 0.4218147 0
1.009612 -0.7246885 0.3718147 0
1.009612 -0.7246885 0.4218147 0
1.059612 -0.8246886 0.3718147 0
1.059612 -0.8246886 0.4218147 0
0.9596118 -0.6246886 0.2718147 0
0.9596118 -0.6246886 0.3718147 0
0.9596118 -0.6246886 0.4218147 0
0.7596118 -0.5746886 0.4718147 0
0.8096119 -0.6246886 0.4718147 0
0.8096119 -0.6246886 0.5218147 0
0.8096119 -0.5746886 0.4718147 0
0.8096119 -0.5746886 0.5218147 0
0.7596118 -0.5246885 0.4718147 0
0.7596118 -0.5246885 0.5218147 0
-0.3903882 0.4253115 0.2718147 0
-0.3903882 0.4253115 0.3718147 0
-0.3903882 0.5253115 0.2718147 0
-0.3903882 0.5253115 0.3718147 0
-0.3903882 0.5253115 0.4218147 0
-0.3903882 0.6253115 0.2718147 0
-0.3903882 0.6253115 0.3718147 0
-0.3903882 0.6253115 0.4218147 0
-0.3903882 0.7253115 0.3218147 0
-0.3903882 0.6753115 0.4218147 0
-0.3903882 0.7253115 0.3718147 0
-0.3903882 0.4253115 0.4718147 0
0.3096119 0.2753115 0.2718147 0
0.3096119 0.2753115 0.3718147 0
0.3096119 0.2753115 0.4218147 0
0.2596118 0.5253115 0.1718147 0
0.3096119 0.5753115 0.1718147 0
0.2096118 0.6253115 0.3218147 0
0.2096118 0.5753115 0.3718147 0
0.2096118 0.6253115 0.4218147 0
0.2596118 0.6253115 0.3718147 0
0.2096118 0.6253115 0.4718147 0
0.2096118 0.6253115 0.5218147 0
0.2596118 0.6253115 0.4718147 0
0.2596118 0.6253115 0.5218147 0
-0.3903882 1.075312 0.3218147 0
-0.2903882 0.9753115 0.3218147 0
-0.1903882 0.9253115 0.1718147 0
-0.1403882 0.9253115 0.1718147 0
-0.09038816 0.8253115 0.3218147 0
-0.09038816 0.8253115 0.3718147 0
-0.09038816 0.8253115 0.4218147 0
-0.09038816 0.8753115 0.3218147 0
-0.1403882 0.8753115 0.3718147 0
-0.09038816 0.8253115 0.4718147 0
-0.09038816 0.8253115 0.5218147 0
-0.1403882 0.8753115 0.4718147 0
-0.09038816 0.8753115 0.4718147 0
-0.09038816 0.8753115 0.5218147 0
-0.3903882 1.175311 0.2718147 0
-0.4403882 1.175311 0.4218147 0
-0.3903882 1.175311 0.3718147 0
-0.3903882 1.175311 0.4218147 0
-0.2903882 1.225312 0.2718147 0
-0.2903882 1.175311 0.3718147 0
-0.2903882 1.175311 0.4218147 0
-0.2403882 1.225312 0.2718147 0
-0.1903882 1.225312 0.3718147 0
-0.1903882 1.225312 0.4218147 0
0.3596118 0.02531147 0.2718147 0
0.3596118 -0.02468853 0.4218147 0
0.3596118 0.02531147 0.3718147 0
0.4096119 0.2753115 0.2718147 0
0.4096119 0.2753115 0.3718147 0
0.4096119 0.2753115 0.4218147 0
0.5096118 0.2753115 0.2718147 0
0.5096118 0.2753115 0.3718147 0
0.5096118 0.2753115 0.4218147 0
0.5596119 0.2753115 0.3218147 0
0.5596119 0.2753115 0.3718147 0
0.5596119 0.2753115 0.4218147 0
0.4096119 0.4753115 0.3218147 0
0.5096118 0.3753115 0.3218147 0
3.409612 -3.974689 1.321815 0
3.359612 -3.974689 1.421815 0
3.409612 -3.974689 1.371815 0
3.409612 -3.974689 1.421815 0
3.409612 -3.924689 1.371815 0
3.459612 -3.974689 1.271815 0
3.459612 -3.974689 1.321815 0
3.509612 -4.024689 1.271815 0
3.509612 -3.974689 1.271815 0
3.509612 -3.974689 1.321815 0
3.459612 -3.974689 1.371815 0
3.459612 -3.974689 1.421815 0
3.509612 -3.974689 1.371815 0
3.509612 -3.974689 1.421815 0
3.509612 -3.924689 1.271815 0
3.509612 -3.924689 1.321815 0
3.359612 -3.974689 1.471815 0
3.359612 -3.974689 1.521815 0
3.409612 -3.974689 1.471815 0
3.409612 -3.974689 1.521815 0
3.409612 -3.974689 1.571815 0
3.359612 -3.924689 1.471815 0
3.459612 -3.974689 1.471815 0
3.459612 -3.974689 1.521815 0
3.509612 -3.974689 1.471815 0
3.509612 -3.974689 1.521815 0
3.509612 -3.974689 1.571815 0
3.509612 -3.974689 1.621815 0
3.559612 -4.824688 0.07181472 0
3.559612 -4.774689 0.07181472 0
3.609612 -4.824688 0.1218147 0
3.609612 -4.774689 0.07181472 0
3.609612 -4.774689 0.1218147 0
3.559612 -4.724689 0.07181472 0
3.559612 -4.724689 0.1218147 0
3.559612 -4.674689 0.07181472 0
3.609612 -4.724689 0.07181472 0
3.609612 -4.724689 0.1218147 0
3.609612 -4.674689 0.07181472 0
3.609612 -4.674689 0.1218147 0
3.709612 -4.774689 0.1218147 0
3.559612 -4.624689 0.07181472 0
3.559612 -4.624689 0.1218147 0
3.559612 -4.574688 0.07181472 0
3.609612 -4.624689 0.07181472 0
3.609612 -4.624689 0.1218147 0
3.609612 -4.574688 0.07181472 0
3.609612 -4.574688 0.1218147 0
3.559612 -4.524689 0.07181472 0
3.559612 -4.474689 0.07181472 0
3.609612 -4.524689 0.07181472 0
3.609612 -4.524689 0.1218147 0
3.609612 -4.474689 0.07181472 0
3.609612 -4.474689 0.1218147 0
3.659612 -4.624689 0.1218147 0
3.709612 -4.624689 0.1218147 0
3.759612 -4.674689 0.1218147 0
3.859612 -4.674689 0.1218147 0
3.809612 -4.574688 0.1218147 0
3.559612 -4.374689 0.07181472 0
3.609612 -4.424689 0.07181472 0
3.609612 -4.424689 0.1218147 0
3.609612 -4.374689 0.07181472 0
3.609612 -4.374689 0.1218147 0
3.609612 -4.324688 0.07181472 0
3.609612 -4.324688 0.1218147 0
3.609612 -4.274689 0.07181472 0
3.659612 -4.324688 0.1218147 0
3.659612 -4.274689 0.07181472 0
3.659612 -4.274689 0.1218147 0
3.609612 -4.074688 0.07181472 0
3.609612 -4.074688 0.1218147 0
3.659612 -4.224689 0.07181472 0
3.659612 -4.224689 0.1218147 0
3.659612 -4.174689 0.07181472 0
3.659612 -4.174689 0.1218147 0
3.709612 -4.224689 0.07181472 0
3.709612 -4.174689 0.07181472 0
3.709612 -4.174689 0.1218147 0
3.709612 -4.124689 0.07181472 0
3.859612 -4.424689 0.1218147 0
3.859612 -4.274689 0.1218147 0
3.909612 -4.324688 0.1218147 0
3.759612 -4.174689 0.1218147 0
3.759612 -4.124689 0.07181472 0
3.759612 -4.124689 0.1218147 0
3.759612 -4.074688 0.07181472 0
3.809612 -4.074688 0.07181472 0
3.809612 -4.074688 0.1218147 0
3.859612 -4.074688 0.07181472 0
3.859612 -4.074688 0.1218147 0
3.909612 -4.074688 0.07181472 0
3.959612 -4.674689 0.1218147 0
4.059612 -4.724689 0.1218147 0
4.009612 -4.524689 0.1218147 0
4.109612 -4.474689 0.1218147 0
4.159612 -4.724689 0.1218147 0
4.259612 -4.724689 0.1218147 0
3.959612 -4.224689 0.1218147 0
4.109612 -4.174689 0.1218147 0
4.209612 -4.424689 0.1218147 0
4.309612 -4.374689 0.1218147 0
4.209612 -4.124689 0.1218147 0
4.309612 -4.124689 0.1218147 0
3.559612 -3.974689 0.07181472 0
3.609612 -3.974689 0.07181472 0
3.609612 -3.974689 0.1218147 0
3.559612 -3.974689 0.1718147 0
3.559612 -3.974689 0.2218147 0
3.609612 -3.974689 0.1718147 0
3.609612 -3.924689 0.07181472 0
3.609612 -3.924689 0.1218147 0
3.609612 -3.874689 0.07181472 0
3.609612 -3.874689 0.1218147 0
3.609612 -3.924689 0.1718147 0
3.609612 -3.924689 0.2218147 0
3.609612 -3.874689 0.1718147 0
3.659612 -3.974689 0.07181472 0
3.659612 -3.974689 0.1218147 0
3.709612 -3.974689 0.1218147 0
3.659612 -3.974689 0.1718147 0
3.709612 -3.974689 0.2218147 0
3.659612 -3.924689 0.07181472 0
3.659612 -3.924689 0.1218147 0
3.659612 -3.874689 0.07181472 0
3.659612 -3.874689 0.1218147 0
3.709612 -3.924689 0.07181472 0
3.709612 -3.924689 0.1218147 0
3.709612 -3.874689 0.07181472 0
3.709612 -3.874689 0.1218147 0
3.659612 -3.924689 0.1718147 0
3.659612 -3.924689 0.2218147 0
3.659612 -3.874689 0.1718147 0
3.659612 -3.874689 0.2218147 0
3.709612 -3.924689 0.1718147 0
3.709612 -3.924689 0.2218147 0
3.709612 -3.874689 0.1718147 0
3.709612 -3.874689 0.2218147 0
3.609612 -3.974689 0.2718147 0
3.559612 -3.974689 0.4218147 0
3.609612 -3.974689 0.4218147 0
3.609612 -3.924689 0.2718147 0
3.609612 -3.874689 0.2718147 0
3.609612 -3.924689 0.3718147 0
3.609612 -3.924689 0.4218147 0
3.609612 -3.874689 0.3718147 0
3.609612 -3.874689 0.4218147 0
3.659612 -3.974689 0.2718147 0
3.659612 -3.974689 0.3718147 0
3.709612 -4.024689 0.4218147 0
3.709612 -3.974689 0.3718147 0
3.709612 -3.974689 0.4218147 0
3.659612 -3.924689 0.2718147 0
3.659612 -3.874689 0.2718147 0
3.709612 -3.924689 0.2718147 0
3.709612 -3.874689 0.2718147 0
3.659612 -3.924689 0.4218147 0
3.659612 -3.874689 0.3718147 0
3.659612 -3.874689 0.4218147 0
3.709612 -3.924689 0.3718147 0
3.709612 -3.924689 0.4218147 0
3.709612 -3.874689 0.4218147 0
3.759612 -3.974689 0.1218147 0
3.809612 -4.024689 0.07181472 0
3.759612 -3.974689 0.1718147 0
3.759612 -3.924689 0.1218147 0
3.759612 -3.874689 0.1218147 0
3.859612 -4.024689 0.07181472 0
3.909612 -4.024689 0.07181472 0
3.909612 -4.024689 0.1218147 0
3.759612 -3.924689 0.2718147 0
3.759612 -3.874689 0.2718147 0
3.759612 -3.924689 0.4218147 0
3.759612 -3.874689 0.4218147 0
3.559612 -3.974689 0.4718147 0
3.609612 -4.024689 0.5218147 0
3.559612 -4.024689 0.6218147 0
3.609612 -3.974689 0.5718147 0
3.609612 -3.924689 0.4718147 0
3.609612 -3.924689 0.5218147 0
3.609612 -3.874689 0.4718147 0
3.609612 -3.924689 0.5718147 0
3.609612 -3.924689 0.6218147 0
3.609612 -3.874689 0.5718147 0
3.609612 -3.874689 0.6218147 0
3.659612 -3.974689 0.4718147 0
3.659612 -3.974689 0.5218147 0
3.709612 -3.974689 0.5218147 0
3.659612 -3.974689 0.5718147 0
3.659612 -3.974689 0.6218147 0
3.709612 -3.974689 0.6218147 0
3.659612 -3.874689 0.4718147 0
3.659612 -3.874689 0.5218147 0
3.709612 -3.924689 0.4718147 0
3.709612 -3.874689 0.4718147 0
3.709612 -3.874689 0.5218147 0
3.659612 -3.924689 0.5718147 0
3.659612 -3.924689 0.6218147 0
3.659612 -3.874689 0.5718147 0
3.659612 -3.874689 0.6218147 0
3.709612 -3.924689 0.5718147 0
3.709612 -3.924689 0.6218147 0
3.709612 -3.874689 0.5718147 0
3.709612 -3.874689 0.6218147 0
3.609612 -3.974689 0.7218148 0
3.559612 -3.974689 0.8218147 0
3.609612 -3.974689 0.7718147 0
3.609612 -3.924689 0.6718147 0
3.609612 -3.924689 0.7218148 0
3.609612 -3.874689 0.6718147 0
3.609612 -3.874689 0.7218148 0
3.609612 -3.924689 0.7718147 0
3.609612 -3.924689 0.8218147 0
3.609612 -3.874689 0.7718147 0
3.609612 -3.874689 0.8218147 0
3.659612 -3.974689 0.6718147 0
3.659612 -3.974689 0.7218148 0
3.709612 -4.024689 0.6718147 0
3.709612 -3.974689 0.6718147 0
3.659612 -3.974689 0.7718147 0
3.659612 -3.974689 0.8218147 0
3.709612 -3.974689 0.8218147 0
3.659612 -3.924689 0.6718147 0
3.659612 -3.924689 0.7218148 0
3.659612 -3.874689 0.6718147 0
3.659612 -3.874689 0.7218148 0
3.709612 -3.924689 0.7218148 0
3.709612 -3.874689 0.6718147 0
3.709612 -3.874689 0.7218148 0
3.659612 -3.924689 0.7718147 0
3.659612 -3.924689 0.8218147 0
3.659612 -3.874689 0.7718147 0
3.659612 -3.874689 0.8218147 0
3.709612 -3.924689 0.8218147 0
3.709612 -3.874689 0.7718147 0
3.759612 -3.974689 0.4718147 0
3.759612 -3.924689 0.5718147 0
3.759612 -3.874689 0.5718147 0
3.759612 -3.974689 0.8218147 0
3.759612 -3.924689 0.6718147 0
3.759612 -3.924689 0.7218148 0
3.759612 -3.874689 0.7218148 0
3.759612 -3.874689 0.8218147 0
3.959612 -4.024689 0.07181472 0
3.959612 -4.024689 0.1218147 0
3.959612 -3.974689 0.07181472 0
3.959612 -3.974689 0.1218147 0
4.009612 -4.024689 0.07181472 0
4.009612 -4.024689 0.1218147 0
4.009612 -3.974689 0.07181472 0
4.009612 -3.974689 0.1218147 0
4.059612 -4.024689 0.07181472 0
4.059612 -4.024689 0.1218147 0
4.059612 -3.974689 0.07181472 0
4.059612 -3.974689 0.1218147 0
4.109612 -4.024689 0.07181472 0
4.109612 -4.024689 0.1218147 0
4.109612 -3.974689 0.07181472 0
4.109612 -3.974689 0.1218147 0
4.159612 -4.024689 0.07181472 0
4.159612 -4.024689 0.1218147 0
4.159612 -3.974689 0.07181472 0
4.159612 -3.974689 0.1218147 0
4.209612 -4.024689 0.07181472 0
4.209612 -3.974689 0.07181472 0
4.209612 -3.974689 0.1218147 0
4.259612 -4.024689 0.07181472 0
4.259612 -4.024689 0.1218147 0
4.259612 -3.974689 0.07181472 0
4.259612 -3.974689 0.1218147 0
4.309612 -3.974689 0.07181472 0
4.309612 -3.974689 0.1218147 0
3.609612 -4.024689 0.9218147 0
3.609612 -3.974689 0.8718147 0
3.559612 -3.974689 0.9718148 0
3.559612 -3.974689 1.021815 0
3.609612 -3.974689 0.9718148 0
3.609612 -3.924689 0.8718147 0
3.609612 -3.924689 0.9218147 0
3.609612 -3.874689 0.8718147 0
3.609612 -3.924689 0.9718148 0
3.609612 -3.924689 1.021815 0
3.609612 -3.874689 0.9718148 0
3.659612 -3.974689 0.8718147 0
3.709612 -3.974689 0.9218147 0
3.659612 -3.974689 0.9718148 0
3.709612 -4.024689 0.9718148 0
3.709612 -3.974689 0.9718148 0
3.709612 -3.974689 1.021815 0
3.659612 -3.924689 0.8718147 0
3.659612 -3.874689 0.8718147 0
3.659612 -3.874689 0.9218147 0
3.709612 -3.924689 0.9218147 0
3.709612 -3.874689 0.8718147 0
3.659612 -3.924689 0.9718148 0
3.659612 -3.924689 1.021815 0
3.659612 -3.874689 0.9718148 0
3.659612 -3.874689 1.021815 0
3.709612 -3.924689 0.9718148 0
3.709612 -3.874689 0.9718148 0
3.709612 -3.874689 1.021815 0
3.559612 -3.974689 1.121815 0
3.609612 -3.974689 1.121815 0
3.559612 -3.974689 1.171815 0
3.559612 -3.974689 1.221815 0
3.559612 -3.924689 1.071815 0
3.609612 -3.924689 1.071815 0
3.609612 -3.924689 1.121815 0
3.609612 -3.874689 1.071815 0
3.559612 -3.924689 1.221815 0
3.609612 -3.924689 1.171815 0
3.609612 -3.924689 1.221815 0
3.609612 -3.874689 1.171815 0
3.659612 -3.974689 1.071815 0
3.659612 -3.974689 1.121815 0
3.709612 -4.024689 1.121815 0
3.709612 -3.974689 1.121815 0
3.659612 -3.974689 1.221815 0
3.709612 -3.974689 1.221815 0
