# .PCD v0.7 - Point Cloud Data file format
VERSION 0.7
FIELDS x y z intensity
SIZE 4 4 4 4
TYPE F F F F
COUNT 1 1 1 1
WIDTH 1560
HEIGHT 1
VIEWPOINT 0 0 0 1 0 0 0
POINTS 1560
DATA ascii
-21.19039 52.52531 0.2218147 0
-21.19039 52.47531 0.4218147 0
-21.19039 52.52531 0.6718147 0
-20.84039 51.97531 0.2218147 0
-20.84039 52.02531 0.1718147 0
-20.79039 52.02531 0.1718147 0
-20.84039 52.17531 0.1718147 0
-20.84039 52.22531 0.1718147 0
-20.74039 52.17531 0.1718147 0
-20.64039 52.27531 0.1718147 0
-20.54039 52.32531 0.1718147 0
-20.84039 52.37531 0.1718147 0
-20.49039 52.47531 0.1718147 0
-21.14039 51.97531 1.071815 0
-21.19039 52.22531 0.8718147 0
-21.14039 52.27531 1.121815 0
-21.04039 52.22531 1.321815 0
-21.09039 52.67531 1.121815 0
-20.39039 51.17531 0.4218147 0
-20.29039 51.17531 0.4218147 0
-20.19039 51.17531 0.4218147 0
-19.64039 49.57531 0.07181472 0
-19.59039 49.62531 0.1218147 0
-19.54039 49.57531 0.07181472 0
-19.49039 49.62531 0.1218147 0
-19.54039 49.62531 0.1718147 0
-19.49039 49.72531 0.1718147 0
-19.44039 49.57531 0.07181472 0
-19.39039 49.62531 0.1218147 0
-19.34039 49.57531 0.07181472 0
-19.29039 49.57531 0.07181472 0
-19.29039 49.62531 0.1218147 0
-19.44039 49.87531 0.1718147 0
-19.39039 49.97531 0.1718147 0
-19.29039 50.07531 0.1718147 0
-19.19039 49.57531 0.1218147 0
-19.19039 49.62531 0.1218147 0
-19.14039 49.57531 0.1218147 0
-19.09039 49.62531 0.1218147 0
-19.04039 49.57531 0.1218147 0
-18.99039 49.62531 0.1218147 0
-18.94039 49.57531 0.1218147 0
-18.94039 49.62531 0.1218147 0
-18.89039 49.57531 0.1218147 0
-19.24039 50.17531 0.1718147 0
-19.19039 50.27531 0.1718147 0
-19.64039 50.72531 0.5718147 0
-19.64039 50.72531 0.6218147 0
-19.49039 50.72531 0.6218147 0
-19.39039 50.72531 0.5718147 0
-19.29039 50.67531 0.6218147 0
-19.44039 50.72531 0.6718147 0
-19.59039 50.92531 0.4218147 0
-19.64039 51.02531 0.4218147 0
-19.49039 51.02531 0.4218147 0
-19.44039 50.92531 0.4218147 0
-19.34039 50.92531 0.4218147 0
-19.44039 50.97531 0.4218147 0
-19.34039 50.97531 0.4218147 0
-19.59039 50.82531 0.4718147 0
-19.64039 50.92531 0.6218147 0
-19.59039 50.92531 0.6218147 0
-19.49039 50.82531 0.4718147 0
-19.54039 50.77531 0.5718147 0
-19.54039 50.87531 0.4718147 0
-19.54039 50.92531 0.6218147 0
-19.64039 50.92531 0.7218148 0
-19.64039 50.87531 0.7718147 0
-19.54039 50.92531 0.7218148 0
-19.54039 50.87531 0.7718147 0
-19.64039 51.02531 0.8218147 0
-19.49039 50.97531 0.8218147 0
-19.44039 50.87531 0.4718147 0
-19.44039 50.92531 0.6218147 0
-19.34039 50.77531 0.5218147 0
-19.34039 50.82531 0.4718147 0
-19.29039 50.87531 0.4718147 0
-19.34039 50.92531 0.6218147 0
-19.44039 50.92531 0.7218148 0
-19.39039 50.92531 0.7218148 0
-19.44039 50.87531 0.7718147 0
-19.29039 50.92531 0.7218148 0
-19.29039 50.87531 0.7718147 0
-19.44039 51.02531 0.8218147 0
-19.34039 50.97531 0.8218147 0
-19.29039 51.02531 0.8218147 0
-19.09039 50.37531 0.1718147 0
-19.04039 50.52531 0.1718147 0
-18.99039 50.62531 0.1718147 0
-18.89039 50.72531 0.1718147 0
-19.24039 50.67531 0.6218147 0
-19.19039 50.72531 0.6218147 0
-19.14039 50.72531 0.5718147 0
-19.04039 50.72531 0.6218147 0
-19.04039 50.72531 0.6718147 0
-19.24039 50.92531 0.4218147 0
-19.14039 50.92531 0.4218147 0
-19.09039 50.92531 0.4218147 0
-19.24039 50.97531 0.4218147 0
-19.19039 50.97531 0.4218147 0
-19.14039 50.97531 0.4218147 0
-19.04039 51.02531 0.4218147 0
-19.24039 50.82531 0.4718147 0
-19.19039 50.77531 0.5218147 0
-19.19039 50.87531 0.4718147 0
-19.24039 50.92531 0.6218147 0
-19.14039 50.82531 0.4718147 0
-19.09039 50.87531 0.4718147 0
-19.14039 50.87531 0.6218147 0
-19.14039 50.92531 0.6218147 0
-19.09039 50.92531 0.6218147 0
-19.19039 50.92531 0.7218148 0
-19.24039 50.92531 0.8218147 0
-19.19039 50.87531 0.7718147 0
-19.14039 50.92531 0.6718147 0
-19.09039 50.92531 0.7718147 0
-19.09039 51.12531 0.6218147 0
-19.19039 51.02531 0.8218147 0
-19.09039 50.97531 0.7218148 0
-19.14039 50.97531 0.8218147 0
-19.04039 50.77531 0.5218147 0
-19.04039 50.77531 0.5718147 0
-19.04039 50.77531 0.6218147 0
-18.99039 50.77531 0.6218147 0
-19.04039 50.87531 0.4718147 0
-19.04039 50.92531 0.4718147 0
-19.04039 50.92531 0.5218147 0
-19.04039 50.92531 0.6218147 0
-18.99039 50.92531 0.5718147 0
-18.99039 50.92531 0.6218147 0
-18.99039 50.92531 0.6718147 0
-19.04039 50.97531 0.4718147 0
-19.04039 51.02531 0.5218147 0
-18.99039 50.97531 0.6218147 0
-19.04039 51.07531 0.4718147 0
-19.04039 51.12531 0.6218147 0
-18.99039 51.07531 0.5718147 0
-18.99039 51.07531 0.6218147 0
-19.04039 51.02531 0.7718147 0
-19.04039 51.12531 0.7218148 0
-19.44039 50.72531 1.321815 0
-19.59039 50.82531 0.9218147 0
-19.64039 50.92531 0.9718148 0
-19.54039 50.82531 0.9718148 0
-19.54039 50.92531 0.9718148 0
-19.64039 50.87531 1.071815 0
-19.64039 50.92531 1.221815 0
-19.54039 50.87531 1.071815 0
-19.54039 50.92531 1.221815 0
-19.64039 50.97531 0.8718147 0
-19.64039 50.97531 1.021815 0
-19.54039 50.97531 0.8718147 0
-19.49039 51.02531 1.021815 0
-19.64039 50.97531 1.071815 0
-19.64039 51.02531 1.171815 0
-19.54039 50.97531 1.071815 0
-19.49039 50.97531 1.171815 0
-19.44039 50.82531 0.9218147 0
-19.44039 50.92531 0.9718148 0
-19.39039 50.92531 0.9718148 0
-19.29039 50.82531 0.9218147 0
-19.29039 50.82531 0.9718148 0
-19.29039 50.92531 0.9218147 0
-19.44039 50.77531 1.221815 0
-19.39039 50.87531 1.071815 0
-19.44039 50.92531 1.221815 0
-19.39039 50.92531 1.171815 0
-19.34039 50.77531 1.071815 0
-19.29039 50.87531 1.071815 0
-19.29039 50.92531 1.171815 0
-19.44039 50.97531 0.8718147 0
-19.39039 50.97531 0.8718147 0
-19.44039 50.97531 1.021815 0
-19.29039 50.97531 0.8718147 0
-19.34039 50.97531 1.021815 0
-19.29039 51.02531 1.021815 0
-19.44039 50.97531 1.071815 0
-19.39039 50.97531 1.071815 0
-19.44039 50.97531 1.221815 0
-19.29039 50.97531 1.071815 0
-19.34039 50.97531 1.221815 0
-19.59039 50.82531 1.271815 0
-19.54039 50.92531 1.271815 0
-19.64039 50.97531 1.271815 0
-19.44039 50.82531 1.271815 0
-19.39039 50.77531 1.271815 0
-19.29039 50.82531 1.271815 0
-19.44039 50.97531 1.271815 0
-19.39039 50.97531 1.271815 0
-19.29039 50.97531 1.271815 0
-19.19039 50.92531 0.9218147 0
-19.09039 50.82531 0.8718147 0
-19.09039 50.82531 0.9718148 0
-19.14039 50.92531 0.9218147 0
-19.19039 50.92531 1.171815 0
-19.09039 50.82531 1.071815 0
-19.14039 50.77531 1.171815 0
-19.14039 50.87531 1.071815 0
-19.14039 50.87531 1.221815 0
-19.19039 51.02531 1.021815 0
-19.09039 50.97531 0.8718147 0
-19.09039 51.02531 0.9718148 0
-19.09039 51.12531 0.9218147 0
-19.09039 51.12531 0.9718148 0
-19.19039 51.02531 1.221815 0
-19.14039 50.97531 1.071815 0
-19.14039 50.97531 1.171815 0
-19.09039 50.97531 1.171815 0
-19.09039 51.07531 1.071815 0
-19.14039 51.07531 1.221815 0
-19.04039 50.97531 0.9718148 0
-19.04039 50.97531 1.071815 0
-19.04039 51.12531 1.071815 0
-19.24039 50.92531 1.271815 0
-19.14039 50.77531 1.321815 0
-19.09039 50.82531 1.271815 0
-19.19039 50.97531 1.271815 0
-19.14039 50.97531 1.271815 0
-19.09039 50.97531 1.321815 0
-19.09039 51.02531 1.271815 0
-19.14039 51.12531 1.271815 0
-18.79039 49.57531 0.1218147 0
-18.64039 49.57531 0.1218147 0
-18.59039 49.57531 0.1218147 0
-18.39039 49.57531 0.1218147 0
-18.29039 49.57531 0.1218147 0
-18.84039 50.82531 0.1718147 0
-18.79039 50.92531 0.1218147 0
-18.69039 51.02531 0.1218147 0
-18.64039 51.12531 0.1218147 0
-19.29039 51.62531 0.1718147 0
-19.29039 51.62531 0.2218147 0
-19.29039 51.67531 0.2218147 0
-19.29039 51.72531 0.2218147 0
-19.34039 51.82531 0.2218147 0
-19.04039 51.32531 0.4218147 0
-19.09039 51.52531 0.6218147 0
-19.04039 51.22531 0.4718147 0
-18.99039 51.17531 0.5218147 0
-18.99039 51.22531 0.4718147 0
-18.99039 51.22531 0.5718147 0
-18.99039 51.22531 0.6218147 0
-18.99039 51.27531 0.6218147 0
-18.99039 51.32531 0.5718147 0
-18.94039 51.22531 0.6218147 0
-18.99039 51.17531 0.6718147 0
-19.04039 51.17531 0.7718147 0
-19.04039 51.27531 0.7218148 0
-19.04039 51.27531 0.7718147 0
-18.99039 51.37531 0.4718147 0
-18.99039 51.37531 0.5718147 0
-18.99039 51.52531 0.4718147 0
-19.04039 51.47531 0.6218147 0
-19.04039 51.52531 0.5718147 0
-18.94039 51.42531 0.6218147 0
-19.04039 51.42531 0.6718147 0
-19.04039 51.42531 0.7218148 0
-19.04039 51.42531 0.7718147 0
-18.99039 51.52531 0.7718147 0
-18.94039 51.37531 0.6718147 0
-19.24039 51.57531 0.1718147 0
-19.19039 51.62531 0.2218147 0
-19.19039 51.67531 0.2218147 0
-19.19039 51.72531 0.2218147 0
-19.14039 51.62531 0.1718147 0
-19.14039 51.62531 0.2218147 0
-19.09039 51.57531 0.1718147 0
-19.14039 51.67531 0.2218147 0
-19.09039 51.67531 0.2218147 0
-19.04039 51.57531 0.1718147 0
-19.04039 51.62531 0.2218147 0
-18.99039 51.62531 0.1718147 0
-19.04039 51.67531 0.2218147 0
-18.99039 51.67531 0.1718147 0
-18.99039 51.72531 0.2218147 0
-18.99039 51.72531 0.4218147 0
-18.99039 51.77531 0.1718147 0
-18.99039 51.82531 0.1718147 0
-19.09039 51.82531 0.8218147 0
-18.99039 51.57531 0.4718147 0
-18.99039 51.57531 0.5718147 0
-18.99039 51.62531 0.5718147 0
-18.99039 51.67531 0.4718147 0
-18.99039 51.72531 0.4718147 0
-18.99039 51.67531 0.6218147 0
-18.94039 51.57531 0.6218147 0
-18.94039 51.67531 0.6218147 0
-18.94039 51.72531 0.5718147 0
-18.94039 51.72531 0.6218147 0
-18.99039 51.57531 0.7218148 0
-18.99039 51.72531 0.6718147 0
-18.99039 51.72531 0.7218148 0
-18.94039 51.57531 0.6718147 0
-18.99039 51.77531 0.5718147 0
-18.99039 51.87531 0.4718147 0
-18.99039 51.87531 0.6218147 0
-18.94039 51.87531 0.5718147 0
-18.94039 51.92531 0.6218147 0
-18.99039 51.87531 0.8218147 0
-18.94039 51.82531 0.6718147 0
-18.94039 51.87531 0.6718147 0
-19.09039 51.22531 0.9718148 0
-19.09039 51.27531 0.9218147 0
-19.09039 51.17531 1.071815 0
-19.09039 51.17531 1.171815 0
-19.14039 51.27531 1.221815 0
-19.09039 51.37531 0.8718147 0
-19.09039 51.42531 0.9218147 0
-19.09039 51.37531 0.9718148 0
-19.09039 51.47531 0.9718148 0
-19.09039 51.37531 1.071815 0
-19.09039 51.42531 1.221815 0
-19.09039 51.47531 1.121815 0
-19.09039 51.52531 1.121815 0
-19.09039 51.52531 1.171815 0
-19.04039 51.27531 0.9718148 0
-19.04039 51.27531 1.071815 0
-19.04039 51.32531 1.171815 0
-19.04039 51.52531 0.9218147 0
-19.04039 51.47531 1.071815 0
-19.09039 51.22531 1.321815 0
-19.14039 51.27531 1.321815 0
-19.09039 51.27531 1.271815 0
-19.09039 51.42531 1.271815 0
-19.09039 51.42531 1.321815 0
-19.09039 51.52531 1.271815 0
-19.09039 51.62531 0.9218147 0
-19.09039 51.57531 0.9718148 0
-19.09039 51.67531 1.121815 0
-19.09039 51.82531 1.121815 0
-19.09039 51.92531 1.171815 0
-18.99039 51.62531 0.9218147 0
-18.99039 51.57531 0.9718148 0
-18.99039 51.72531 0.9218147 0
-19.04039 51.67531 0.9718148 0
-18.99039 51.72531 0.9718148 0
-18.99039 51.62531 1.071815 0
-19.04039 51.72531 1.221815 0
-18.99039 51.77531 0.9218147 0
-19.04039 51.82531 1.021815 0
-18.94039 51.87531 1.021815 0
-18.99039 51.77531 1.071815 0
-19.04039 51.92531 1.221815 0
-19.09039 51.62531 1.271815 0
-19.14039 51.67531 1.271815 0
-19.09039 51.67531 1.321815 0
-19.09039 51.72531 1.271815 0
-19.09039 51.77531 1.321815 0
-19.14039 51.87531 1.271815 0
-19.09039 51.92531 1.321815 0
-19.09039 51.87531 1.371815 0
-18.99039 51.97531 0.1718147 0
-18.99039 52.02531 0.1718147 0
-18.99039 52.12531 0.1718147 0
-18.99039 52.17531 0.1718147 0
-18.99039 52.22531 0.1718147 0
-18.99039 51.97531 0.4718147 0
-18.99039 52.02531 0.4718147 0
-18.99039 51.97531 0.5718147 0
-18.99039 52.12531 0.5718147 0
-18.94039 52.07531 0.5718147 0
-18.94039 52.07531 0.6218147 0
-18.94039 52.12531 0.6218147 0
-18.99039 51.97531 0.7218148 0
-18.99039 52.02531 0.8218147 0
-18.94039 52.02531 0.6718147 0
-18.94039 52.12531 0.6718147 0
-18.99039 52.17531 0.4718147 0
-18.99039 52.22531 0.5218147 0
-18.99039 52.32531 0.4718147 0
-18.99039 52.32531 0.5718147 0
-18.94039 52.22531 0.5718147 0
-18.94039 52.32531 0.6218147 0
-18.99039 52.17531 0.7718147 0
-18.99039 52.22531 0.8218147 0
-18.99039 52.27531 0.6718147 0
-18.94039 52.27531 0.6718147 0
-18.99039 52.42531 0.5218147 0
-18.99039 52.47531 0.4718147 0
-18.99039 52.52531 0.5718147 0
-18.94039 52.42531 0.5718147 0
-18.94039 52.47531 0.6218147 0
-19.04039 52.52531 0.7718147 0
-19.04039 52.52531 0.8218147 0
-18.94039 52.37531 0.6718147 0
-18.94039 52.47531 0.6718147 0
-18.99039 52.62531 0.5218147 0
-18.99039 52.72531 0.4718147 0
-18.99039 52.67531 0.5718147 0
-18.94039 52.62531 0.5718147 0
-18.94039 52.67531 0.6218147 0
-19.04039 52.72531 0.8218147 0
-18.94039 52.62531 0.6718147 0
-18.94039 52.67531 0.6718147 0
-18.94039 52.72531 0.6718147 0
-19.34039 52.72531 1.371815 0
-19.09039 51.97531 1.121815 0
-19.09039 52.17531 1.171815 0
-18.99039 51.97531 0.9218147 0
-19.04039 52.02531 1.021815 0
-18.99039 52.12531 0.9218147 0
-18.99039 52.07531 1.021815 0
-18.99039 51.97531 1.071815 0
-19.04039 52.12531 1.221815 0
-19.04039 52.32531 1.021815 0
-18.99039 52.17531 1.121815 0
-19.04039 52.32531 1.221815 0
-19.09039 51.97531 1.321815 0
-19.14039 52.07531 1.321815 0
-19.09039 52.12531 1.321815 0
-19.09039 52.12531 1.371815 0
-19.09039 52.27531 1.321815 0
-19.04039 52.22531 1.321815 0
-19.09039 52.42531 0.9718148 0
-19.09039 52.42531 1.071815 0
-19.09039 52.37531 1.171815 0
-19.09039 52.52531 1.221815 0
-19.09039 52.62531 1.071815 0
-19.09039 52.57531 1.171815 0
-19.04039 52.47531 1.021815 0
-19.04039 52.37531 1.121815 0
-19.04039 52.57531 0.9718148 0
-19.04039 52.67531 1.021815 0
-18.99039 52.57531 1.121815 0
-18.99039 52.72531 1.121815 0
-19.09039 52.37531 1.371815 0
-19.09039 52.47531 1.321815 0
-19.09039 52.62531 1.371815 0
-19.04039 52.72531 1.321815 0
-18.59039 51.22531 0.1218147 0
-18.49039 51.32531 0.1218147 0
-18.39039 51.42531 0.1218147 0
-18.34039 51.52531 0.1218147 0
-18.24039 51.62531 0.1218147 0
-18.19039 51.72531 0.1218147 0
-18.09039 51.82531 0.1218147 0
-17.94039 49.32531 0.1218147 0
-17.99039 49.47531 0.07181472 0
-17.99039 49.52531 0.1218147 0
-17.89039 49.37531 0.1718147 0
-17.94039 49.52531 0.07181472 0
-17.89039 49.52531 0.1218147 0
-17.84039 49.47531 0.07181472 0
-17.79039 49.52531 0.1218147 0
-17.74039 49.47531 0.07181472 0
-17.69039 49.47531 0.07181472 0
-17.69039 49.52531 0.1218147 0
-17.59039 49.27531 0.07181472 0
-17.59039 49.32531 0.1218147 0
-17.59039 49.37531 0.1718147 0
-17.64039 49.52531 0.1218147 0
-17.59039 49.47531 0.07181472 0
-17.59039 49.52531 0.1218147 0
-17.49039 49.47531 0.07181472 0
-17.49039 49.52531 0.1218147 0
-17.44039 49.42531 0.1718147 0
-17.44039 49.47531 0.07181472 0
-17.39039 49.52531 0.1218147 0
-17.39039 49.52531 0.1718147 0
-17.29039 49.47531 0.07181472 0
-17.29039 49.52531 0.1218147 0
-17.24039 49.32531 0.1218147 0
-17.14039 49.27531 0.07181472 0
-17.19039 49.47531 0.07181472 0
-17.19039 49.52531 0.1218147 0
-17.09039 49.47531 0.07181472 0
-17.09039 49.52531 0.1218147 0
-16.89039 49.32531 0.1218147 0
-17.04039 49.47531 0.07181472 0
-17.04039 49.52531 0.1218147 0
-16.99039 49.47531 0.07181472 0
-16.99039 49.52531 0.1218147 0
-16.89039 49.47531 0.07181472 0
-16.89039 49.52531 0.1218147 0
-16.79039 49.27531 0.1718147 0
-16.69039 49.27531 0.07181472 0
-16.69039 49.32531 0.07181472 0
-16.79039 49.47531 0.07181472 0
-16.79039 49.52531 0.07181472 0
-16.69039 49.47531 0.07181472 0
-16.69039 49.52531 0.07181472 0
-16.59039 49.27531 0.1718147 0
-16.59039 49.32531 0.1718147 0
-16.64039 49.47531 0.07181472 0
-16.59039 49.52531 0.07181472 0
-16.54039 49.47531 0.07181472 0
-16.49039 49.52531 0.07181472 0
-15.24039 46.37531 0.07181472 0
-15.14039 46.57531 0.07181472 0
-15.04039 46.72531 0.07181472 0
-16.39039 49.32531 0.07181472 0
-16.39039 49.27531 0.1718147 0
-16.29039 49.22531 0.1218147 0
-16.29039 49.32531 0.1718147 0
-16.44039 49.47531 0.07181472 0
-16.39039 49.47531 0.07181472 0
-16.39039 49.52531 0.07181472 0
-16.34039 49.42531 0.07181472 0
-16.34039 49.47531 0.07181472 0
-16.34039 49.52531 0.07181472 0
-16.29039 49.47531 0.07181472 0
-16.29039 49.52531 0.07181472 0
-16.19039 49.22531 0.1718147 0
-16.24039 49.42531 0.07181472 0
-16.24039 49.47531 0.07181472 0
-16.19039 49.47531 0.07181472 0
-16.14039 49.42531 0.07181472 0
-16.09039 49.47531 0.07181472 0
-16.04039 49.32531 0.07181472 0
-15.99039 49.27531 0.1718147 0
-15.89039 49.22531 0.1218147 0
-15.94039 49.22531 0.1718147 0
-16.04039 49.42531 0.07181472 0
-15.99039 49.47531 0.07181472 0
-15.94039 49.42531 0.07181472 0
-15.89039 49.47531 0.07181472 0
-15.74039 49.22531 0.1718147 0
-15.74039 49.32531 0.07181472 0
-15.74039 49.27531 0.1718147 0
-15.84039 49.42531 0.07181472 0
-15.79039 49.47531 0.07181472 0
-15.74039 49.42531 0.07181472 0
-15.69039 49.42531 0.07181472 0
-15.69039 49.47531 0.07181472 0
-15.59039 49.17531 0.07181472 0
-15.49039 49.22531 0.1218147 0
-15.49039 49.22531 0.1718147 0
-15.49039 49.27531 0.07181472 0
-15.59039 49.42531 0.07181472 0
-15.59039 49.47531 0.07181472 0
-15.54039 49.42531 0.07181472 0
-15.49039 49.42531 0.07181472 0
-15.44039 49.27531 0.1718147 0
-15.34039 49.32531 0.1718147 0
-15.39039 49.42531 0.07181472 0
-15.39039 49.47531 0.07181472 0
-15.34039 49.42531 0.07181472 0
-15.29039 49.42531 0.07181472 0
-15.09039 49.12531 0.07181472 0
-15.24039 49.17531 0.1218147 0
-15.19039 49.27531 0.07181472 0
-15.14039 49.22531 0.1218147 0
-15.24039 49.42531 0.07181472 0
-15.19039 49.42531 0.07181472 0
-15.24039 49.47531 0.1718147 0
-15.14039 49.42531 0.07181472 0
-15.09039 49.42531 0.07181472 0
-17.34039 49.62531 0.1718147 0
-17.29039 49.77531 0.1718147 0
-17.19039 49.87531 0.1718147 0
-17.14039 49.97531 0.1718147 0
-17.09039 50.07531 0.1718147 0
-17.04039 50.17531 0.1718147 0
-16.94039 50.27531 0.1718147 0
-16.89039 50.37531 0.1718147 0
-16.84039 50.47531 0.1718147 0
-16.79039 50.57531 0.1718147 0
-16.69039 50.67531 0.1718147 0
-16.64039 50.77531 0.1718147 0
-16.54039 50.87531 0.1718147 0
-16.49039 50.97531 0.1718147 0
-18.04039 51.92531 0.1218147 0
-17.94039 52.02531 0.1218147 0
-17.84039 52.12531 0.1218147 0
-17.74039 52.17531 0.1218147 0
-17.69039 52.27531 0.1218147 0
-17.59039 52.37531 0.1218147 0
-16.44039 51.07531 0.1718147 0
-15.19039 49.57531 0.1718147 0
-15.09039 49.62531 0.1718147 0
-15.04039 49.72531 0.1718147 0
-16.34039 51.17531 0.1718147 0
-16.24039 51.27531 0.1718147 0
-16.19039 51.37531 0.1718147 0
-16.14039 51.47531 0.1718147 0
-16.04039 51.52531 0.1718147 0
-15.94039 51.67531 0.1718147 0
-15.89039 51.77531 0.1718147 0
-15.79039 51.82531 0.1718147 0
-15.69039 51.92531 0.1718147 0
-15.64039 52.02531 0.1718147 0
-15.54039 52.12531 0.1718147 0
-15.44039 52.17531 0.1718147 0
-15.39039 52.27531 0.1718147 0
-24.09039 53.27531 0.1718147 0
-23.84039 53.12531 0.1718147 0
-23.74039 53.12531 0.1718147 0
-23.99039 53.22531 0.1718147 0
-23.89039 53.17531 0.1718147 0
-24.14039 54.32531 0.1218147 0
-24.04039 54.32531 0.1218147 0
-23.94039 54.32531 0.1218147 0
-23.69039 54.17531 0.1718147 0
-23.64039 53.07531 0.1718147 0
-23.59039 53.07531 0.1718147 0
-23.49039 53.02531 0.1718147 0
-23.39039 53.02531 0.1718147 0
-23.29039 52.97531 0.1718147 0
-23.19039 52.97531 0.1718147 0
-23.09039 52.97531 0.1718147 0
-22.99039 52.92531 0.1718147 0
-22.89039 52.92531 0.1718147 0
-23.54039 54.07531 0.1718147 0
-23.89039 54.42531 0.1218147 0
-23.89039 54.52531 0.1218147 0
-23.89039 54.67531 0.1218147 0
-22.79039 52.92531 0.1718147 0
-22.69039 53.52531 0.1718147 0
-22.54039 53.47531 0.1718147 0
-22.34039 52.77531 0.4718147 0
-22.39039 52.82531 0.7218148 0
-22.39039 52.82531 0.7718147 0
-22.34039 52.97531 0.4718147 0
-22.34039 53.02531 0.4718147 0
-22.39039 53.07531 0.7218148 0
-22.34039 53.02531 0.7718147 0
-22.44039 53.37531 0.1718147 0
-22.34039 53.17531 0.4718147 0
-22.34039 53.32531 0.4718147 0
-22.34039 53.22531 0.8218147 0
-22.34039 53.37531 0.4718147 0
-22.34039 53.37531 0.7218148 0
-22.34039 53.47531 0.8218147 0
-22.54039 52.77531 1.221815 0
-22.49039 52.87531 1.071815 0
-22.49039 53.07531 1.121815 0
-22.69039 53.02531 1.421815 0
-22.64039 52.77531 1.421815 0
-22.59039 52.92531 1.271815 0
-22.54039 53.32531 1.121815 0
-22.49039 53.52531 1.021815 0
-22.69039 53.27531 1.471815 0
-22.64039 53.37531 1.321815 0
-22.44039 53.07531 0.9718148 0
-22.39039 53.57531 0.1718147 0
-22.39039 53.92531 0.1718147 0
-22.34039 53.67531 0.4718147 0
-22.34039 53.77531 0.7718147 0
-22.39039 54.27531 0.1218147 0
-22.39039 54.32531 0.1718147 0
-22.29039 54.32531 0.1218147 0
-22.34039 54.07531 0.4718147 0
-22.39039 54.22531 0.7718147 0
-22.54039 53.57531 1.171815 0
-22.49039 53.97531 1.071815 0
-22.29039 54.52531 0.1218147 0
-22.34039 54.52531 0.1718147 0
-22.34039 54.52531 0.4718147 0
-21.14039 53.02531 0.4218147 0
-21.19039 52.87531 0.6718147 0
-21.14039 53.42531 0.4218147 0
-21.19039 53.32531 0.7218148 0
-21.09039 52.92531 0.9218147 0
-21.09039 53.07531 1.171815 0
-20.89039 53.12531 1.471815 0
-21.09039 53.27531 0.9718148 0
-21.09039 53.47531 1.221815 0
-20.99039 53.17531 1.471815 0
-21.14039 53.82531 0.4718147 0
-21.14039 53.82531 0.7218148 0
-21.14039 54.32531 0.4718147 0
-21.09039 53.67531 0.9718148 0
-20.94039 53.67531 1.521815 0
-21.09039 54.12531 1.021815 0
-21.04039 53.97531 1.321815 0
-20.44039 52.92531 1.571815 0
-20.29039 52.97531 1.621815 0
-20.19039 52.92531 1.571815 0
-20.14039 52.97531 1.621815 0
-19.89039 52.87531 1.571815 0
-19.99039 52.97531 1.621815 0
-19.69039 52.92531 1.521815 0
-19.84039 52.97531 1.621815 0
-19.74039 52.97531 1.621815 0
-20.74039 53.02531 1.671815 0
-20.59039 52.97531 1.671815 0
-20.79039 53.17531 1.721815 0
-20.69039 53.17531 1.771815 0
-20.59039 53.17531 1.771815 0
-20.59039 53.22531 1.821815 0
-20.49039 53.17531 1.771815 0
-20.49039 53.22531 1.821815 0
-20.44039 52.97531 1.671815 0
-20.24039 53.12531 1.821815 0
-20.09039 53.07531 1.821815 0
-20.39039 53.17531 1.771815 0
-20.39039 53.17531 1.821815 0
-20.34039 53.17531 1.771815 0
-20.29039 53.17531 1.771815 0
-20.24039 53.17531 1.771815 0
-20.14039 53.17531 1.771815 0
-20.04039 52.87531 1.721815 0
-19.99039 53.07531 1.771815 0
-19.74039 52.92531 1.671815 0
-19.84039 53.02531 1.771815 0
-19.79039 53.02531 1.821815 0
-19.74039 53.02531 1.771815 0
-20.04039 53.17531 1.771815 0
-19.99039 53.17531 1.771815 0
-19.94039 53.17531 1.771815 0
-19.89039 53.22531 1.821815 0
-19.84039 53.17531 1.821815 0
-19.74039 53.17531 1.821815 0
-21.14039 54.42531 0.7718147 0
-21.14039 54.87531 0.4718147 0
-21.09039 54.67531 1.071815 0
-20.99039 54.67531 1.371815 0
-21.24039 54.82531 1.371815 0
-21.14039 54.87531 1.421815 0
-21.19039 55.37531 0.1218147 0
-21.09039 55.37531 0.1218147 0
-21.04039 55.32531 0.1218147 0
-20.99039 55.27531 0.1218147 0
-20.89039 55.22531 0.1218147 0
-20.89039 55.27531 0.1218147 0
-20.99039 55.37531 0.1218147 0
-21.19039 55.32531 0.4718147 0
-21.19039 55.32531 0.7718147 0
-21.09039 55.17531 0.7718147 0
-20.79039 55.32531 0.1218147 0
-20.74039 55.27531 0.1218147 0
-20.79039 55.47531 0.1218147 0
-20.74039 55.52531 0.1218147 0
-20.74039 55.77531 0.1218147 0
-21.09039 55.42531 1.121815 0
-18.99039 52.82531 0.5218147 0
-18.99039 52.87531 0.5718147 0
-18.94039 52.77531 0.5718147 0
-18.94039 52.87531 0.6218147 0
-19.04039 52.77531 0.7718147 0
-18.94039 52.87531 0.6718147 0
-18.99039 52.97531 0.4718147 0
-18.99039 53.02531 0.5218147 0
-18.99039 53.07531 0.5718147 0
-18.94039 52.97531 0.5718147 0
-18.94039 53.07531 0.6218147 0
-19.04039 53.07531 0.7718147 0
-18.94039 52.97531 0.7218148 0
-18.94039 53.07531 0.6718147 0
-18.94039 53.12531 0.6718147 0
-18.99039 53.22531 0.4718147 0
-18.99039 53.22531 0.5218147 0
-18.99039 53.27531 0.5718147 0
-18.94039 53.17531 0.5718147 0
-18.89039 53.27531 0.6218147 0
-18.94039 53.22531 0.7218148 0
-18.94039 53.27531 0.6718147 0
-18.99039 53.47531 0.5218147 0
-18.99039 53.52531 0.4718147 0
-18.99039 53.47531 0.5718147 0
-18.94039 53.37531 0.5718147 0
-18.89039 53.47531 0.6218147 0
-19.04039 53.37531 0.8218147 0
-18.89039 53.37531 0.6718147 0
-18.94039 53.52531 0.6718147 0
-18.89039 53.47531 0.7218148 0
-19.49039 52.87531 1.521815 0
-19.59039 52.97531 1.571815 0
-19.39039 52.92531 1.421815 0
-19.29039 52.92531 1.421815 0
-19.34039 52.92531 1.571815 0
-19.44039 52.97531 1.571815 0
-19.09039 52.77531 1.171815 0
-19.09039 52.77531 1.221815 0
-19.09039 52.92531 1.071815 0
-19.09039 52.97531 1.221815 0
-19.04039 52.77531 0.9718148 0
-19.04039 52.92531 0.8718147 0
-19.04039 52.87531 1.021815 0
-18.99039 52.92531 1.121815 0
-19.04039 52.97531 0.9718148 0
-18.99039 53.02531 1.021815 0
-19.04039 53.12531 0.8718147 0
-19.04039 53.12531 0.9718148 0
-19.04039 52.97531 1.221815 0
-18.99039 53.12531 1.121815 0
-19.09039 52.82531 1.371815 0
-19.14039 52.87531 1.371815 0
-19.24039 52.87531 1.521815 0
-19.19039 52.97531 1.421815 0
-19.19039 53.12531 1.421815 0
-19.14039 53.02531 1.371815 0
-19.09039 53.07531 1.371815 0
-19.19039 52.97531 1.571815 0
-19.14039 52.97531 1.521815 0
-19.04039 52.97531 1.321815 0
-19.09039 53.17531 1.121815 0
-19.09039 53.17531 1.221815 0
-19.09039 53.42531 1.221815 0
-19.09039 53.47531 1.121815 0
-18.99039 53.22531 1.021815 0
-19.04039 53.32531 0.9718148 0
-19.04039 53.17531 1.221815 0
-18.99039 53.32531 1.121815 0
-19.04039 53.37531 0.8718147 0
-19.04039 53.52531 0.9718148 0
-18.99039 53.42531 1.071815 0
-19.04039 53.37531 1.221815 0
-18.99039 53.52531 1.121815 0
-19.14039 53.22531 1.371815 0
-19.09039 53.22531 1.371815 0
-19.09039 53.32531 1.371815 0
-19.24039 53.22531 1.571815 0
-19.14039 53.17531 1.521815 0
-19.14039 53.47531 1.421815 0
-19.19039 53.47531 1.471815 0
-19.24039 53.47531 1.621815 0
-19.14039 53.37531 1.521815 0
-19.04039 53.47531 1.371815 0
-18.99039 53.67531 0.5218147 0
-18.94039 53.57531 0.5718147 0
-18.94039 53.67531 0.5718147 0
-18.89039 53.67531 0.6218147 0
-19.04039 53.67531 0.8218147 0
-18.94039 53.72531 0.6718147 0
-18.89039 53.67531 0.6718147 0
-18.89039 53.67531 0.7218148 0
-18.99039 53.82531 0.4718147 0
-18.99039 53.92531 0.5218147 0
-18.89039 53.77531 0.5718147 0
-18.94039 53.87531 0.5718147 0
-18.89039 53.87531 0.6218147 0
-18.89039 53.92531 0.6718147 0
-18.89039 53.92531 0.7218148 0
-18.94039 53.97531 0.5718147 0
-18.94039 54.07531 0.5718147 0
-18.89039 54.07531 0.6218147 0
-19.04039 54.02531 0.8218147 0
-18.89039 53.97531 0.6718147 0
-18.99039 54.17531 0.5218147 0
-18.94039 54.22531 0.5718147 0
-18.94039 54.32531 0.5718147 0
-18.89039 54.32531 0.6218147 0
-18.89039 54.17531 0.6718147 0
-18.89039 54.17531 0.7218148 0
-18.89039 54.22531 0.7218148 0
-19.09039 53.77531 1.171815 0
-19.04039 53.57531 0.8718147 0
-18.99039 53.62531 1.071815 0
-18.99039 53.72531 1.171815 0
-19.04039 53.82531 0.8718147 0
-19.04039 53.77531 1.021815 0
-18.99039 53.87531 1.071815 0
-18.99039 53.92531 1.171815 0
-19.09039 53.62531 1.271815 0
-19.09039 53.57531 1.371815 0
-19.14039 53.67531 1.421815 0
-19.24039 53.72531 1.621815 0
-19.14039 53.57531 1.521815 0
-19.09039 53.77531 1.371815 0
-19.09039 53.82531 1.421815 0
-19.09039 53.87531 1.271815 0
-19.14039 53.87531 1.421815 0
-19.19039 53.82531 1.521815 0
-19.14039 53.82531 1.571815 0
-19.04039 53.62531 1.271815 0
-19.04039 53.82531 1.271815 0
-19.09039 54.12531 1.171815 0
-19.04039 54.02531 0.9218147 0
-19.04039 53.97531 1.021815 0
-18.99039 54.07531 1.071815 0
-19.04039 54.17531 1.021815 0
-19.04039 54.32531 0.9218147 0
-18.99039 54.17531 1.171815 0
-18.99039 54.27531 1.071815 0
-19.09039 54.12531 1.271815 0
-19.14039 54.02531 1.571815 0
-19.14039 54.12531 1.471815 0
-19.19039 54.17531 1.571815 0
-19.14039 54.22531 1.571815 0
-19.14039 54.32531 1.471815 0
-19.04039 54.07531 1.271815 0
-19.04039 54.27531 1.271815 0
-19.49039 52.92531 1.671815 0
-19.59039 53.02531 1.821815 0
-19.64039 53.07531 1.771815 0
-19.54039 53.07531 1.771815 0
-19.44039 53.02531 1.821815 0
-19.44039 53.07531 1.771815 0
-19.34039 53.07531 1.771815 0
-19.34039 53.12531 1.821815 0
-19.24039 52.92531 1.671815 0
-19.19039 53.07531 1.671815 0
-19.19039 53.27531 1.671815 0
-19.19039 53.47531 1.671815 0
-19.19039 53.72531 1.671815 0
-19.19039 53.92531 1.721815 0
-19.24039 53.97531 1.671815 0
-19.19039 54.12531 1.721815 0
-19.24039 54.22531 1.721815 0
-18.99039 54.47531 0.5218147 0
-18.94039 54.42531 0.5218147 0
-18.89039 54.42531 0.5718147 0
-18.94039 54.52531 0.5718147 0
-18.89039 54.52531 0.6218147 0
-18.89039 54.42531 0.6718147 0
-18.89039 54.62531 0.5718147 0
-18.94039 54.67531 0.5218147 0
-18.89039 54.72531 0.6218147 0
-18.94039 54.67531 0.6718147 0
-18.99039 54.87531 0.5218147 0
-18.94039 54.77531 0.5718147 0
-18.94039 54.92531 0.5218147 0
-18.89039 54.87531 0.6218147 0
-19.04039 54.82531 0.8218147 0
-18.89039 54.92531 0.6718147 0
-18.99039 55.07531 0.6218147 0
-18.89039 54.97531 0.6218147 0
-18.89039 55.07531 0.6218147 0
-18.89039 55.12531 0.6718147 0
-19.09039 54.47531 1.221815 0
-19.04039 54.37531 0.8718147 0
-19.04039 54.42531 1.021815 0
-18.99039 54.37531 1.171815 0
-18.99039 54.52531 1.071815 0
-19.04039 54.57531 0.9218147 0
-19.04039 54.72531 0.8718147 0
-19.04039 54.67531 1.021815 0
-18.99039 54.62531 1.171815 0
-18.99039 54.72531 1.121815 0
-19.04039 54.72531 1.221815 0
-18.89039 54.67531 1.221815 0
-19.09039 54.42531 1.321815 0
-19.19039 54.52531 1.621815 0
-19.09039 54.67531 1.321815 0
-19.19039 54.62531 1.521815 0
-19.04039 54.52531 1.271815 0
-18.94039 54.62531 1.321815 0
-19.04039 54.82531 0.9218147 0
-18.99039 54.82531 1.171815 0
-18.99039 54.87531 1.071815 0
-19.04039 55.12531 0.8718147 0
-18.99039 55.07531 0.9718148 0
-18.99039 54.97531 1.121815 0
-18.99039 55.12531 1.071815 0
-18.99039 55.07531 1.171815 0
-19.04039 54.77531 1.271815 0
-19.34039 55.42531 0.1218147 0
-19.34039 55.72531 0.1218147 0
-19.24039 55.22531 0.1218147 0
-19.19039 55.17531 0.07181472 0
-19.19039 55.17531 0.1218147 0
-19.19039 55.22531 0.1218147 0
-19.24039 55.32531 0.1218147 0
-19.24039 55.27531 0.1718147 0
-19.09039 55.22531 0.1218147 0
-19.14039 55.32531 0.1218147 0
-19.14039 55.27531 0.1718147 0
-19.04039 55.17531 0.1218147 0
-18.99039 55.22531 0.1218147 0
-19.04039 55.27531 0.1718147 0
-18.94039 55.17531 0.07181472 0
-18.94039 55.22531 0.1218147 0
-18.94039 55.27531 0.1218147 0
-18.94039 55.52531 0.1218147 0
-18.89039 55.52531 0.1218147 0
-18.99039 55.17531 0.5218147 0
-18.94039 55.17531 0.5218147 0
-18.94039 55.27531 0.6218147 0
-18.89039 55.32531 0.6218147 0
-18.94039 55.52531 0.5218147 0
-18.89039 55.52531 0.6218147 0
-18.89039 55.37531 0.6718147 0
-18.94039 55.62531 0.1218147 0
-18.94039 55.57531 0.5218147 0
-18.89039 55.62531 0.6718147 0
-18.99039 55.22531 0.8718147 0
-18.94039 55.22531 0.8718147 0
-18.94039 55.22531 0.9718148 0
-18.99039 55.22531 1.121815 0
-18.99039 55.32531 1.221815 0
-18.89039 55.47531 0.9718148 0
-18.99039 55.37531 1.071815 0
-18.99039 55.47531 1.121815 0
-18.94039 55.62531 0.9218147 0
-18.99039 55.67531 1.071815 0
-18.79039 54.62531 1.321815 0
-18.84039 55.32531 0.07181472 0
-18.84039 55.17531 0.6218147 0
-18.84039 55.42531 0.6218147 0
-18.84039 55.57531 0.07181472 0
-18.84039 55.57531 0.6218147 0
-18.84039 55.67531 0.6218147 0
-19.24039 54.37531 1.721815 0
-17.34039 55.42531 0.1218147 0
-17.34039 55.42531 0.5218147 0
-17.34039 55.82531 0.1218147 0
-17.29039 55.77531 0.1218147 0
-17.34039 55.77531 0.5218147 0
-17.34039 55.82531 0.5218147 0
-17.34039 55.42531 0.8718147 0
-17.34039 55.42531 1.221815 0
-17.34039 55.42531 1.571815 0
-17.34039 55.82531 0.8718147 0
-17.29039 55.77531 0.8718147 0
-17.34039 55.77531 1.271815 0
-17.34039 55.82531 1.271815 0
-17.34039 55.77531 1.621815 0
-17.24039 55.12531 0.07181472 0
-16.99039 55.12531 0.07181472 0
-17.24039 55.12531 0.6218147 0
-16.99039 55.12531 0.6218147 0
-16.94039 55.07531 0.6218147 0
-16.79039 55.12531 0.07181472 0
-16.69039 55.12531 0.1218147 0
-16.49039 55.02531 0.1218147 0
-16.54039 55.12531 0.1218147 0
-16.49039 55.07531 0.1218147 0
-16.54039 55.07531 0.1718147 0
-16.79039 55.12531 0.6218147 0
-16.69039 55.07531 0.6218147 0
-16.69039 55.12531 0.5718147 0
-16.84039 55.12531 0.7218148 0
-16.59039 55.12531 0.5218147 0
-16.54039 55.02531 0.5718147 0
-16.54039 55.07531 0.5718147 0
-16.49039 55.07531 0.5718147 0
-16.54039 54.97531 0.6718147 0
-16.49039 55.02531 0.7218148 0
-17.19039 55.12531 1.121815 0
-16.99039 55.12531 1.121815 0
-16.94039 55.12531 1.221815 0
-17.24039 55.12531 1.621815 0
-16.99039 55.12531 1.621815 0
-16.69039 55.12531 1.021815 0
-16.79039 55.12531 1.121815 0
-16.69039 55.07531 1.171815 0
-16.59039 55.12531 0.9218147 0
-16.54039 55.07531 0.9718148 0
-16.49039 55.07531 1.021815 0
-16.54039 55.02531 1.071815 0
-16.84039 55.12531 1.371815 0
-16.79039 55.12531 1.621815 0
-16.54039 54.97531 1.321815 0
-16.49039 55.02531 1.371815 0
-16.54039 55.12531 1.271815 0
-16.54039 55.07531 1.421815 0
-16.54039 55.02531 1.571815 0
-17.24039 55.17531 0.1218147 0
-17.19039 55.22531 0.1218147 0
-17.24039 55.32531 0.1218147 0
-17.19039 55.27531 0.1218147 0
-17.14039 55.17531 0.1218147 0
-17.09039 55.22531 0.1218147 0
-17.14039 55.32531 0.1218147 0
-17.09039 55.27531 0.1218147 0
-17.24039 55.37531 0.1218147 0
-17.14039 55.37531 0.1218147 0
-17.04039 55.17531 0.1218147 0
-16.99039 55.17531 0.1718147 0
-17.04039 55.32531 0.1218147 0
-16.99039 55.27531 0.1218147 0
-16.94039 55.22531 0.1218147 0
-16.89039 55.17531 0.1218147 0
-16.89039 55.27531 0.1218147 0
-16.89039 55.32531 0.1218147 0
-17.19039 55.22531 0.5218147 0
-17.24039 55.17531 0.5718147 0
-17.24039 55.32531 0.5218147 0
-17.09039 55.22531 0.5218147 0
-17.14039 55.17531 0.5718147 0
-17.14039 55.32531 0.5218147 0
-17.24039 55.37531 0.5218147 0
-17.14039 55.37531 0.5218147 0
-17.04039 55.17531 0.5718147 0
-16.99039 55.17531 0.5718147 0
-17.04039 55.32531 0.5218147 0
-16.99039 55.27531 0.5218147 0
-16.94039 55.22531 0.5218147 0
-16.89039 55.17531 0.5718147 0
-16.89039 55.32531 0.5218147 0
-16.99039 55.37531 0.5218147 0
-16.84039 55.22531 0.1218147 0
-16.84039 55.17531 0.1718147 0
-16.84039 55.27531 0.1218147 0
-16.79039 55.32531 0.1218147 0
-16.74039 55.22531 0.1218147 0
-16.69039 55.17531 0.1218147 0
-16.69039 55.17531 0.1718147 0
-16.69039 55.27531 0.1218147 0
-16.69039 55.32531 0.1218147 0
-16.79039 55.37531 0.1218147 0
-16.64039 55.17531 0.1218147 0
-16.59039 55.17531 0.1718147 0
-16.59039 55.27531 0.1218147 0
-16.49039 55.17531 0.1218147 0
-16.49039 55.22531 0.1718147 0
-16.84039 55.22531 0.5218147 0
-16.84039 55.17531 0.5718147 0
-16.79039 55.32531 0.5218147 0
-16.74039 55.22531 0.5218147 0
-16.69039 55.17531 0.5218147 0
-16.69039 55.17531 0.5718147 0
-16.69039 55.27531 0.5218147 0
-16.69039 55.32531 0.5218147 0
-16.64039 55.17531 0.5218147 0
-16.59039 55.22531 0.5218147 0
-16.59039 55.27531 0.5218147 0
-16.49039 55.17531 0.5218147 0
-16.49039 55.22531 0.5218147 0
-17.19039 55.22531 0.9218147 0
-17.24039 55.27531 0.8718147 0
-17.19039 55.27531 0.8718147 0
-17.09039 55.22531 0.9218147 0
-17.14039 55.17531 1.021815 0
-17.14039 55.32531 0.8718147 0
-17.09039 55.27531 0.8718147 0
-17.24039 55.17531 1.071815 0
-17.24039 55.32531 1.221815 0
-17.19039 55.27531 1.221815 0
-17.14039 55.32531 1.221815 0
-17.09039 55.27531 1.221815 0
-17.24039 55.37531 0.8718147 0
-17.14039 55.37531 0.8718147 0
-17.24039 55.37531 1.221815 0
-17.14039 55.37531 1.221815 0
-16.99039 55.17531 1.021815 0
-17.04039 55.32531 0.8718147 0
-16.99039 55.27531 0.8718147 0
-16.94039 55.22531 0.9218147 0
-16.89039 55.27531 0.8718147 0
-17.04039 55.17531 1.071815 0
-17.04039 55.32531 1.221815 0
-16.99039 55.27531 1.221815 0
-16.89039 55.32531 1.221815 0
-16.99039 55.37531 0.8718147 0
-16.89039 55.37531 0.8718147 0
-17.04039 55.37531 1.221815 0
-16.89039 55.37531 1.221815 0
-17.19039 55.22531 1.321815 0
-17.09039 55.22531 1.321815 0
-17.14039 55.17531 1.421815 0
-17.24039 55.17531 1.521815 0
-17.24039 55.32531 1.571815 0
-17.19039 55.27531 1.621815 0
-17.14039 55.32531 1.571815 0
-17.09039 55.27531 1.621815 0
-17.24039 55.37531 1.571815 0
-17.14039 55.37531 1.571815 0
-16.99039 55.17531 1.421815 0
-16.94039 55.22531 1.321815 0
-17.04039 55.17531 1.521815 0
-17.04039 55.32531 1.571815 0
-16.99039 55.27531 1.621815 0
-16.89039 55.17531 1.521815 0
-16.89039 55.32531 1.571815 0
-16.99039 55.37531 1.571815 0
-16.89039 55.37531 1.621815 0
-16.84039 55.22531 0.9218147 0
-16.84039 55.17531 1.021815 0
-16.84039 55.27531 0.8718147 0
-16.79039 55.32531 0.8718147 0
-16.69039 55.22531 0.9218147 0
-16.69039 55.17531 1.021815 0
-16.74039 55.27531 0.8718147 0
-16.69039 55.27531 0.8718147 0
-16.84039 55.22531 1.221815 0
-16.79039 55.32531 1.221815 0
-16.74039 55.27531 1.221815 0
-16.69039 55.27531 1.221815 0
-16.79039 55.37531 0.8718147 0
-16.79039 55.37531 1.221815 0
-16.64039 55.17531 0.8718147 0
-16.59039 55.22531 0.8718147 0
-16.59039 55.27531 0.8718147 0
-16.49039 55.17531 0.8718147 0
-16.49039 55.22531 0.8718147 0
-16.64039 55.17531 1.221815 0
-16.59039 55.22531 1.221815 0
-16.59039 55.27531 1.221815 0
-16.49039 55.17531 1.221815 0
-16.49039 55.22531 1.221815 0
-16.84039 55.22531 1.321815 0
-16.84039 55.17531 1.421815 0
-16.69039 55.22531 1.321815 0
-16.69039 55.17531 1.421815 0
-16.84039 55.27531 1.621815 0
-16.79039 55.32531 1.571815 0
-16.69039 55.17531 1.521815 0
-16.74039 55.27531 1.621815 0
-16.69039 55.27531 1.571815 0
-16.69039 55.27531 1.621815 0
-16.79039 55.37531 1.621815 0
-16.64039 55.17531 1.621815 0
-16.59039 55.22531 1.571815 0
-16.59039 55.27531 1.621815 0
-16.49039 55.17531 1.621815 0
-16.49039 55.22531 1.571815 0
-17.34039 55.42531 1.971815 0
-17.34039 55.42531 2.321815 0
-17.34039 55.77531 2.021815 0
-17.34039 55.82531 2.021815 0
-17.34039 55.77531 2.371815 0
-17.34039 55.82531 2.371815 0
-17.34039 55.42531 2.721815 0
-17.34039 55.42531 3.071815 0
-17.34039 55.77531 2.771815 0
-17.34039 55.82531 2.771815 0
-17.34039 55.77531 3.171815 0
-17.34039 55.82531 3.171815 0
-16.94039 55.12531 1.771815 0
-17.19039 55.12531 2.171815 0
-16.99039 55.12531 2.121815 0
-16.94039 55.07531 2.371815 0
-16.69039 55.07531 1.771815 0
-16.84039 55.12531 2.021815 0
-16.54039 55.12531 1.671815 0
-16.54039 55.07531 1.821815 0
-16.54039 54.97531 1.971815 0
-16.49039 55.02531 2.021815 0
-16.49039 55.07531 1.971815 0
-16.79039 55.12531 2.121815 0
-16.69039 55.07531 2.321815 0
-16.54039 55.02531 2.121815 0
-16.54039 55.12531 2.071815 0
-17.19039 55.12531 2.671815 0
-16.99039 55.12531 2.671815 0
-16.89039 55.12531 2.721815 0
-17.19039 55.12531 2.971815 0
-17.19039 55.12531 3.221815 0
-16.94039 55.12531 2.921815 0
-16.99039 55.12531 3.171815 0
-16.79039 55.12531 2.621815 0
-16.64039 55.02531 2.621815 0
-16.59039 55.12531 2.621815 0
-16.59039 55.12531 2.671815 0
-16.69039 55.12531 2.921815 0
-16.79039 55.12531 3.171815 0
-16.59039 55.12531 3.121815 0
-17.19039 55.22531 1.721815 0
-17.09039 55.22531 1.721815 0
-17.24039 55.17531 2.021815 0
-17.24039 55.32531 1.921815 0
-17.19039 55.27531 1.971815 0
-17.14039 55.17531 1.871815 0
-17.14039 55.32531 1.921815 0
-17.09039 55.27531 1.971815 0
-17.24039 55.37531 1.971815 0
-17.14039 55.37531 1.971815 0
-16.94039 55.22531 1.721815 0
-16.99039 55.17531 1.871815 0
-17.04039 55.17531 2.021815 0
-17.04039 55.32531 1.921815 0
-16.99039 55.27531 1.971815 0
-16.94039 55.27531 1.921815 0
-17.04039 55.37531 1.971815 0
-16.89039 55.37531 1.971815 0
-17.19039 55.22531 2.121815 0
-17.09039 55.22531 2.121815 0
-17.24039 55.32531 2.321815 0
-17.19039 55.27531 2.371815 0
-17.14039 55.17531 2.321815 0
-17.14039 55.32531 2.321815 0
-17.09039 55.27531 2.371815 0
-17.24039 55.37531 2.321815 0
-17.14039 55.37531 2.321815 0
-16.94039 55.22531 2.121815 0
-16.99039 55.17531 2.321815 0
-17.04039 55.32531 2.321815 0
-16.94039 55.27531 2.321815 0
-16.94039 55.27531 2.371815 0
-17.04039 55.37531 2.321815 0
-16.89039 55.37531 2.321815 0
-16.84039 55.22531 1.721815 0
-16.69039 55.22531 1.671815 0
-16.84039 55.17531 1.871815 0
-16.84039 55.17531 1.971815 0
-16.84039 55.22531 1.971815 0
-16.79039 55.27531 1.921815 0
-16.69039 55.17531 1.871815 0
-16.69039 55.17531 1.971815 0
-16.74039 55.27531 1.971815 0
-16.69039 55.27531 1.971815 0
-16.79039 55.37531 1.971815 0
-16.59039 55.22531 1.921815 0
-16.64039 55.17531 1.971815 0
-16.59039 55.27531 1.971815 0
-16.49039 55.22531 1.921815 0
-16.49039 55.17531 1.971815 0
-16.84039 55.22531 2.071815 0
-16.69039 55.22531 2.071815 0
-16.84039 55.17531 2.321815 0
-16.79039 55.27531 2.321815 0
-16.84039 55.27531 2.371815 0
-16.69039 55.17531 2.271815 0
-16.69039 55.27531 2.321815 0
-16.74039 55.27531 2.371815 0
-16.79039 55.37531 2.371815 0
-16.59039 55.32531 2.321815 0
-16.64039 55.27531 2.371815 0
-16.54039 55.17531 2.271815 0
-16.54039 55.17531 2.421815 0
-16.49039 55.27531 2.321815 0
-16.54039 55.32531 2.371815 0
-16.49039 55.27531 2.371815 0
-16.64039 55.37531 2.371815 0
-17.24039 55.17531 2.521815 0
-17.19039 55.22531 2.521815 0
-17.09039 55.22531 2.521815 0
-17.24039 55.32531 2.671815 0
-17.19039 55.27531 2.771815 0
-17.14039 55.17531 2.771815 0
-17.14039 55.32531 2.671815 0
-17.09039 55.27531 2.771815 0
-17.24039 55.37531 2.671815 0
-17.14039 55.37531 2.721815 0
-17.04039 55.17531 2.471815 0
-16.94039 55.22531 2.521815 0
-16.99039 55.17531 2.771815 0
-17.04039 55.32531 2.671815 0
-16.94039 55.32531 2.671815 0
-16.94039 55.27531 2.771815 0
-17.04039 55.37531 2.721815 0
-16.89039 55.37531 2.721815 0
-17.19039 55.22531 2.921815 0
-17.24039 55.17531 2.971815 0
-17.09039 55.22531 2.921815 0
-17.24039 55.32531 3.071815 0
-17.19039 55.27531 3.171815 0
-17.14039 55.17531 3.221815 0
-17.14039 55.32531 3.071815 0
-17.09039 55.27531 3.171815 0
-17.24039 55.37531 3.071815 0
-17.14039 55.37531 3.071815 0
-17.04039 55.17531 2.971815 0
-16.94039 55.22531 2.921815 0
-16.89039 55.17531 2.971815 0
-16.99039 55.17531 3.171815 0
-17.04039 55.32531 3.071815 0
-16.94039 55.32531 3.071815 0
-16.94039 55.27531 3.171815 0
-17.04039 55.37531 3.071815 0
-16.89039 55.37531 3.121815 0
-16.84039 55.17531 2.471815 0
-16.84039 55.22531 2.521815 0
-16.69039 55.17531 2.471815 0
-16.69039 55.22531 2.471815 0
-16.84039 55.17531 2.721815 0
-16.84039 55.22531 2.771815 0
-16.79039 55.32531 2.671815 0
-16.69039 55.17531 2.721815 0
-16.69039 55.32531 2.671815 0
-16.74039 55.27531 2.771815 0
-16.79039 55.37531 2.721815 0
-16.59039 55.22531 2.471815 0
-16.64039 55.22531 2.771815 0
-16.59039 55.27531 2.671815 0
-16.54039 55.17531 2.721815 0
-16.49039 55.32531 2.721815 0
-16.49039 55.27531 2.771815 0
-16.64039 55.37531 2.721815 0
-16.54039 55.37531 2.771815 0
-16.84039 55.22531 2.921815 0
-16.69039 55.17531 2.921815 0
-16.69039 55.22531 2.921815 0
-16.84039 55.17531 3.171815 0
-16.79039 55.27531 3.071815 0
-16.84039 55.27531 3.171815 0
-16.69039 55.17531 3.171815 0
-16.74039 55.27531 3.121815 0
-16.69039 55.32531 3.071815 0
-16.79039 55.37531 3.121815 0
-16.69039 55.37531 3.121815 0
-16.59039 55.22531 2.871815 0
-16.54039 55.17531 2.921815 0
-16.64039 55.27531 3.121815 0
-16.59039 55.32531 3.071815 0
-16.49039 55.22531 3.121815 0
-16.54039 55.17531 3.171815 0
-16.49039 55.32531 3.071815 0
-16.54039 55.37531 3.121815 0
-16.44039 55.12531 0.1218147 0
-16.39039 55.07531 0.1718147 0
-16.34039 55.02531 0.1218147 0
-16.34039 55.12531 0.1218147 0
-16.29039 55.07531 0.1218147 0
-16.19039 55.12531 0.1218147 0
-16.24039 55.07531 0.1718147 0
-16.14039 55.02531 0.1218147 0
-16.14039 55.07531 0.1218147 0
-16.09039 55.12531 0.1218147 0
-16.09039 55.07531 0.1718147 0
-16.39039 55.02531 0.6218147 0
-16.44039 55.12531 0.5218147 0
-16.39039 55.07531 0.5718147 0
-16.34039 55.02531 0.5718147 0
-16.34039 55.12531 0.5218147 0
-16.29039 55.07531 0.5718147 0
-16.24039 54.87531 0.6718147 0
-16.19039 54.92531 0.6718147 0
-16.19039 55.12531 0.5218147 0
-16.24039 55.07531 0.5718147 0
-16.14039 54.97531 0.6218147 0
-16.14039 55.02531 0.5718147 0
-16.09039 55.12531 0.5218147 0
-16.14039 55.07531 0.5718147 0
-16.09039 55.07531 0.5718147 0
-16.19039 55.02531 0.7218148 0
-15.99039 55.02531 0.1218147 0
-15.99039 55.07531 0.1718147 0
-15.94039 55.02531 0.1218147 0
-15.94039 55.12531 0.1218147 0
-15.79039 55.02531 0.1218147 0
-15.84039 55.12531 0.1218147 0
-15.84039 55.07531 0.1718147 0
-15.74039 55.02531 0.1218147 0
-15.74039 55.12531 0.1218147 0
-15.69039 55.07531 0.1718147 0
-15.94039 54.92531 0.6718147 0
-15.89039 54.87531 0.6718147 0
-15.99039 55.07531 0.5718147 0
-15.94039 55.02531 0.5718147 0
-15.89039 54.97531 0.6218147 0
-15.94039 55.12531 0.5218147 0
-15.94039 55.02531 0.7218148 0
-15.79039 55.02531 0.5718147 0
-15.84039 55.12531 0.5218147 0
-15.84039 55.07531 0.5718147 0
-15.74039 55.02531 0.5718147 0
-15.69039 54.97531 0.6218147 0
-15.74039 55.12531 0.5218147 0
-15.69039 55.07531 0.5718147 0
-15.69039 55.02531 0.7218148 0
-16.44039 55.12531 0.9218147 0
-16.39039 55.07531 0.9718148 0
-16.34039 55.12531 0.9218147 0
-16.29039 55.07531 1.021815 0
-16.39039 55.02531 1.171815 0
-16.34039 55.02531 1.071815 0
-16.19039 55.12531 0.9218147 0
-16.24039 55.07531 0.9718148 0
-16.09039 55.12531 0.8718147 0
-16.14039 55.07531 1.021815 0
-16.09039 55.07531 0.9718148 0
-16.14039 55.02531 1.071815 0
-16.14039 54.97531 1.171815 0
-16.44039 55.12531 1.271815 0
-16.39039 55.07531 1.421815 0
-16.34039 55.12531 1.271815 0
-16.44039 55.07531 1.471815 0
-16.34039 55.02531 1.571815 0
-16.29039 55.07531 1.471815 0
-16.19039 54.92531 1.321815 0
-16.24039 54.87531 1.371815 0
-16.19039 55.02531 1.371815 0
-16.19039 55.12531 1.271815 0
-16.24039 55.07531 1.421815 0
-16.09039 55.12531 1.271815 0
-16.09039 55.07531 1.371815 0
-16.14039 55.02531 1.571815 0
-16.14039 55.07531 1.471815 0
-15.99039 55.07531 1.021815 0
-15.94039 55.12531 0.8718147 0
-15.94039 55.07531 0.9718148 0
-15.94039 55.02531 1.071815 0
-15.89039 54.97531 1.171815 0
-15.79039 55.02531 1.021815 0
-15.84039 55.12531 0.8718147 0
-15.84039 55.07531 0.9718148 0
-15.74039 55.12531 0.8718147 0
-15.69039 55.07531 0.9718148 0
-15.74039 55.02531 1.071815 0
-15.69039 54.97531 1.171815 0
-15.74039 55.12531 1.221815 0
-15.94039 54.92531 1.321815 0
-15.89039 54.87531 1.371815 0
-15.99039 55.07531 1.371815 0
-15.94039 55.02531 1.321815 0
-15.94039 55.12531 1.271815 0
-15.99039 55.02531 1.471815 0
-15.94039 55.02531 1.571815 0
-15.84039 55.12531 1.271815 0
-15.84039 55.07531 1.371815 0
-15.69039 55.02531 1.321815 0
-15.74039 55.12531 1.271815 0
-15.69039 55.07531 1.371815 0
-15.79039 55.02531 1.471815 0
-15.74039 55.02531 1.571815 0
-16.39039 55.17531 0.1218147 0
-16.39039 55.22531 0.1718147 0
-16.44039 55.27531 0.1218147 0
-16.29039 55.17531 0.1218147 0
-16.34039 55.27531 0.1218147 0
-16.19039 55.17531 0.1218147 0
-16.24039 55.22531 0.1718147 0
-16.19039 55.27531 0.1218147 0
-16.14039 55.22531 0.1218147 0
-16.09039 55.27531 0.1218147 0
-16.39039 55.17531 0.5218147 0
-16.39039 55.22531 0.5218147 0
-16.44039 55.27531 0.5218147 0
-16.29039 55.17531 0.5218147 0
-16.34039 55.27531 0.5218147 0
-16.24039 55.22531 0.5218147 0
-16.19039 55.17531 0.5218147 0
-16.19039 55.27531 0.5218147 0
-16.14039 55.22531 0.5218147 0
-16.09039 55.27531 0.5218147 0
-16.04039 55.17531 0.1218147 0
-16.04039 55.22531 0.1218147 0
-15.94039 55.17531 0.1218147 0
-15.94039 55.27531 0.1218147 0
-15.84039 55.17531 0.1218147 0
-15.79039 55.22531 0.1218147 0
-15.74039 55.17531 0.1218147 0
-15.69039 55.22531 0.1218147 0
-16.04039 55.17531 0.5218147 0
-16.04039 55.22531 0.5218147 0
-15.94039 55.17531 0.5218147 0
-15.94039 55.22531 0.5218147 0
-15.94039 55.27531 0.5218147 0
-15.79039 55.22531 0.5218147 0
-15.74039 55.17531 0.5218147 0
-15.69039 55.22531 0.5218147 0
-16.39039 55.17531 0.8718147 0
-16.39039 55.22531 0.8718147 0
-16.44039 55.27531 0.8718147 0
-16.29039 55.17531 0.8718147 0
-16.34039 55.27531 0.8718147 0
-16.39039 55.17531 1.221815 0
-16.39039 55.22531 1.221815 0
-16.44039 55.27531 1.221815 0
-16.29039 55.17531 1.221815 0
-16.34039 55.27531 1.221815 0
-16.24039 55.22531 0.8718147 0
-16.19039 55.17531 0.8718147 0
-16.19039 55.32531 0.8718147 0
-16.14039 55.22531 0.8718147 0
-16.09039 55.27531 0.8718147 0
-16.24039 55.22531 1.221815 0
-16.19039 55.17531 1.221815 0
-16.14039 55.22531 1.221815 0
-16.39039 55.17531 1.621815 0
-16.39039 55.22531 1.571815 0
-16.44039 55.27531 1.621815 0
-16.29039 55.17531 1.621815 0
-16.34039 55.27531 1.621815 0
-16.09039 55.27531 1.271815 0
-16.24039 55.22531 1.571815 0
-16.19039 55.17531 1.621815 0
-16.14039 55.22531 1.571815 0
-16.09039 55.27531 1.621815 0
-16.19039 55.37531 1.271815 0
-16.19039 55.37531 1.621815 0
-16.04039 55.17531 0.8718147 0
-16.04039 55.22531 0.8718147 0
-15.94039 55.22531 0.8718147 0
-15.94039 55.27531 0.8718147 0
-16.04039 55.17531 1.221815 0
-16.04039 55.22531 1.221815 0
-15.94039 55.17531 1.221815 0
-15.94039 55.22531 1.221815 0
-15.84039 55.17531 0.8718147 0
-15.79039 55.17531 0.8718147 0
-15.74039 55.17531 0.8718147 0
-15.69039 55.22531 0.8718147 0
-15.84039 55.17531 1.221815 0
-15.79039 55.22531 1.221815 0
-15.69039 55.17531 1.221815 0
-15.99039 55.27531 1.271815 0
