# .PCD v0.7 - Point Cloud Data file format
VERSION 0.7
FIELDS x y z intensity
SIZE 4 4 4 4
TYPE F F F F
COUNT 1 1 1 1
WIDTH 1636
HEIGHT 1
VIEWPOINT 0 0 0 1 0 0 0
POINTS 1636
DATA ascii
100.6596 29.92531 1.221815 0
100.6096 29.87531 1.271815 0
100.3596 30.02531 1.021815 0
100.3596 30.07531 0.9218147 0
100.3596 30.07531 0.9718148 0
100.3596 30.07531 1.021815 0
100.3596 30.12531 0.9718148 0
100.3596 30.12531 1.021815 0
100.4096 30.07531 0.9718148 0
100.4596 30.02531 1.021815 0
100.5096 30.02531 1.021815 0
100.4596 30.07531 0.9218147 0
100.4596 30.07531 0.9718148 0
100.5096 30.07531 0.9718148 0
100.5096 30.07531 1.021815 0
100.4596 29.97531 1.071815 0
100.5096 29.97531 1.121815 0
100.5096 30.02531 1.071815 0
100.4596 30.12531 1.071815 0
100.5096 30.07531 1.121815 0
100.5096 30.12531 1.171815 0
100.6096 30.07531 0.9218147 0
100.5596 30.07531 0.9718148 0
100.5596 30.12531 0.9718148 0
100.6096 30.07531 0.9718148 0
100.6596 30.02531 1.021815 0
100.7096 30.02531 0.9718148 0
100.7096 30.07531 0.9218147 0
100.6596 30.07531 0.9718148 0
100.6596 30.07531 1.021815 0
100.7096 30.07531 0.9718148 0
100.6096 30.07531 1.221815 0
100.6596 29.97531 1.071815 0
100.7096 30.02531 1.071815 0
100.6596 30.07531 1.071815 0
100.7096 30.07531 1.121815 0
100.3596 30.02531 1.421815 0
100.3596 30.07531 1.371815 0
100.3596 30.07531 1.421815 0
100.3596 30.12531 1.421815 0
100.4096 30.07531 1.371815 0
100.4096 30.07531 1.421815 0
100.5096 30.02531 1.421815 0
100.4596 30.07531 1.371815 0
100.4596 30.07531 1.421815 0
100.5096 30.07531 1.421815 0
100.5096 30.12531 1.421815 0
100.3596 30.07531 1.471815 0
100.4596 30.02531 1.471815 0
100.4596 29.97531 1.571815 0
100.5096 30.02531 1.571815 0
100.5096 30.07531 1.471815 0
100.4596 30.12531 1.571815 0
100.6096 30.02531 1.421815 0
100.5596 30.07531 1.371815 0
100.6096 30.07531 1.371815 0
100.6096 30.07531 1.421815 0
100.6596 30.02531 1.421815 0
100.6596 30.07531 1.421815 0
100.7096 30.07531 1.371815 0
100.7096 30.07531 1.421815 0
100.6596 30.02531 1.471815 0
100.6596 29.97531 1.571815 0
100.7096 30.02531 1.571815 0
100.6596 30.07531 1.471815 0
100.6596 30.07531 1.571815 0
100.9596 29.92531 1.221815 0
100.8096 29.92531 1.571815 0
100.9596 29.87531 1.271815 0
101.0096 29.92531 1.571815 0
100.8096 29.97531 1.021815 0
100.8096 30.02531 0.9718148 0
100.8096 30.02531 1.021815 0
100.7596 30.07531 0.9718148 0
100.7596 30.07531 1.021815 0
100.8096 30.07531 0.9718148 0
100.8096 30.07531 1.021815 0
100.9096 30.02531 0.9718148 0
100.8596 30.07531 0.9218147 0
100.8596 30.07531 0.9718148 0
100.9096 30.07531 0.9718148 0
100.9096 30.07531 1.021815 0
100.7596 29.97531 1.121815 0
100.8096 29.97531 1.071815 0
100.8096 30.12531 1.071815 0
100.7596 30.12531 1.171815 0
100.8596 29.97531 1.071815 0
100.9096 30.07531 1.121815 0
100.9596 30.02531 0.9718148 0
100.9596 30.02531 1.021815 0
101.0096 30.02531 0.9718148 0
100.9596 30.07531 0.9718148 0
100.9596 30.07531 1.021815 0
101.0096 30.07531 0.9718148 0
101.0596 30.02531 0.9718148 0
101.1096 29.97531 1.021815 0
101.1096 30.02531 0.9718148 0
101.0596 30.07531 0.9718148 0
101.0596 30.07531 1.021815 0
101.1096 30.07531 0.9718148 0
101.0096 29.97531 1.071815 0
101.0096 29.97531 1.121815 0
101.0096 30.07531 1.071815 0
101.0596 29.97531 1.071815 0
101.1096 30.07531 1.121815 0
100.8096 30.02531 1.421815 0
100.7596 30.07531 1.421815 0
100.8096 30.07531 1.421815 0
100.9096 30.02531 1.421815 0
100.8596 30.07531 1.371815 0
100.8596 30.07531 1.421815 0
100.9096 30.07531 1.421815 0
100.8096 29.97531 1.471815 0
100.8096 30.02531 1.471815 0
100.8096 30.07531 1.471815 0
100.8096 30.07531 1.521815 0
100.9096 29.97531 1.571815 0
100.9096 30.07531 1.621815 0
100.9596 30.02531 1.371815 0
100.9596 30.02531 1.421815 0
100.9596 30.07531 1.421815 0
101.0096 30.07531 1.371815 0
101.0096 30.07531 1.421815 0
101.0596 30.02531 1.421815 0
101.1096 30.02531 1.371815 0
101.0596 30.07531 1.421815 0
101.1096 30.07531 1.371815 0
101.1096 30.07531 1.421815 0
100.9596 30.02531 1.471815 0
100.9596 30.02531 1.521815 0
100.9596 30.07531 1.471815 0
101.0096 30.07531 1.521815 0
101.1096 29.97531 1.471815 0
101.1096 30.02531 1.521815 0
101.0596 29.97531 1.571815 0
101.1096 30.07531 1.621815 0
101.2096 29.92531 0.1218147 0
101.3596 29.92531 0.1218147 0
101.2096 29.92531 0.6218147 0
101.2596 29.87531 0.6218147 0
101.2596 29.92531 0.5718147 0
101.3596 29.92531 0.6218147 0
101.4596 29.92531 0.6218147 0
101.2096 30.02531 0.07181472 0
101.2096 30.02531 0.1218147 0
101.1596 30.07531 0.07181472 0
101.1596 30.07531 0.1218147 0
101.1596 30.07531 0.1718147 0
101.2596 29.97531 0.1218147 0
101.2596 30.02531 0.1218147 0
101.3096 30.02531 0.07181472 0
101.2596 30.07531 0.1218147 0
101.3096 30.07531 0.1218147 0
101.2596 30.07531 0.1718147 0
101.3096 30.07531 0.1718147 0
101.3596 30.02531 0.07181472 0
101.3596 30.02531 0.1218147 0
101.4096 29.97531 0.1218147 0
101.4096 30.02531 0.1218147 0
101.3596 30.07531 0.1218147 0
101.4096 30.12531 0.1218147 0
101.3596 30.07531 0.1718147 0
101.4596 30.02531 0.07181472 0
101.4596 30.02531 0.1218147 0
101.5096 30.02531 0.07181472 0
101.5096 30.02531 0.1218147 0
101.4596 30.02531 0.1718147 0
101.4596 30.12531 0.1218147 0
101.4596 30.22531 0.1218147 0
101.5096 30.22531 0.07181472 0
101.5096 30.22531 0.1218147 0
101.2096 30.02531 0.5218147 0
101.2096 30.02531 0.5718147 0
101.1596 30.07531 0.5718147 0
101.2096 30.07531 0.5718147 0
101.2596 30.02531 0.5218147 0
101.2596 29.97531 0.5718147 0
101.2596 30.02531 0.5718147 0
101.3096 29.97531 0.5718147 0
101.3096 30.02531 0.5718147 0
101.3096 30.07531 0.5718147 0
101.3596 30.02531 0.5218147 0
101.4096 30.02531 0.5218147 0
101.3596 30.02531 0.5718147 0
101.4096 29.97531 0.5718147 0
101.3596 30.07531 0.5718147 0
101.4096 30.12531 0.6218147 0
101.5096 30.02531 0.5218147 0
101.4596 29.97531 0.5718147 0
101.4596 29.97531 0.6218147 0
101.4596 30.02531 0.5718147 0
101.5096 30.02531 0.5718147 0
101.4596 30.07531 0.5718147 0
101.4596 30.12531 0.5718147 0
101.5096 30.22531 0.5218147 0
101.4596 30.22531 0.5718147 0
101.4596 30.22531 0.6218147 0
101.5096 30.17531 0.5718147 0
101.5096 30.17531 0.6218147 0
101.5096 30.22531 0.5718147 0
101.5596 30.22531 0.07181472 0
101.6096 30.32531 0.1218147 0
101.5596 30.22531 0.5218147 0
101.6096 30.32531 0.5218147 0
101.1596 29.92531 1.121815 0
101.2096 29.92531 1.221815 0
101.3596 29.92531 1.121815 0
101.5096 29.92531 1.171815 0
101.5096 29.92531 1.221815 0
101.2596 29.87531 1.321815 0
101.3596 29.92531 1.621815 0
101.1596 30.02531 1.021815 0
101.2096 30.02531 0.9718148 0
101.1596 30.07531 1.021815 0
101.2096 30.07531 0.9718148 0
101.2596 29.97531 1.021815 0
101.2596 30.02531 0.9718148 0
101.2596 30.02531 1.021815 0
101.3096 29.97531 1.021815 0
101.3096 30.02531 0.9718148 0
101.3096 30.07531 1.021815 0
101.1596 30.07531 1.071815 0
101.2596 29.97531 1.071815 0
101.2596 29.97531 1.121815 0
101.3596 30.02531 0.9718148 0
101.4096 29.97531 1.021815 0
101.4096 30.02531 0.9718148 0
101.3596 30.07531 0.9718148 0
101.4096 30.07531 1.021815 0
101.4596 29.97531 1.021815 0
101.4596 30.02531 0.9718148 0
101.4596 30.02531 1.021815 0
101.5096 30.02531 0.9718148 0
101.5096 29.97531 1.071815 0
101.4596 30.07531 1.121815 0
101.4596 30.17531 1.021815 0
101.5096 30.17531 1.021815 0
101.5096 30.17531 1.221815 0
101.4596 30.32531 1.071815 0
101.1596 30.02531 1.421815 0
101.2096 29.97531 1.421815 0
101.2096 30.02531 1.421815 0
101.2096 30.07531 1.421815 0
101.2596 30.02531 1.371815 0
101.2596 30.02531 1.421815 0
101.3096 30.02531 1.421815 0
101.2596 30.07531 1.371815 0
101.3096 30.07531 1.421815 0
101.1596 29.97531 1.571815 0
101.1596 30.07531 1.471815 0
101.1596 30.07531 1.521815 0
101.2596 29.97531 1.471815 0
101.3096 30.02531 1.521815 0
101.2596 29.97531 1.621815 0
101.2596 30.07531 1.471815 0
101.3596 30.02531 1.371815 0
101.3596 30.02531 1.421815 0
101.4096 30.02531 1.421815 0
101.3596 30.07531 1.421815 0
101.5096 29.97531 1.321815 0
101.4596 30.02531 1.421815 0
101.5096 30.02531 1.421815 0
101.4596 30.07531 1.421815 0
101.5096 30.07531 1.371815 0
101.5096 30.07531 1.421815 0
101.4096 29.97531 1.471815 0
101.3596 30.07531 1.521815 0
101.4096 30.07531 1.471815 0
101.4596 29.97531 1.521815 0
101.4596 29.97531 1.621815 0
101.4596 30.07531 1.621815 0
101.5096 30.22531 1.271815 0
101.4596 30.17531 1.471815 0
101.4596 30.32531 1.571815 0
101.5596 30.12531 1.121815 0
101.6096 30.17531 0.9718148 0
101.6096 30.22531 0.9718148 0
101.5596 30.17531 1.071815 0
101.6596 30.32531 1.121815 0
101.6596 30.32531 1.221815 0
101.8096 30.32531 1.121815 0
101.5596 30.12531 1.621815 0
101.6096 30.17531 1.421815 0
101.6096 30.22531 1.371815 0
101.5596 30.17531 1.521815 0
101.6596 30.32531 1.571815 0
101.8096 30.27531 1.321815 0
101.8096 30.32531 1.621815 0
100.4096 29.92531 1.671815 0
100.4096 29.92531 1.821815 0
100.6096 29.92531 1.671815 0
100.6596 29.92531 1.821815 0
100.6596 29.87531 1.921815 0
100.4096 29.92531 2.221815 0
100.4096 29.92531 2.421815 0
100.6096 29.87531 2.221815 0
100.6596 29.92531 2.421815 0
100.3596 30.07531 1.821815 0
100.4096 30.07531 1.821815 0
100.5096 30.12531 1.671815 0
100.4596 30.07531 1.771815 0
100.4596 30.07531 1.821815 0
100.5096 30.12531 1.771815 0
100.3596 30.02531 1.871815 0
100.3596 30.07531 1.871815 0
100.3596 30.12531 1.871815 0
100.4096 30.07531 1.871815 0
100.3596 30.12531 1.971815 0
100.5096 30.02531 1.871815 0
100.4596 29.97531 2.021815 0
100.4596 30.02531 1.971815 0
100.5096 30.07531 1.871815 0
100.5096 30.12531 1.871815 0
100.5096 30.07531 1.971815 0
100.5596 29.97531 1.671815 0
100.5596 30.02531 1.821815 0
100.6096 30.07531 1.771815 0
100.6096 30.07531 1.821815 0
100.6596 30.02531 1.821815 0
100.7096 30.07531 1.671815 0
100.6596 30.07531 1.821815 0
100.7096 30.07531 1.771815 0
100.7096 30.07531 1.821815 0
100.6096 30.07531 1.871815 0
100.6596 30.02531 1.871815 0
100.6596 30.02531 1.971815 0
100.6596 30.07531 1.871815 0
100.6596 30.07531 1.921815 0
100.4096 30.02531 2.221815 0
100.3596 30.07531 2.221815 0
100.3596 30.12531 2.221815 0
100.5096 30.02531 2.071815 0
100.4596 30.12531 2.071815 0
100.4596 30.07531 2.221815 0
100.3596 30.02531 2.321815 0
100.3596 30.07531 2.271815 0
100.3596 30.12531 2.321815 0
100.4096 30.07531 2.271815 0
100.3596 30.07531 2.421815 0
100.5096 30.02531 2.321815 0
100.5096 30.02531 2.421815 0
100.4596 30.07531 2.271815 0
100.5096 30.07531 2.271815 0
100.5096 30.07531 2.321815 0
100.5096 30.12531 2.371815 0
100.5096 30.12531 2.421815 0
100.5596 29.97531 2.221815 0
100.5596 30.02531 2.221815 0
100.6096 30.07531 2.221815 0
100.6596 29.97531 2.071815 0
100.7096 29.97531 2.071815 0
100.6596 30.07531 2.071815 0
100.6596 30.07531 2.221815 0
100.7096 30.07531 2.171815 0
100.7096 30.07531 2.221815 0
100.6596 29.97531 2.321815 0
100.6596 30.02531 2.321815 0
100.6596 30.02531 2.421815 0
100.6596 30.07531 2.271815 0
100.6596 30.07531 2.321815 0
100.6596 30.07531 2.421815 0
100.9596 29.92531 1.821815 0
100.9596 29.87531 1.971815 0
100.7596 29.97531 1.671815 0
100.8096 30.02531 1.821815 0
100.7596 30.07531 1.771815 0
100.8096 30.07531 1.821815 0
100.8596 30.07531 1.771815 0
100.8596 30.07531 1.821815 0
100.9096 30.07531 1.821815 0
100.8096 30.02531 1.921815 0
100.8096 30.02531 1.971815 0
100.7596 30.07531 1.871815 0
100.8096 30.07531 1.871815 0
100.8096 30.07531 1.921815 0
100.8096 30.07531 2.021815 0
100.9096 30.02531 1.871815 0
100.9096 30.07531 1.871815 0
101.0096 29.97531 1.721815 0
100.9596 30.02531 1.821815 0
100.9596 30.07531 1.771815 0
101.0096 30.07531 1.821815 0
101.0596 30.02531 1.821815 0
101.1096 30.02531 1.821815 0
101.0596 30.07531 1.821815 0
101.1096 30.07531 1.821815 0
100.9596 29.97531 1.921815 0
100.9596 30.02531 1.971815 0
100.9596 30.07531 1.871815 0
100.9596 30.07531 1.921815 0
101.0096 30.12531 2.021815 0
101.0596 30.02531 1.871815 0
101.1096 29.97531 1.921815 0
101.0596 30.07531 1.871815 0
101.1096 30.07531 1.921815 0
100.8096 29.97531 2.071815 0
100.7596 30.07531 2.221815 0
100.8596 30.02531 2.121815 0
100.8596 30.07531 2.221815 0
100.9096 30.07531 2.171815 0
100.7596 29.97531 2.271815 0
100.8096 30.02531 2.271815 0
100.8096 30.02531 2.321815 0
100.7596 30.07531 2.321815 0
100.8096 30.07531 2.271815 0
100.8096 30.07531 2.321815 0
100.8096 30.07531 2.421815 0
100.9096 30.02531 2.271815 0
100.9096 30.02531 2.321815 0
100.8596 30.07531 2.271815 0
100.9096 30.07531 2.271815 0
101.0096 29.97531 2.071815 0
100.9596 30.07531 2.221815 0
101.0096 30.07531 2.221815 0
101.0596 29.97531 2.121815 0
101.1096 30.07531 2.171815 0
101.1096 30.07531 2.221815 0
101.0096 29.97531 2.271815 0
101.0096 30.02531 2.271815 0
100.9596 30.02531 2.371815 0
100.9596 30.07531 2.321815 0
100.9596 30.07531 2.371815 0
101.0596 30.02531 2.271815 0
101.0596 30.02531 2.321815 0
101.1096 29.97531 2.371815 0
101.0596 30.07531 2.271815 0
101.0596 30.07531 2.321815 0
101.1096 30.07531 2.271815 0
101.1096 30.07531 2.371815 0
100.6096 29.87531 2.621815 0
100.4596 29.97531 2.521815 0
100.5096 30.02531 2.571815 0
100.4596 30.12531 2.571815 0
100.3596 30.07531 2.671815 0
100.4096 30.07531 2.671815 0
100.5096 30.02531 2.671815 0
100.4596 30.07531 2.671815 0
100.4096 30.17531 2.721815 0
100.3596 30.32531 2.721815 0
100.4096 30.27531 2.721815 0
100.4096 30.32531 2.671815 0
100.6096 30.07531 2.521815 0
100.6596 29.97531 2.521815 0
100.7096 29.97531 2.621815 0
100.6596 30.12531 2.521815 0
100.6096 30.07531 2.671815 0
100.6596 30.02531 2.671815 0
100.7096 30.07531 2.671815 0
100.5596 30.22531 2.721815 0
100.5596 30.32531 2.671815 0
100.6596 30.22531 2.721815 0
100.7096 30.32531 2.671815 0
100.4596 30.32531 3.221815 0
100.8596 29.92531 2.621815 0
100.9596 29.92531 2.471815 0
101.0096 29.92531 2.571815 0
100.8096 30.02531 2.471815 0
100.8096 29.97531 2.571815 0
100.8096 30.07531 2.521815 0
100.9096 29.97531 2.621815 0
100.8096 30.02531 2.671815 0
100.7596 30.07531 2.671815 0
100.9096 30.02531 2.671815 0
100.8596 30.07531 2.671815 0
100.9096 30.12531 2.721815 0
100.8096 30.17531 2.721815 0
100.8096 30.27531 2.671815 0
100.9596 30.02531 2.471815 0
101.0096 30.07531 2.521815 0
101.0096 30.07531 2.621815 0
101.0596 29.97531 2.621815 0
101.0096 30.02531 2.671815 0
100.9596 30.07531 2.671815 0
101.0096 30.07531 2.671815 0
101.0596 30.02531 2.721815 0
101.1096 30.02531 2.671815 0
101.0596 30.12531 2.721815 0
101.1096 30.07531 2.671815 0
101.1096 30.27531 2.621815 0
100.9596 30.27531 2.671815 0
101.0596 30.27531 2.671815 0
101.1096 30.27531 2.671815 0
101.0596 30.32531 3.071815 0
101.2596 29.92531 1.721815 0
101.2096 29.92531 1.871815 0
101.3096 29.87531 1.971815 0
101.5096 29.92531 1.721815 0
101.5096 29.87531 1.871815 0
101.1596 29.92531 2.071815 0
101.3596 29.92531 2.121815 0
101.5096 29.92531 2.321815 0
101.2096 30.02531 1.821815 0
101.2596 30.02531 1.821815 0
101.2596 30.07531 1.821815 0
101.3096 30.07531 1.821815 0
101.2096 30.02531 1.871815 0
101.1596 30.02531 1.971815 0
101.1596 30.07531 1.871815 0
101.2096 30.07531 1.871815 0
101.1596 30.07531 2.021815 0
101.2596 29.97531 1.921815 0
101.3096 29.97531 1.971815 0
101.2596 30.07531 1.921815 0
101.3096 30.07531 1.871815 0
101.3096 30.07531 2.021815 0
101.3596 30.02531 1.821815 0
101.4096 30.02531 1.821815 0
101.4596 30.02531 1.821815 0
101.5096 30.02531 1.821815 0
101.3596 30.02531 1.871815 0
101.4096 29.97531 1.921815 0
101.4096 30.07531 1.921815 0
101.4596 30.02531 1.871815 0
101.5096 30.02531 1.871815 0
101.4596 29.97531 2.021815 0
101.5096 29.97531 1.971815 0
101.4596 30.07531 1.871815 0
101.4596 30.17531 1.921815 0
101.5096 30.22531 1.971815 0
101.2596 29.97531 2.121815 0
101.2596 30.02531 2.221815 0
101.2596 30.07531 2.221815 0
101.2096 30.02531 2.271815 0
101.2096 30.02531 2.321815 0
101.1596 30.07531 2.271815 0
101.2096 30.07531 2.271815 0
101.2096 30.07531 2.321815 0
101.2596 29.97531 2.271815 0
101.2596 30.02531 2.271815 0
101.2596 29.97531 2.371815 0
101.3096 30.07531 2.271815 0
101.2596 30.07531 2.371815 0
101.3596 30.02531 2.221815 0
101.4596 29.97531 2.171815 0
101.5096 30.02531 2.221815 0
101.4596 30.07531 2.071815 0
101.3596 30.02531 2.271815 0
101.3596 30.02531 2.321815 0
101.4096 30.02531 2.271815 0
101.4096 29.97531 2.371815 0
101.3596 30.07531 2.321815 0
101.4096 30.07531 2.371815 0
101.4596 30.02531 2.271815 0
101.4596 30.02531 2.321815 0
101.5096 30.02531 2.271815 0
101.5096 30.02531 2.371815 0
101.4596 30.32531 2.071815 0
101.4596 30.17531 2.371815 0
101.5596 30.12531 1.721815 0
101.5596 30.12531 1.871815 0
101.6096 30.22531 1.821815 0
101.6096 30.17531 1.871815 0
101.5596 30.17531 1.971815 0
101.6096 30.32531 1.871815 0
101.8096 30.22531 1.971815 0
101.9096 30.32531 1.871815 0
101.5596 30.12531 2.121815 0
101.5596 30.12531 2.321815 0
101.6096 30.22531 2.221815 0
101.6096 30.32531 2.071815 0
101.6096 30.17531 2.321815 0
101.8096 30.32531 2.121815 0
101.2096 29.92531 2.471815 0
101.1596 29.92531 2.571815 0
101.3596 29.92531 2.621815 0
101.5096 29.87531 2.521815 0
101.1596 30.02531 2.471815 0
101.1596 30.07531 2.521815 0
101.3096 30.02531 2.471815 0
101.3096 30.07531 2.471815 0
101.2096 30.02531 2.671815 0
101.1596 30.07531 2.721815 0
101.2096 30.07531 2.671815 0
101.2096 30.07531 2.721815 0
101.2596 30.07531 2.671815 0
101.3096 30.07531 2.721815 0
101.2096 30.17531 2.671815 0
101.2096 30.27531 2.671815 0
101.4596 29.97531 2.521815 0
101.4596 30.07531 2.621815 0
101.3596 30.02531 2.671815 0
101.3596 30.12531 2.671815 0
101.4096 30.07531 2.671815 0
101.5096 30.02531 2.671815 0
101.4596 30.07531 2.721815 0
101.4596 30.12531 2.721815 0
101.5096 30.07531 2.671815 0
101.5096 30.12531 2.671815 0
101.5096 30.17531 2.471815 0
101.4596 30.32531 2.571815 0
101.3596 30.22531 2.671815 0
101.4096 30.32531 2.671815 0
101.4596 30.22531 2.671815 0
101.5096 30.22531 2.671815 0
101.4596 30.27531 2.671815 0
101.3596 30.32531 3.071815 0
101.5596 30.17531 2.471815 0
101.6096 30.32531 2.571815 0
101.6596 30.32531 2.471815 0
101.6096 30.22531 2.671815 0
101.5596 30.32531 2.671815 0
101.8096 30.32531 2.621815 0
101.6096 30.32531 3.071815 0
101.6596 30.32531 3.121815 0
101.8096 30.32531 3.121815 0
102.6096 27.32531 0.6218147 0
102.7096 28.72531 0.1218147 0
102.4596 28.47531 1.071815 0
102.5096 28.62531 1.221815 0
102.5096 28.67531 1.071815 0
102.5596 28.67531 1.071815 0
102.6096 28.67531 1.171815 0
102.6596 28.72531 1.071815 0
102.7096 28.72531 1.121815 0
102.4596 28.52531 1.521815 0
102.5096 28.72531 1.321815 0
102.5096 28.67531 1.571815 0
102.5596 28.67531 1.521815 0
102.6096 28.67531 1.571815 0
102.9596 28.27531 0.6218147 0
103.0096 28.32531 0.5718147 0
102.9096 28.42531 0.5718147 0
102.8096 28.72531 0.5718147 0
102.8096 28.72531 0.6218147 0
102.9096 28.72531 0.5718147 0
102.9096 28.72531 0.6218147 0
102.9596 28.37531 0.5718147 0
103.0096 28.37531 0.5718147 0
103.0096 28.37531 0.6218147 0
103.0596 28.37531 0.5718147 0
103.0596 28.37531 0.6218147 0
103.1096 28.37531 0.5718147 0
102.9596 28.57531 0.5718147 0
102.9596 28.57531 0.6218147 0
103.0096 28.57531 0.6218147 0
102.9596 28.67531 0.5718147 0
102.9596 28.72531 0.5718147 0
103.1596 28.32531 0.5718147 0
103.1596 28.32531 0.6218147 0
103.2596 28.32531 0.5718147 0
103.3096 28.32531 0.5718147 0
103.3596 28.32531 0.5718147 0
103.4096 28.32531 0.5718147 0
103.4596 28.27531 0.6218147 0
103.4596 28.32531 0.5718147 0
103.4596 28.32531 0.6218147 0
103.5096 28.32531 0.5718147 0
103.1596 28.47531 0.07181472 0
103.3596 28.47531 0.07181472 0
103.4596 28.42531 0.1218147 0
103.5096 28.42531 0.1218147 0
103.5096 28.47531 0.07181472 0
103.1596 28.37531 0.5718147 0
103.2096 28.37531 0.5718147 0
103.2096 28.37531 0.6218147 0
103.2596 28.37531 0.5718147 0
103.3096 28.37531 0.5718147 0
103.3096 28.37531 0.6218147 0
103.3596 28.37531 0.6218147 0
103.4596 28.37531 0.5718147 0
103.5096 28.37531 0.5718147 0
103.5096 28.37531 0.6218147 0
102.8596 28.52531 1.021815 0
102.8596 28.52531 1.071815 0
102.9096 28.52531 1.071815 0
102.7596 28.67531 1.071815 0
102.8096 28.67531 1.071815 0
102.8096 28.72531 1.071815 0
102.8096 28.67531 1.221815 0
102.8596 28.62531 1.121815 0
102.9096 28.57531 1.071815 0
102.9096 28.62531 1.071815 0
102.8596 28.67531 1.171815 0
103.0096 28.47531 1.071815 0
103.0096 28.52531 1.071815 0
103.0096 28.52531 1.121815 0
102.9596 28.52531 1.221815 0
103.0596 28.52531 1.071815 0
102.9596 28.57531 1.171815 0
102.9096 28.52531 1.321815 0
102.8596 28.52531 1.521815 0
102.9096 28.52531 1.521815 0
102.8596 28.52531 1.571815 0
102.9096 28.52531 1.571815 0
102.7596 28.67531 1.321815 0
102.7596 28.67531 1.521815 0
102.8096 28.67531 1.571815 0
102.9096 28.62531 1.521815 0
102.8596 28.62531 1.621815 0
102.9096 28.57531 1.571815 0
103.0096 28.52531 1.521815 0
102.9596 28.52531 1.571815 0
103.0596 28.52531 1.521815 0
103.0596 28.52531 1.571815 0
103.1096 28.52531 1.571815 0
103.0096 28.57531 1.621815 0
103.0596 28.57531 1.571815 0
103.1596 28.47531 1.071815 0
103.1596 28.52531 1.071815 0
103.1596 28.52531 1.121815 0
103.2096 28.47531 1.121815 0
103.2096 28.52531 1.071815 0
103.2096 28.52531 1.221815 0
103.3096 28.47531 1.071815 0
103.3096 28.52531 1.071815 0
103.1596 28.57531 1.171815 0
103.3596 28.52531 1.071815 0
103.3596 28.52531 1.121815 0
103.4096 28.47531 1.071815 0
103.4096 28.47531 1.121815 0
103.4096 28.52531 1.071815 0
103.4596 28.47531 1.071815 0
103.4596 28.52531 1.071815 0
103.5096 28.47531 1.071815 0
103.5096 28.52531 1.071815 0
103.4596 28.52531 1.221815 0
103.2096 28.52531 1.321815 0
103.2096 28.42531 1.621815 0
103.1596 28.47531 1.521815 0
103.1596 28.52531 1.521815 0
103.2096 28.52531 1.521815 0
103.1596 28.52531 1.571815 0
103.2096 28.52531 1.571815 0
103.2096 28.52531 1.621815 0
103.3096 28.47531 1.521815 0
103.3096 28.52531 1.521815 0
103.2596 28.52531 1.571815 0
103.3096 28.47531 1.571815 0
103.5096 28.52531 1.271815 0
103.3596 28.52531 1.521815 0
103.3596 28.47531 1.621815 0
103.3596 28.52531 1.571815 0
103.3596 28.52531 1.621815 0
103.4096 28.47531 1.621815 0
103.4096 28.52531 1.571815 0
103.4596 28.52531 1.521815 0
103.5096 28.47531 1.521815 0
103.5096 28.52531 1.521815 0
103.4596 28.47531 1.571815 0
103.5096 28.52531 1.571815 0
102.3596 27.22531 2.371815 0
102.4096 27.27531 2.471815 0
102.4596 27.17531 2.621815 0
102.4596 27.47531 2.571815 0
102.3596 27.22531 2.971815 0
102.4096 27.32531 3.071815 0
102.4596 28.52531 2.021815 0
102.5096 28.62531 1.871815 0
102.5096 28.72531 1.971815 0
102.5096 28.72531 2.021815 0
102.6096 28.72531 1.721815 0
102.7096 28.67531 1.671815 0
102.5096 28.67531 2.071815 0
102.6096 28.67531 2.071815 0
102.7096 28.67531 2.171815 0
102.6096 28.72531 2.321815 0
102.4596 28.52531 2.521815 0
102.5096 28.62531 2.471815 0
102.5096 28.67531 2.521815 0
102.4596 28.72531 2.671815 0
102.6096 28.67531 2.571815 0
102.7096 28.67531 2.721815 0
102.4596 28.52531 3.021815 0
102.5096 28.67531 2.971815 0
102.5096 28.67531 3.021815 0
102.5096 28.62531 3.121815 0
102.6096 28.72531 2.871815 0
102.6096 28.67531 3.121815 0
102.9596 28.32531 1.971815 0
102.9096 28.47531 1.821815 0
102.8096 28.67531 1.821815 0
102.8596 28.67531 1.721815 0
102.7596 28.72531 1.971815 0
102.8096 28.72531 1.971815 0
102.8096 28.72531 2.021815 0
102.9096 28.72531 1.971815 0
102.9096 28.72531 2.021815 0
102.9596 28.52531 1.721815 0
102.9596 28.57531 1.971815 0
102.9596 28.72531 2.021815 0
102.8596 28.47531 2.321815 0
102.8596 28.62531 2.171815 0
102.8096 28.67531 2.271815 0
102.9596 28.67531 2.071815 0
103.2096 28.52531 1.821815 0
103.1596 28.57531 1.721815 0
103.3596 28.52531 1.721815 0
103.4596 28.52531 1.821815 0
102.8596 28.37531 2.521815 0
102.9096 28.52531 2.471815 0
102.8596 28.47531 2.621815 0
102.9096 28.47531 2.571815 0
102.9096 28.52531 2.671815 0
102.7596 28.67531 2.471815 0
102.7596 28.67531 2.521815 0
102.8096 28.67531 2.471815 0
102.8096 28.67531 2.521815 0
102.8096 28.67531 2.571815 0
102.8596 28.57531 2.521815 0
102.7596 28.67531 2.671815 0
102.8596 28.62531 2.721815 0
102.8596 28.37531 2.971815 0
102.9096 28.42531 3.021815 0
102.8596 28.47531 2.871815 0
102.8596 28.47531 3.121815 0
102.9096 28.52531 3.071815 0
102.7596 28.67531 2.921815 0
102.8096 28.67531 2.871815 0
102.7596 28.67531 2.971815 0
102.7596 28.67531 3.021815 0
102.8096 28.67531 3.021815 0
102.8596 28.57531 3.021815 0
102.8096 28.67531 3.071815 0
102.6096 28.77531 0.1218147 0
102.6596 28.77531 0.07181472 0
102.6596 28.77531 0.1218147 0
102.6096 29.02531 0.07181472 0
102.6096 29.07531 0.07181472 0
102.6096 28.82531 0.6218147 0
102.6596 28.77531 0.5718147 0
102.6596 28.77531 0.6218147 0
102.6096 29.07531 0.6218147 0
102.6096 29.12531 0.5718147 0
102.7096 28.97531 0.5718147 0
102.6596 29.07531 0.5718147 0
102.6596 29.12531 0.5718147 0
102.7096 29.12531 0.5718147 0
102.6096 29.27531 0.1218147 0
102.6596 29.22531 0.1718147 0
102.6096 29.37531 0.07181472 0
102.6596 29.37531 0.07181472 0
102.6596 29.17531 0.6218147 0
102.6596 29.27531 0.5718147 0
102.6096 29.37531 0.5718147 0
102.6596 29.37531 0.5718147 0
102.6596 29.37531 0.6218147 0
102.6596 29.52531 0.5718147 0
102.5096 28.77531 1.071815 0
102.4596 28.87531 1.071815 0
102.5096 29.12531 1.071815 0
102.5096 29.12531 1.171815 0
102.6596 29.07531 1.021815 0
102.6596 29.12531 1.021815 0
102.7096 29.12531 1.021815 0
102.6096 29.12531 1.121815 0
102.7096 28.97531 1.121815 0
102.6596 29.12531 1.071815 0
102.4596 28.82531 1.521815 0
102.5096 28.82531 1.521815 0
102.5096 28.97531 1.321815 0
102.5096 29.12531 1.571815 0
102.6096 29.12531 1.621815 0
102.7096 28.97531 1.621815 0
102.6596 29.12531 1.471815 0
102.6596 29.12531 1.521815 0
102.7096 29.12531 1.471815 0
102.7096 29.12531 1.521815 0
102.4596 29.17531 1.121815 0
102.5096 29.27531 1.071815 0
102.5096 29.37531 1.021815 0
102.5096 29.47531 1.021815 0
102.5096 29.37531 1.121815 0
102.4596 29.47531 1.071815 0
102.5596 29.17531 1.221815 0
102.5596 29.42531 1.171815 0
102.5096 29.27531 1.321815 0
102.4596 29.17531 1.621815 0
102.5096 29.52531 1.271815 0
102.5096 29.37531 1.471815 0
102.5096 29.47531 1.521815 0
102.4596 29.47531 1.621815 0
102.5596 29.27531 1.521815 0
102.6096 29.67531 0.07181472 0
102.6596 29.72531 0.1218147 0
102.6596 29.82531 0.1218147 0
102.6096 29.67531 0.5718147 0
102.6596 29.62531 0.6218147 0
102.6596 29.72531 0.5718147 0
102.6596 29.77531 0.5718147 0
102.6596 29.82531 0.5718147 0
102.6596 29.87531 0.6218147 0
102.6096 29.97531 0.07181472 0
102.6596 30.07531 0.1218147 0
102.6596 30.22531 0.07181472 0
102.6596 30.27531 0.1218147 0
102.6096 29.97531 0.5718147 0
102.6596 30.02531 0.5718147 0
102.6596 30.07531 0.5718147 0
102.6596 30.12531 0.6218147 0
102.7096 30.07531 0.5718147 0
102.6596 30.22531 0.5718147 0
102.6596 30.32531 0.5718147 0
102.7096 30.27531 0.5718147 0
102.0096 30.32531 1.121815 0
101.9596 30.27531 1.221815 0
102.0596 30.32531 1.171815 0
102.3096 30.32531 1.021815 0
102.2096 30.32531 1.121815 0
102.0096 30.32531 1.621815 0
102.1596 30.32531 1.471815 0
102.2096 30.27531 1.621815 0
102.5096 29.82531 1.021815 0
102.5096 29.87531 0.9718148 0
102.5096 29.87531 1.021815 0
102.5096 29.77531 1.071815 0
102.5096 29.87531 1.121815 0
102.5596 29.67531 1.121815 0
102.5596 29.67531 1.171815 0
102.5596 29.87531 1.021815 0
102.5596 29.92531 1.171815 0
102.5096 29.77531 1.271815 0
102.5096 29.87531 1.421815 0
102.5096 29.82531 1.471815 0
102.5096 29.77531 1.571815 0
102.5596 29.87531 1.471815 0
102.5096 30.02531 1.071815 0
102.4096 30.32531 1.121815 0
102.5096 30.32531 1.071815 0
102.5596 30.12531 1.121815 0
102.5596 30.17531 1.021815 0
102.5596 30.17531 1.171815 0
102.5096 30.02531 1.571815 0
102.4096 30.32531 1.621815 0
102.5096 30.32531 1.521815 0
102.5596 30.02531 1.271815 0
102.5596 30.27531 1.271815 0
102.5596 30.17531 1.471815 0
102.5596 30.17531 1.621815 0
102.7596 28.77531 0.1218147 0
102.8096 28.77531 0.1218147 0
102.8096 29.07531 0.1218147 0
102.8596 29.12531 0.1218147 0
102.9096 29.07531 0.07181472 0
102.9096 29.12531 0.1218147 0
102.9596 29.07531 0.1218147 0
102.9596 29.12531 0.1218147 0
103.0096 29.07531 0.07181472 0
103.0096 29.07531 0.1218147 0
103.0096 29.12531 0.07181472 0
103.0096 29.12531 0.1218147 0
103.0596 29.12531 0.1218147 0
103.1096 29.07531 0.1218147 0
103.0596 29.12531 0.1718147 0
102.7596 28.77531 0.5718147 0
102.8096 28.77531 0.5718147 0
102.9096 28.77531 0.5718147 0
102.7596 29.07531 0.6218147 0
102.7596 29.12531 0.5718147 0
102.7596 29.12531 0.6218147 0
102.9596 28.77531 0.6218147 0
103.1596 29.07531 0.07181472 0
103.1596 29.07531 0.1218147 0
103.1596 29.12531 0.07181472 0
103.2096 29.07531 0.1218147 0
103.2096 29.07531 0.1718147 0
103.2596 29.07531 0.1218147 0
103.3096 29.07531 0.07181472 0
103.3096 29.07531 0.1218147 0
103.3096 29.12531 0.07181472 0
103.3596 29.12531 0.07181472 0
103.4096 29.07531 0.1218147 0
103.3596 29.07531 0.1718147 0
103.4596 29.02531 0.1218147 0
103.4596 29.07531 0.07181472 0
103.4596 29.07531 0.1218147 0
102.7596 29.07531 1.071815 0
102.7596 29.12531 1.121815 0
102.7596 29.12531 1.221815 0
102.7596 29.07531 1.521815 0
102.4596 28.82531 1.971815 0
102.4596 28.82531 2.021815 0
102.5096 29.12531 1.721815 0
102.5096 28.97531 1.971815 0
102.5096 29.12531 2.021815 0
102.6596 29.12531 1.921815 0
102.6596 29.12531 1.971815 0
102.6596 29.12531 2.021815 0
102.7096 29.12531 1.971815 0
102.5096 28.82531 2.421815 0
102.5096 29.12531 2.271815 0
102.6096 29.12531 2.121815 0
102.7096 28.97531 2.171815 0
102.6596 29.12531 2.371815 0
102.6596 29.12531 2.421815 0
102.7096 29.12531 2.421815 0
102.5096 29.17531 1.821815 0
102.5096 29.27531 1.971815 0
102.5096 29.37531 1.671815 0
102.5096 29.37531 1.921815 0
102.5096 29.47531 2.021815 0
102.5096 29.52531 1.971815 0
102.5596 29.27531 1.971815 0
102.5596 29.42531 1.821815 0
102.4596 29.17531 2.121815 0
102.5096 29.17531 2.421815 0
102.4596 29.47531 2.121815 0
102.5096 29.37531 2.271815 0
102.5096 29.37531 2.421815 0
102.5596 29.27531 2.421815 0
102.5596 29.42531 2.421815 0
102.4596 28.77531 2.521815 0
102.5096 29.12531 2.521815 0
102.5096 28.97531 2.671815 0
102.6596 29.12531 2.521815 0
102.6096 29.12531 2.671815 0
102.7096 28.97531 2.671815 0
102.5096 28.82531 2.921815 0
102.4596 28.77531 2.971815 0
102.5096 29.07531 2.871815 0
102.5096 29.12531 3.021815 0
102.6596 29.12531 2.871815 0
102.6596 29.12531 2.921815 0
102.7096 29.12531 2.871815 0
102.7096 29.12531 2.921815 0
102.6596 29.12531 3.021815 0
102.7096 29.12531 3.021815 0
102.5096 29.27531 2.621815 0
102.4596 29.22531 2.671815 0
102.5096 29.47531 2.471815 0
102.4596 29.47531 2.621815 0
102.5096 29.52531 2.621815 0
102.5096 29.37531 2.821815 0
102.5096 29.17531 3.071815 0
102.4596 29.17531 3.221815 0
102.5096 29.37531 2.871815 0
102.5096 29.42531 3.021815 0
102.5096 29.47531 2.971815 0
102.4596 29.47531 3.171815 0
102.5596 29.27531 2.921815 0
102.1096 30.32531 1.721815 0
102.3096 30.32531 1.971815 0
102.0096 30.32531 2.121815 0
102.0596 30.32531 2.321815 0
102.2096 30.32531 2.121815 0
102.3096 30.32531 2.421815 0
102.5096 29.62531 1.671815 0
102.5096 29.82531 1.971815 0
102.5096 29.87531 1.871815 0
102.5596 29.67531 1.771815 0
102.5596 29.92531 1.671815 0
102.5596 29.92531 1.771815 0
102.5596 29.77531 1.921815 0
102.5596 29.87531 1.921815 0
102.5096 29.62531 2.221815 0
102.5096 29.77531 2.071815 0
102.5096 29.87531 2.221815 0
102.5096 29.82531 2.421815 0
102.5096 29.87531 2.321815 0
102.5596 29.67531 2.371815 0
102.5596 29.82531 2.371815 0
102.5096 30.32531 2.021815 0
102.5596 30.02531 1.921815 0
102.5596 30.12531 1.921815 0
102.5596 30.17531 1.771815 0
102.5596 30.32531 1.821815 0
102.5596 30.27531 1.921815 0
102.5096 30.07531 2.071815 0
102.5596 29.97531 2.371815 0
102.5596 30.17531 2.171815 0
102.5596 30.17531 2.321815 0
102.5596 30.17531 2.371815 0
101.9596 30.27531 2.521815 0
102.0096 30.32531 2.621815 0
102.2096 30.32531 2.621815 0
102.1096 30.32531 2.921815 0
102.0096 30.32531 3.121815 0
101.9596 30.32531 3.171815 0
102.1596 30.32531 2.871815 0
102.3096 30.32531 2.871815 0
102.2096 30.32531 3.171815 0
102.5096 29.62531 2.771815 0
102.5096 29.77531 2.571815 0
102.5096 29.77531 2.621815 0
102.5096 29.87531 2.721815 0
102.5096 29.87531 2.771815 0
102.5096 29.92531 2.771815 0
102.5596 29.87531 2.771815 0
102.5096 29.82531 2.921815 0
102.5096 29.77531 3.121815 0
102.5596 29.67531 2.971815 0
102.5596 29.92531 2.971815 0
102.5096 30.02531 2.571815 0
102.5096 30.32531 2.521815 0
102.4096 30.32531 2.721815 0
102.5596 30.02531 2.571815 0
102.5596 30.27531 2.571815 0
102.5596 30.17531 2.721815 0
102.5596 30.32531 2.721815 0
102.5096 30.02531 3.221815 0
102.5096 30.07531 3.071815 0
102.5096 30.32531 3.021815 0
102.5596 30.17531 2.871815 0
102.5596 30.17531 2.921815 0
102.5596 30.27531 3.221815 0
102.7596 28.77531 2.021815 0
102.8096 28.77531 2.021815 0
102.7596 29.12531 1.721815 0
102.7596 29.12531 1.821815 0
102.7596 29.07531 1.971815 0
102.8096 28.77531 2.071815 0
102.7596 29.12531 2.271815 0
102.7596 29.12531 2.421815 0
102.7596 29.07531 2.471815 0
102.7596 29.12531 2.821815 0
102.7596 29.12531 2.921815 0
102.8096 29.12531 3.171815 0
102.9596 29.07531 3.171815 0
101.7596 27.62531 4.671815 0
101.8596 27.97531 4.621815 0
101.9096 28.37531 4.521815 0
101.1096 28.72531 5.321815 0
101.5596 28.62531 4.871815 0
100.4596 30.32531 3.871815 0
100.7596 30.27531 3.271815 0
101.1096 30.27531 3.271815 0
100.7596 30.32531 3.921815 0
101.0596 30.32531 3.671815 0
101.1096 30.27531 3.971815 0
100.4596 30.32531 4.571815 0
101.0596 30.32531 4.321815 0
100.7596 30.27531 4.621815 0
101.1096 30.27531 4.671815 0
101.7096 29.02531 4.771815 0
101.8096 29.42531 4.671815 0
101.2596 30.32531 3.521815 0
101.4596 30.27531 3.321815 0
101.4596 30.32531 3.571815 0
101.3596 30.32531 3.721815 0
101.4596 30.27531 4.021815 0
101.6096 30.32531 3.571815 0
101.8096 30.32531 3.621815 0
101.6596 30.32531 3.771815 0
101.4596 30.32531 4.071815 0
101.3596 30.32531 4.371815 0
101.4096 30.27531 4.721815 0
101.8096 29.72531 4.721815 0
101.6096 30.32531 4.121815 0
101.6596 30.32531 4.421815 0
101.8096 30.32531 4.121815 0
101.8596 30.32531 4.071815 0
101.8596 30.02531 4.671815 0
101.9096 30.32531 4.621815 0
100.4596 30.32531 5.221815 0
101.0596 30.32531 4.971815 0
100.7596 30.32531 5.321815 0
101.2096 29.07531 5.221815 0
101.3096 29.42531 5.121815 0
101.4596 29.72531 5.071815 0
101.5096 30.07531 4.971815 0
102.4596 27.17531 3.271815 0
102.4596 27.47531 3.271815 0
102.5096 27.42531 3.521815 0
102.6596 27.32531 3.471815 0
102.4096 27.57531 3.471815 0
102.1596 27.87531 4.271815 0
102.4596 28.52531 3.521815 0
102.5096 28.67531 3.471815 0
102.5096 28.67531 3.521815 0
102.6096 28.67531 3.421815 0
102.6096 28.67531 3.471815 0
102.6096 28.72531 3.471815 0
102.6596 28.67531 3.471815 0
102.6596 28.67531 3.521815 0
102.3096 28.32531 4.171815 0
102.0096 28.72531 4.471815 0
102.4096 28.72531 4.121815 0
102.4596 28.72531 4.071815 0
102.8096 27.27531 3.471815 0
102.9596 27.17531 3.471815 0
102.9596 28.32531 3.521815 0
102.9096 28.47531 3.471815 0
102.7596 28.67531 3.321815 0
102.7596 28.67531 3.421815 0
102.8596 28.62531 3.271815 0
102.8096 28.57531 3.521815 0
102.7596 28.67531 3.471815 0
102.8096 28.67531 3.521815 0
103.0096 28.37531 3.471815 0
103.0596 28.42531 3.521815 0
103.0596 28.62531 3.471815 0
103.1096 28.62531 3.521815 0
103.1096 28.72531 3.571815 0
103.1596 28.17531 3.521815 0
103.1596 28.27531 3.471815 0
103.3096 28.17531 3.471815 0
103.3096 28.17531 3.521815 0
103.2596 28.32531 3.521815 0
103.4596 28.07531 3.471815 0
103.4096 28.32531 3.521815 0
103.4596 28.17531 3.521815 0
103.5096 28.32531 3.521815 0
103.2096 28.42531 3.521815 0
103.3096 28.52531 3.521815 0
103.1596 28.57531 3.471815 0
103.2596 28.62531 3.521815 0
103.2596 28.72531 3.621815 0
103.3596 28.37531 3.521815 0
103.3596 28.42531 3.521815 0
103.4596 28.37531 3.521815 0
103.4596 28.47531 3.521815 0
103.4096 28.62531 3.521815 0
103.4096 28.67531 3.521815 0
103.4096 28.72531 3.521815 0
103.4596 28.67531 3.621815 0
102.4596 28.92531 3.271815 0
102.5096 28.87531 3.371815 0
102.4596 28.77531 3.471815 0
102.5096 28.97531 3.321815 0
102.5096 29.12531 3.421815 0
102.5096 29.12531 4.021815 0
102.5596 29.02531 4.021815 0
102.5096 29.27531 3.321815 0
102.5096 29.37531 3.371815 0
102.5096 29.52531 3.271815 0
102.5096 29.47531 3.471815 0
102.5596 29.27531 3.521815 0
102.7096 29.22531 3.521815 0
102.6096 29.32531 3.971815 0
102.6096 29.52531 3.921815 0
102.1096 29.07531 4.371815 0
102.2096 29.37531 4.321815 0
102.1096 30.32531 3.521815 0
102.1596 30.32531 3.321815 0
102.3096 30.32531 3.371815 0
102.0096 30.32531 3.671815 0
101.9596 30.27531 3.821815 0
102.2096 30.32531 3.671815 0
102.1596 30.32531 3.821815 0
102.3096 30.32531 3.821815 0
102.2596 30.27531 3.871815 0
102.5096 29.62531 3.371815 0
102.5096 29.77531 3.271815 0
102.5096 29.82531 3.421815 0
102.5096 29.92531 3.321815 0
102.6596 29.62531 3.921815 0
102.7096 29.92531 3.871815 0
102.3596 30.32531 3.571815 0
102.6096 30.12531 3.521815 0
102.5596 30.17531 3.271815 0
102.5596 30.17531 3.321815 0
102.6596 30.17531 3.521815 0
102.4096 30.27531 3.721815 0
102.3096 29.72531 4.271815 0
101.9596 29.77531 4.571815 0
102.0096 30.32531 4.171815 0
102.1096 30.32531 4.121815 0
102.0596 30.12531 4.521815 0
102.3596 30.02531 4.221815 0
102.4096 30.32531 4.171815 0
102.5096 30.27531 4.071815 0
102.9096 29.12531 3.321815 0
103.0096 28.82531 3.571815 0
102.9596 29.12531 3.271815 0
102.9596 29.12531 3.371815 0
103.0596 28.97531 3.371815 0
103.0096 29.12531 3.521815 0
103.1096 28.97531 3.621815 0
102.8596 29.17531 3.521815 0
102.8596 29.52531 3.571815 0
103.1096 29.22531 3.571815 0
103.0596 29.42531 3.571815 0
103.0596 29.52531 3.621815 0
103.0596 29.27531 3.671815 0
103.1596 28.82531 3.571815 0
103.2596 28.77531 3.521815 0
103.3096 28.77531 3.521815 0
103.3596 28.92531 3.571815 0
103.5096 28.77531 3.521815 0
103.3096 29.02531 3.671815 0
103.4596 29.02531 3.671815 0
102.8596 29.72531 3.621815 0
102.9096 29.77531 3.521815 0
103.0096 29.67531 3.571815 0
102.9596 29.62531 3.671815 0
103.0096 29.92531 3.671815 0
103.1096 29.87531 3.671815 0
102.7596 30.12531 3.521815 0
102.8596 30.02531 3.521815 0
102.9096 30.02531 3.521815 0
102.8596 30.07531 3.521815 0
102.9096 30.07531 3.621815 0
102.7596 30.17531 3.521815 0
102.9096 30.17531 3.621815 0
102.8596 30.27531 3.471815 0
102.9096 30.27531 3.471815 0
103.1096 29.97531 3.621815 0
102.9596 30.22531 3.571815 0
103.0596 30.17531 3.571815 0
102.7596 30.17531 3.821815 0
101.4596 30.37531 0.1218147 0
101.4596 30.47531 0.1218147 0
101.5096 30.52531 0.07181472 0
101.5096 30.47531 0.1718147 0
101.4596 30.37531 0.6218147 0
101.5096 30.42531 0.5718147 0
101.5096 30.42531 0.6218147 0
101.5096 30.52531 0.5218147 0
101.4596 30.47531 0.5718147 0
101.5096 30.47531 0.5718147 0
101.5596 30.42531 0.1218147 0
101.6096 30.47531 0.1218147 0
101.6096 30.52531 0.07181472 0
101.6096 30.52531 0.1718147 0
101.6596 30.52531 0.1218147 0
101.7096 30.52531 0.07181472 0
101.7096 30.52531 0.1218147 0
101.6096 30.57531 0.1218147 0
101.6096 30.57531 0.1718147 0
101.6596 30.57531 0.1218147 0
101.6596 30.57531 0.1718147 0
101.7596 30.42531 0.1218147 0
101.7596 30.52531 0.07181472 0
101.7596 30.52531 0.1218147 0
101.8096 30.47531 0.1218147 0
101.8096 30.52531 0.1218147 0
101.7596 30.52531 0.1718147 0
101.8096 30.52531 0.1718147 0
101.8596 30.52531 0.07181472 0
101.8596 30.52531 0.1218147 0
101.9096 30.52531 0.07181472 0
101.8596 30.52531 0.1718147 0
101.7596 30.57531 0.07181472 0
101.7596 30.57531 0.1218147 0
101.8096 30.57531 0.1218147 0
101.7596 30.57531 0.1718147 0
101.9096 30.57531 0.1718147 0
101.5596 30.42531 0.6218147 0
101.6096 30.52531 0.5218147 0
101.6096 30.47531 0.5718147 0
101.6096 30.52531 0.5718147 0
101.6596 30.37531 0.6218147 0
101.6596 30.52531 0.5218147 0
101.7096 30.52531 0.5218147 0
101.7096 30.47531 0.5718147 0
101.6096 30.57531 0.5218147 0
101.6096 30.57531 0.5718147 0
101.6596 30.57531 0.5218147 0
101.6596 30.57531 0.5718147 0
101.7596 30.42531 0.6218147 0
101.8096 30.37531 0.6218147 0
101.7596 30.52531 0.5218147 0
101.8096 30.52531 0.5218147 0
101.7596 30.47531 0.5718147 0
101.7596 30.52531 0.5718147 0
101.8096 30.47531 0.5718147 0
101.8596 30.47531 0.5218147 0
101.8596 30.52531 0.5218147 0
101.9096 30.52531 0.5218147 0
101.8596 30.52531 0.5718147 0
101.9096 30.47531 0.5718147 0
101.7596 30.57531 0.5218147 0
101.8096 30.57531 0.5218147 0
101.7596 30.57531 0.5718147 0
101.8096 30.57531 0.5718147 0
101.8596 30.57531 0.5218147 0
101.9096 30.57531 0.5718147 0
101.5096 30.37531 1.021815 0
101.5096 30.42531 0.9718148 0
101.5096 30.37531 1.371815 0
101.5096 30.37531 1.471815 0
101.5596 30.42531 1.021815 0
101.6096 30.42531 0.9718148 0
101.6096 30.47531 0.9218147 0
101.6096 30.47531 0.9718148 0
101.7096 30.42531 0.9218147 0
101.6596 30.37531 1.021815 0
101.6596 30.42531 0.9718148 0
101.7096 30.42531 0.9718148 0
101.6596 30.47531 0.9718148 0
101.5596 30.37531 1.071815 0
101.5596 30.37531 1.121815 0
101.6596 30.47531 1.071815 0
101.7096 30.47531 1.121815 0
101.7596 30.42531 0.9718148 0
101.7596 30.42531 1.021815 0
101.7596 30.47531 0.9718148 0
101.7596 30.47531 1.021815 0
101.8596 30.42531 0.9218147 0
101.8596 30.37531 1.021815 0
101.8596 30.42531 0.9718148 0
101.9096 30.37531 0.9718148 0
101.9096 30.37531 1.021815 0
101.9096 30.42531 0.9718148 0
101.8596 30.47531 0.9718148 0
101.9096 30.47531 0.9718148 0
101.9096 30.47531 1.021815 0
101.7596 30.37531 1.071815 0
101.8096 30.37531 1.121815 0
101.8596 30.47531 1.071815 0
101.9096 30.47531 1.121815 0
101.6096 30.42531 1.321815 0
101.6096 30.42531 1.371815 0
101.6096 30.47531 1.371815 0
101.6596 30.42531 1.421815 0
101.7096 30.42531 1.371815 0
101.6596 30.47531 1.371815 0
101.7096 30.47531 1.371815 0
101.5596 30.42531 1.471815 0
101.5596 30.37531 1.571815 0
101.6596 30.37531 1.471815 0
101.7096 30.47531 1.571815 0
101.7596 30.42531 1.371815 0
101.7596 30.42531 1.421815 0
101.8096 30.42531 1.421815 0
101.7596 30.47531 1.371815 0
101.7596 30.47531 1.421815 0
101.8596 30.42531 1.371815 0
101.9096 30.37531 1.421815 0
101.9096 30.42531 1.421815 0
101.8596 30.47531 1.371815 0
101.9096 30.47531 1.371815 0
101.9096 30.47531 1.421815 0
101.7596 30.42531 1.521815 0
101.7596 30.37531 1.621815 0
101.7596 30.47531 1.471815 0
101.8596 30.37531 1.471815 0
101.9096 30.37531 1.521815 0
101.9096 30.47531 1.471815 0
101.8596 30.47531 1.571815 0
100.4096 30.42531 2.721815 0
100.3596 30.47531 2.671815 0
100.3596 30.52531 2.721815 0
100.4096 30.52531 2.821815 0
100.5096 30.37531 2.721815 0
100.4596 30.52531 2.721815 0
100.5096 30.47531 2.671815 0
100.5096 30.52531 2.721815 0
100.4596 30.47531 2.821815 0
100.6096 30.42531 2.721815 0
100.5596 30.52531 2.821815 0
100.6096 30.47531 2.821815 0
100.6596 30.42531 2.771815 0
100.6596 30.47531 2.671815 0
100.6596 30.52531 2.671815 0
100.6596 30.52531 2.721815 0
100.7096 30.52531 2.821815 0
100.4096 30.37531 2.921815 0
100.4096 30.42531 3.021815 0
100.4096 30.52531 3.021815 0
100.5096 30.37531 2.971815 0
100.4596 30.52531 2.921815 0
100.4596 30.47531 2.971815 0
100.4596 30.47531 3.021815 0
100.5096 30.52531 3.021815 0
100.3596 30.47531 3.121815 0
100.3596 30.52531 3.171815 0
100.4596 30.42531 3.121815 0
100.4596 30.52531 3.071815 0
100.5096 30.47531 3.121815 0
100.5096 30.52531 3.121815 0
100.5096 30.52531 3.171815 0
100.5596 30.37531 2.971815 0
100.5596 30.47531 3.021815 0
100.5596 30.52531 2.971815 0
100.5596 30.52531 3.021815 0
100.7096 30.37531 2.971815 0
100.7096 30.52531 2.871815 0
100.6596 30.52531 3.021815 0
100.7096 30.47531 2.971815 0
100.7096 30.47531 3.021815 0
100.6096 30.42531 3.071815 0
100.6096 30.42531 3.171815 0
100.6096 30.52531 3.071815 0
100.5596 30.52531 3.171815 0
100.6596 30.47531 3.121815 0
100.6596 30.52531 3.121815 0
100.7096 30.52531 3.071815 0
100.6596 30.52531 3.221815 0
100.7596 30.42531 2.721815 0
100.7596 30.52531 2.671815 0
100.8096 30.47531 2.671815 0
100.9096 30.42531 2.721815 0
100.8596 30.37531 2.771815 0
100.8596 30.47531 2.671815 0
100.9096 30.47531 2.671815 0
100.8596 30.52531 2.771815 0
100.9596 30.37531 2.671815 0
101.0096 30.47531 2.671815 0
101.0096 30.47531 2.771815 0
101.0596 30.42531 2.671815 0
101.0596 30.42531 2.771815 0
101.1096 30.37531 2.821815 0
101.0596 30.47531 2.721815 0
100.7596 30.42531 2.871815 0
100.7596 30.37531 3.021815 0
100.7596 30.47531 3.021815 0
100.7596 30.52531 2.971815 0
100.8096 30.47531 3.021815 0
100.9096 30.42531 2.871815 0
100.9096 30.37531 2.971815 0
100.9096 30.52531 2.971815 0
100.9096 30.52531 3.021815 0
100.8096 30.42531 3.071815 0
100.7596 30.42531 3.171815 0
100.7596 30.52531 3.071815 0
100.8096 30.47531 3.121815 0
100.8096 30.52531 3.121815 0
100.9096 30.42531 3.171815 0
100.8596 30.47531 3.071815 0
100.8596 30.47531 3.121815 0
100.9096 30.47531 3.071815 0
100.9096 30.47531 3.121815 0
100.9096 30.52531 3.121815 0
100.8596 30.52531 3.221815 0
100.9596 30.52531 2.871815 0
100.9596 30.47531 3.021815 0
101.0096 30.47531 3.021815 0
101.1096 30.42531 2.871815 0
101.1096 30.37531 3.021815 0
101.1096 30.52531 2.921815 0
101.0596 30.47531 3.021815 0
100.9596 30.42531 3.071815 0
100.9596 30.42531 3.121815 0
100.9596 30.52531 3.071815 0
101.0096 30.47531 3.071815 0
101.0096 30.47531 3.221815 0
101.1096 30.42531 3.071815 0
101.0596 30.42531 3.221815 0
101.0596 30.47531 3.121815 0
101.1096 30.47531 3.071815 0
101.0596 30.47531 3.171815 0
101.0596 30.52531 3.171815 0
101.5096 30.42531 1.821815 0
101.5096 30.37531 1.921815 0
101.5096 30.37531 2.221815 0
101.5096 30.37531 2.321815 0
101.6096 30.37531 1.721815 0
101.6096 30.42531 1.771815 0
101.6096 30.42531 1.821815 0
101.6096 30.47531 1.771815 0
101.7096 30.42531 1.771815 0
101.7096 30.47531 1.671815 0
101.6596 30.47531 1.771815 0
101.7096 30.47531 1.821815 0
101.6096 30.42531 1.971815 0
101.6596 30.37531 1.921815 0
101.6596 30.42531 1.871815 0
101.8096 30.37531 1.721815 0
101.7596 30.42531 1.771815 0
101.7596 30.42531 1.821815 0
101.7596 30.47531 1.771815 0
101.7596 30.47531 1.821815 0
101.8596 30.42531 1.771815 0
101.9096 30.42531 1.821815 0
101.9096 30.47531 1.671815 0
101.8596 30.47531 1.821815 0
101.9096 30.47531 1.771815 0
101.9096 30.47531 1.821815 0
101.7596 30.42531 1.871815 0
101.8096 30.37531 1.921815 0
101.7596 30.42531 1.971815 0
101.7596 30.47531 1.921815 0
101.9096 30.42531 1.971815 0
101.9096 30.47531 1.921815 0
101.5596 30.37531 2.121815 0
101.6096 30.42531 2.171815 0
101.6096 30.42531 2.221815 0
101.6096 30.47531 2.171815 0
101.6096 30.47531 2.221815 0
101.7096 30.42531 2.171815 0
101.7096 30.42531 2.221815 0
101.6596 30.47531 2.071815 0
101.6596 30.47531 2.221815 0
101.7096 30.47531 2.221815 0
101.6096 30.37531 2.271815 0
101.5596 30.42531 2.421815 0
101.6596 30.42531 2.271815 0
101.6596 30.37531 2.371815 0
101.8096 30.37531 2.121815 0
101.7596 30.42531 2.221815 0
101.7596 30.47531 2.171815 0
101.7596 30.47531 2.221815 0
101.8596 30.42531 2.171815 0
101.8596 30.42531 2.221815 0
101.8596 30.47531 2.071815 0
101.8596 30.47531 2.221815 0
101.9096 30.47531 2.221815 0
101.8096 30.37531 2.321815 0
101.8096 30.42531 2.321815 0
101.8096 30.37531 2.371815 0
101.7596 30.47531 2.271815 0
101.7596 30.47531 2.421815 0
101.9096 30.42531 2.271815 0
101.9096 30.47531 2.271815 0
101.9096 30.47531 2.371815 0
101.1596 30.42531 2.671815 0
101.2096 30.42531 2.771815 0
101.2096 30.47531 2.721815 0
101.1596 30.52531 2.771815 0
101.2096 30.52531 2.821815 0
101.3096 30.37531 2.671815 0
101.3096 30.42531 2.671815 0
101.3096 30.47531 2.771815 0
101.3596 30.37531 2.771815 0
101.3596 30.37531 2.821815 0
101.3596 30.47531 2.721815 0
101.5096 30.42531 2.671815 0
101.5096 30.37531 2.771815 0
101.5096 30.47531 2.721815 0
101.4596 30.47531 2.771815 0
101.4596 30.52531 2.821815 0
101.1596 30.47531 3.021815 0
101.2096 30.47531 3.021815 0
101.2596 30.42531 2.921815 0
101.2596 30.37531 3.021815 0
101.2596 30.52531 2.921815 0
101.2596 30.47531 3.021815 0
101.3096 30.47531 3.021815 0
101.1596 30.42531 3.121815 0
101.2096 30.42531 3.221815 0
101.1596 30.47531 3.071815 0
101.1596 30.47531 3.121815 0
101.2096 30.47531 3.071815 0
101.1596 30.47531 3.221815 0
101.2096 30.47531 3.171815 0
101.2596 30.47531 3.071815 0
101.3096 30.47531 3.121815 0
101.2596 30.52531 3.171815 0
101.3096 30.47531 3.221815 0
101.4096 30.42531 2.921815 0
101.4096 30.47531 2.921815 0
101.3596 30.47531 3.021815 0
101.4596 30.47531 3.021815 0
101.5096 30.47531 3.021815 0
101.3596 30.37531 3.121815 0
101.3596 30.42531 3.071815 0
101.3596 30.37531 3.221815 0
101.3596 30.42531 3.171815 0
101.3596 30.47531 3.071815 0
101.4096 30.47531 3.071815 0
101.4596 30.37531 3.071815 0
101.4596 30.42531 3.071815 0
101.5096 30.42531 3.071815 0
101.5096 30.42531 3.171815 0
101.4596 30.47531 3.071815 0
101.4596 30.47531 3.121815 0
