# .PCD v0.7 - Point Cloud Data file format
VERSION 0.7
FIELDS x y z intensity
SIZE 4 4 4 4
TYPE F F F F
COUNT 1 1 1 1
WIDTH 1525
HEIGHT 1
VIEWPOINT 0 0 0 1 0 0 0
POINTS 1525
DATA ascii
-21.24039 -6.024689 0.7718147 0
-21.09039 -6.024689 0.6718147 0
-21.09039 -6.024689 0.7218148 0
-21.09039 -5.974689 0.6718147 0
-21.14039 -6.024689 0.7718147 0
-21.09039 -6.024689 0.7718147 0
-21.09039 -6.024689 0.8218147 0
-21.04039 -6.024689 0.5218147 0
-20.99039 -6.024689 0.4718147 0
-20.99039 -6.024689 0.5218147 0
-21.04039 -6.024689 0.5718147 0
-21.04039 -6.024689 0.6218147 0
-20.99039 -6.024689 0.5718147 0
-20.94039 -6.024689 0.4718147 0
-20.94039 -6.024689 0.5218147 0
-20.89039 -6.024689 0.4718147 0
-20.89039 -6.024689 0.5718147 0
-21.04039 -6.024689 0.6718147 0
-20.99039 -6.024689 0.6718147 0
-21.04039 -6.024689 0.7718147 0
-20.94039 -6.024689 0.7218148 0
-20.89039 -6.024689 0.6718147 0
-20.89039 -6.024689 0.7218148 0
-20.94039 -6.024689 0.7718147 0
-20.89039 -6.024689 0.8218147 0
-20.79039 -6.074688 0.1718147 0
-20.64039 -6.074688 0.2218147 0
-20.49039 -6.074688 0.1718147 0
-20.79039 -6.074688 0.4718147 0
-20.74039 -6.074688 0.4718147 0
-20.79039 -6.074688 0.7718147 0
-20.74039 -6.074688 0.7218148 0
-20.59039 -6.074688 0.5218147 0
-20.49039 -6.074688 0.4718147 0
-20.49039 -6.074688 0.5218147 0
-20.49039 -6.074688 0.5718147 0
-20.49039 -6.074688 0.6218147 0
-20.49039 -6.074688 0.7718147 0
-20.79039 -6.024689 0.2218147 0
-20.69039 -6.024689 0.1718147 0
-20.69039 -6.024689 0.2218147 0
-20.79039 -6.024689 0.2718147 0
-20.69039 -6.024689 0.2718147 0
-20.59039 -6.024689 0.2218147 0
-20.54039 -6.024689 0.2218147 0
-20.49039 -6.024689 0.1718147 0
-20.49039 -6.024689 0.2218147 0
-20.59039 -6.024689 0.2718147 0
-20.49039 -6.024689 0.2718147 0
-20.79039 -6.024689 0.4718147 0
-20.79039 -6.024689 0.5218147 0
-20.84039 -6.024689 0.5718147 0
-20.84039 -6.024689 0.6218147 0
-20.79039 -6.024689 0.5718147 0
-20.69039 -6.024689 0.4718147 0
-20.69039 -6.024689 0.5218147 0
-20.69039 -6.024689 0.5718147 0
-20.84039 -6.024689 0.6718147 0
-20.79039 -6.024689 0.6718147 0
-20.79039 -6.024689 0.7218148 0
-20.79039 -6.024689 0.7718147 0
-20.69039 -6.024689 0.6718147 0
-20.69039 -6.024689 0.7218148 0
-20.69039 -6.024689 0.7718147 0
-20.69039 -6.024689 0.8218147 0
-20.59039 -6.024689 0.4718147 0
-20.59039 -6.024689 0.5218147 0
-20.64039 -6.024689 0.5718147 0
-20.64039 -6.024689 0.6218147 0
-20.54039 -6.024689 0.4718147 0
-20.49039 -6.024689 0.4718147 0
-20.64039 -6.024689 0.6718147 0
-20.64039 -6.024689 0.7218148 0
-20.59039 -6.024689 0.6718147 0
-20.59039 -6.024689 0.7718147 0
-20.54039 -6.024689 0.7218148 0
-20.49039 -6.024689 0.6718147 0
-21.09039 -6.074688 1.121815 0
-21.09039 -6.074688 1.421815 0
-21.24039 -6.024689 0.9218147 0
-21.24039 -5.974689 0.8718147 0
-21.24039 -5.974689 0.9218147 0
-21.19039 -6.024689 0.9218147 0
-21.24039 -5.974689 1.021815 0
-21.19039 -6.024689 1.021815 0
-21.14039 -6.024689 0.8718147 0
-21.14039 -5.974689 0.8718147 0
-21.09039 -6.024689 0.9218147 0
-21.09039 -5.974689 0.8718147 0
-21.14039 -6.024689 1.021815 0
-21.24039 -6.024689 1.121815 0
-21.24039 -5.974689 1.121815 0
-21.19039 -6.024689 1.121815 0
-21.19039 -6.024689 1.171815 0
-21.09039 -6.024689 1.071815 0
-21.09039 -6.024689 1.121815 0
-21.14039 -6.024689 1.221815 0
-21.09039 -6.024689 1.171815 0
-21.04039 -6.024689 0.9218147 0
-20.99039 -6.024689 0.8718147 0
-20.99039 -6.024689 1.021815 0
-20.94039 -6.024689 0.9218147 0
-20.89039 -6.024689 0.8718147 0
-20.89039 -6.024689 0.9218147 0
-21.04039 -6.024689 1.071815 0
-21.04039 -6.024689 1.121815 0
-20.99039 -6.024689 1.121815 0
-21.04039 -6.024689 1.171815 0
-20.99039 -6.024689 1.221815 0
-20.94039 -6.024689 1.071815 0
-20.89039 -6.024689 1.121815 0
-20.94039 -6.024689 1.171815 0
-20.89039 -6.024689 1.171815 0
-21.24039 -6.024689 1.321815 0
-21.19039 -5.974689 1.321815 0
-21.24039 -5.974689 1.371815 0
-21.19039 -6.024689 1.371815 0
-21.19039 -6.024689 1.421815 0
-21.14039 -5.974689 1.321815 0
-21.09039 -6.024689 1.271815 0
-21.09039 -6.024689 1.321815 0
-21.09039 -6.024689 1.371815 0
-21.24039 -6.024689 1.571815 0
-21.24039 -5.974689 1.621815 0
-21.19039 -6.024689 1.621815 0
-21.19039 -5.974689 1.571815 0
-21.14039 -6.024689 1.521815 0
-21.09039 -6.024689 1.521815 0
-21.14039 -6.024689 1.571815 0
-21.09039 -5.974689 1.571815 0
-21.09039 -5.974689 1.621815 0
-21.04039 -6.024689 1.321815 0
-20.99039 -6.024689 1.321815 0
-20.94039 -6.024689 1.321815 0
-20.89039 -6.024689 1.321815 0
-20.94039 -6.024689 1.371815 0
-20.89039 -6.024689 1.371815 0
-20.89039 -6.024689 1.421815 0
-20.99039 -6.024689 1.471815 0
-20.99039 -6.024689 1.521815 0
-21.04039 -6.024689 1.571815 0
-21.04039 -6.024689 1.621815 0
-21.04039 -5.974689 1.621815 0
-20.99039 -6.024689 1.571815 0
-20.89039 -6.024689 1.521815 0
-20.94039 -6.024689 1.621815 0
-20.89039 -6.024689 1.621815 0
-20.89039 -5.974689 1.571815 0
-20.74039 -6.074688 1.021815 0
-20.79039 -6.074688 1.071815 0
-20.64039 -6.074688 0.8718147 0
-20.54039 -6.074688 0.8718147 0
-20.49039 -6.074688 0.9718148 0
-20.59039 -6.074688 1.171815 0
-20.49039 -6.074688 1.121815 0
-20.79039 -6.074688 1.371815 0
-20.74039 -6.074688 1.321815 0
-20.74039 -6.074688 1.621815 0
-20.64039 -6.074688 1.371815 0
-20.49039 -6.074688 1.421815 0
-20.59039 -6.074688 1.471815 0
-20.64039 -6.074688 1.571815 0
-20.49039 -6.074688 1.571815 0
-20.79039 -6.024689 0.8718147 0
-20.79039 -6.024689 0.9218147 0
-20.84039 -6.024689 1.021815 0
-20.69039 -6.024689 0.9218147 0
-20.69039 -6.024689 0.9718148 0
-20.84039 -6.024689 1.071815 0
-20.84039 -6.024689 1.121815 0
-20.79039 -6.024689 1.121815 0
-20.84039 -6.024689 1.221815 0
-20.79039 -6.024689 1.171815 0
-20.69039 -6.024689 1.071815 0
-20.69039 -6.024689 1.121815 0
-20.69039 -6.024689 1.171815 0
-20.59039 -6.024689 0.9218147 0
-20.64039 -6.024689 1.021815 0
-20.49039 -6.024689 0.8718147 0
-20.49039 -6.024689 0.9218147 0
-20.54039 -6.024689 0.9718148 0
-20.49039 -6.024689 0.9718148 0
-20.49039 -6.024689 1.021815 0
-20.64039 -6.024689 1.121815 0
-20.59039 -6.024689 1.071815 0
-20.64039 -6.024689 1.221815 0
-20.54039 -6.024689 1.121815 0
-20.49039 -6.024689 1.121815 0
-20.54039 -6.024689 1.171815 0
-20.49039 -6.024689 1.171815 0
-20.49039 -6.024689 1.221815 0
-20.79039 -6.024689 1.321815 0
-20.79039 -6.024689 1.421815 0
-20.69039 -6.024689 1.321815 0
-20.69039 -6.024689 1.371815 0
-20.69039 -6.024689 1.421815 0
-20.84039 -6.024689 1.471815 0
-20.84039 -6.024689 1.621815 0
-20.79039 -6.024689 1.571815 0
-20.79039 -6.024689 1.621815 0
-20.69039 -6.024689 1.521815 0
-20.69039 -6.024689 1.571815 0
-20.69039 -6.024689 1.621815 0
-20.59039 -6.024689 1.321815 0
-20.59039 -6.024689 1.371815 0
-20.49039 -6.024689 1.321815 0
-20.54039 -6.024689 1.421815 0
-20.49039 -6.024689 1.371815 0
-20.64039 -6.024689 1.471815 0
-20.59039 -6.024689 1.571815 0
-20.49039 -6.024689 1.571815 0
-21.19039 -5.374689 0.1718147 0
-21.09039 -5.274689 0.1718147 0
-20.99039 -5.224689 0.1718147 0
-20.84039 -5.074688 0.1718147 0
-20.74039 -4.974689 0.1718147 0
-20.64039 -4.874689 0.1718147 0
-20.44039 -6.074688 0.2218147 0
-20.34039 -6.074688 0.1718147 0
-20.29039 -6.074688 0.1718147 0
-20.24039 -6.074688 0.2218147 0
-20.14039 -6.074688 0.1218147 0
-20.14039 -6.074688 0.1718147 0
-20.44039 -6.074688 0.5718147 0
-20.29039 -6.074688 0.5218147 0
-20.29039 -6.074688 0.5718147 0
-20.29039 -6.074688 0.6218147 0
-20.44039 -6.074688 0.6718147 0
-20.39039 -6.074688 0.6718147 0
-20.39039 -6.074688 0.7218148 0
-20.24039 -6.074688 0.5718147 0
-20.14039 -6.074688 0.4718147 0
-20.14039 -6.074688 0.5718147 0
-20.09039 -6.074688 0.5718147 0
-20.09039 -6.074688 0.6218147 0
-20.19039 -6.074688 0.6718147 0
-20.19039 -6.074688 0.7218148 0
-20.09039 -6.074688 0.6718147 0
-20.14039 -6.074688 0.8218147 0
-20.44039 -6.024689 0.2218147 0
-20.39039 -6.024689 0.2218147 0
-20.34039 -6.024689 0.2218147 0
-20.29039 -6.024689 0.2218147 0
-20.24039 -6.024689 0.2218147 0
-20.19039 -6.024689 0.2218147 0
-20.09039 -6.024689 0.2218147 0
-20.44039 -6.024689 0.4718147 0
-20.44039 -6.024689 0.5218147 0
-20.39039 -6.024689 0.4718147 0
-20.34039 -6.024689 0.4718147 0
-20.34039 -6.024689 0.5218147 0
-20.29039 -6.024689 0.4718147 0
-20.34039 -6.024689 0.5718147 0
-20.44039 -6.024689 0.7218148 0
-20.44039 -5.974689 0.6718147 0
-20.39039 -6.024689 0.6718147 0
-20.39039 -6.024689 0.7218148 0
-20.44039 -6.024689 0.7718147 0
-20.29039 -6.024689 0.6718147 0
-20.29039 -6.024689 0.7218148 0
-20.34039 -6.024689 0.8218147 0
-20.24039 -6.024689 0.4718147 0
-20.19039 -6.024689 0.4718147 0
-20.19039 -6.024689 0.5218147 0
-20.09039 -6.024689 0.4718147 0
-20.09039 -6.024689 0.5218147 0
-20.24039 -6.024689 0.6718147 0
-20.19039 -6.024689 0.6718147 0
-20.19039 -6.024689 0.7218148 0
-20.19039 -6.024689 0.8218147 0
-20.14039 -6.024689 0.6718147 0
-20.09039 -6.024689 0.7218148 0
-20.09039 -6.024689 0.8218147 0
-20.04039 -6.074688 0.1218147 0
-20.04039 -6.074688 0.2218147 0
-19.99039 -6.074688 0.2218147 0
-19.94039 -6.074688 0.2218147 0
-19.89039 -6.074688 0.2218147 0
-19.84039 -6.074688 0.1218147 0
-19.84039 -6.074688 0.2218147 0
-19.79039 -6.074688 0.2218147 0
-19.74039 -6.074688 0.2218147 0
-19.69039 -6.074688 0.2218147 0
-20.04039 -6.074688 0.4718147 0
-20.04039 -6.074688 0.5218147 0
-20.04039 -6.074688 0.5718147 0
-19.94039 -6.124689 0.5218147 0
-19.94039 -6.074688 0.4718147 0
-19.94039 -6.074688 0.5218147 0
-19.89039 -6.074688 0.4718147 0
-19.89039 -6.074688 0.5718147 0
-19.89039 -6.074688 0.6218147 0
-20.04039 -6.074688 0.6718147 0
-19.99039 -6.074688 0.6718147 0
-19.94039 -6.074688 0.7218148 0
-19.89039 -6.074688 0.6718147 0
-19.94039 -6.074688 0.8218147 0
-19.84039 -6.074688 0.4718147 0
-19.79039 -6.074688 0.4718147 0
-19.79039 -6.074688 0.5218147 0
-19.84039 -6.074688 0.5718147 0
-19.84039 -6.074688 0.6218147 0
-19.74039 -6.074688 0.4718147 0
-19.69039 -6.074688 0.4718147 0
-19.69039 -6.074688 0.5218147 0
-19.69039 -6.074688 0.5718147 0
-19.69039 -6.074688 0.6218147 0
-19.84039 -6.074688 0.7218148 0
-19.79039 -6.074688 0.6718147 0
-19.84039 -6.074688 0.8218147 0
-19.74039 -6.074688 0.6718147 0
-19.69039 -6.074688 0.6718147 0
-19.69039 -6.074688 0.7218148 0
-19.69039 -6.074688 0.8218147 0
-19.99039 -6.024689 0.2218147 0
-19.99039 -5.974689 0.1718147 0
-19.94039 -6.024689 0.2218147 0
-19.89039 -6.024689 0.2218147 0
-19.94039 -5.874689 0.1718147 0
-19.84039 -6.024689 0.2218147 0
-19.84039 -5.824688 0.1718147 0
-19.79039 -5.724689 0.1718147 0
-19.99039 -6.024689 0.4718147 0
-19.99039 -6.024689 0.6718147 0
-19.94039 -6.024689 0.7218148 0
-19.89039 -6.024689 0.6718147 0
-19.79039 -6.024689 0.7218148 0
-20.44039 -6.074688 0.9218147 0
-20.29039 -6.074688 0.9218147 0
-20.34039 -6.074688 0.9718148 0
-20.29039 -6.074688 1.021815 0
-20.44039 -6.074688 1.121815 0
-20.39039 -6.074688 1.221815 0
-20.29039 -6.074688 1.121815 0
-20.29039 -6.074688 1.221815 0
-20.24039 -6.074688 0.8718147 0
-20.14039 -6.074688 0.9718148 0
-20.19039 -6.074688 1.221815 0
-20.14039 -6.074688 1.121815 0
-20.09039 -6.074688 1.071815 0
-20.09039 -6.074688 1.121815 0
-20.44039 -6.074688 1.271815 0
-20.44039 -6.074688 1.321815 0
-20.39039 -6.074688 1.371815 0
-20.34039 -6.074688 1.371815 0
-20.44039 -6.074688 1.571815 0
-20.44039 -6.074688 1.621815 0
-20.29039 -6.074688 1.521815 0
-20.29039 -6.074688 1.621815 0
-20.24039 -6.074688 1.271815 0
-20.19039 -6.074688 1.321815 0
-20.19039 -6.074688 1.421815 0
-20.09039 -6.074688 1.271815 0
-20.14039 -6.074688 1.371815 0
-20.09039 -6.074688 1.421815 0
-20.24039 -6.074688 1.571815 0
-20.24039 -6.074688 1.621815 0
-20.14039 -6.074688 1.471815 0
-20.09039 -6.074688 1.521815 0
-20.09039 -6.074688 1.571815 0
-20.09039 -6.074688 1.621815 0
-20.44039 -6.024689 0.9218147 0
-20.39039 -6.024689 0.9218147 0
-20.39039 -6.024689 0.9718148 0
-20.29039 -6.024689 0.9218147 0
-20.29039 -6.024689 0.9718148 0
-20.44039 -6.024689 1.071815 0
-20.44039 -6.024689 1.121815 0
-20.39039 -6.024689 1.221815 0
-20.34039 -6.024689 1.071815 0
-20.34039 -6.024689 1.121815 0
-20.29039 -6.024689 1.121815 0
-20.29039 -6.024689 1.221815 0
-20.19039 -6.024689 0.9218147 0
-20.19039 -6.024689 0.9718148 0
-20.09039 -6.024689 0.9218147 0
-20.09039 -6.024689 0.9718148 0
-20.24039 -6.024689 1.121815 0
-20.19039 -6.024689 1.071815 0
-20.19039 -6.024689 1.121815 0
-20.19039 -6.024689 1.221815 0
-20.09039 -6.024689 1.121815 0
-20.09039 -6.024689 1.221815 0
-20.44039 -6.024689 1.321815 0
-20.44039 -6.024689 1.371815 0
-20.44039 -6.024689 1.421815 0
-20.39039 -6.024689 1.421815 0
-20.34039 -6.024689 1.371815 0
-20.29039 -6.024689 1.371815 0
-20.44039 -6.024689 1.471815 0
-20.44039 -6.024689 1.571815 0
-20.29039 -6.024689 1.471815 0
-20.34039 -6.024689 1.571815 0
-20.29039 -6.024689 1.571815 0
-20.24039 -6.024689 1.371815 0
-20.19039 -6.024689 1.371815 0
-20.09039 -6.024689 1.371815 0
-20.19039 -6.024689 1.471815 0
-20.24039 -6.024689 1.571815 0
-20.19039 -6.024689 1.571815 0
-20.04039 -6.074688 0.8718147 0
-20.04039 -6.074688 0.9218147 0
-19.99039 -6.074688 0.9218147 0
-19.94039 -6.124689 0.8718147 0
-19.89039 -6.074688 0.9218147 0
-19.94039 -6.074688 0.9718148 0
-20.04039 -6.074688 1.121815 0
-20.04039 -6.074688 1.221815 0
-19.99039 -6.124689 1.221815 0
-19.99039 -6.074688 1.221815 0
-19.94039 -6.074688 1.121815 0
-19.89039 -6.074688 1.071815 0
-19.89039 -6.074688 1.121815 0
-19.94039 -6.074688 1.221815 0
-19.79039 -6.074688 0.8718147 0
-19.84039 -6.074688 0.9718148 0
-19.74039 -6.074688 0.9218147 0
-19.69039 -6.074688 0.9218147 0
-19.74039 -6.074688 0.9718148 0
-19.79039 -6.074688 1.121815 0
-19.79039 -6.124689 1.171815 0
-19.79039 -6.074688 1.221815 0
-19.69039 -6.074688 1.071815 0
-19.69039 -6.074688 1.121815 0
-19.74039 -6.074688 1.221815 0
-19.69039 -6.074688 1.171815 0
-19.69039 -6.074688 1.221815 0
-19.99039 -6.074688 1.321815 0
-19.99039 -6.074688 1.371815 0
-19.94039 -6.074688 1.371815 0
-19.94039 -6.074688 1.421815 0
-19.89039 -6.074688 1.371815 0
-20.04039 -6.074688 1.571815 0
-20.04039 -6.074688 1.621815 0
-19.94039 -6.074688 1.471815 0
-19.89039 -6.074688 1.521815 0
-19.94039 -6.124689 1.571815 0
-19.89039 -6.074688 1.621815 0
-19.84039 -6.074688 1.271815 0
-19.79039 -6.074688 1.271815 0
-19.79039 -6.074688 1.321815 0
-19.84039 -6.074688 1.421815 0
-19.79039 -6.074688 1.371815 0
-19.69039 -6.124689 1.421815 0
-19.69039 -6.074688 1.371815 0
-19.69039 -6.074688 1.421815 0
-19.84039 -6.074688 1.471815 0
-19.79039 -6.074688 1.521815 0
-19.79039 -6.074688 1.621815 0
-19.74039 -6.074688 1.471815 0
-19.69039 -6.074688 1.521815 0
-19.74039 -6.074688 1.571815 0
-19.69039 -6.074688 1.621815 0
-19.99039 -6.024689 0.9218147 0
-19.89039 -6.024689 0.9218147 0
-19.99039 -6.024689 1.121815 0
-19.89039 -6.024689 1.121815 0
-19.84039 -6.024689 0.9218147 0
-19.79039 -6.024689 0.9218147 0
-19.84039 -6.024689 1.121815 0
-19.84039 -6.024689 1.221815 0
-19.74039 -6.024689 1.121815 0
-20.04039 -6.024689 1.371815 0
-19.94039 -6.024689 1.371815 0
-19.94039 -6.024689 1.421815 0
-20.04039 -6.024689 1.471815 0
-20.04039 -6.024689 1.571815 0
-19.99039 -6.024689 1.571815 0
-19.94039 -6.024689 1.571815 0
-19.84039 -6.024689 1.371815 0
-19.74039 -6.024689 1.371815 0
-19.84039 -6.024689 1.571815 0
-19.79039 -6.024689 1.621815 0
-19.69039 -5.624689 0.1718147 0
-21.09039 -6.074688 1.721815 0
-21.09039 -6.074688 2.071815 0
-21.09039 -6.074688 2.371815 0
-21.24039 -6.024689 1.721815 0
-21.24039 -5.974689 1.671815 0
-21.24039 -5.974689 1.821815 0
-21.19039 -5.974689 1.771815 0
-21.09039 -6.024689 1.671815 0
-21.09039 -6.024689 1.771815 0
-21.09039 -6.024689 1.821815 0
-21.24039 -6.024689 1.871815 0
-21.19039 -6.024689 1.871815 0
-21.19039 -5.974689 1.871815 0
-21.19039 -6.024689 2.021815 0
-21.14039 -6.024689 1.871815 0
-21.14039 -5.974689 1.871815 0
-21.09039 -6.024689 1.871815 0
-21.09039 -6.024689 1.971815 0
-21.09039 -5.974689 2.021815 0
-21.04039 -6.024689 1.721815 0
-20.99039 -6.024689 1.771815 0
-20.89039 -6.024689 1.721815 0
-20.89039 -6.024689 1.771815 0
-21.04039 -6.024689 1.871815 0
-20.99039 -6.024689 1.871815 0
-20.99039 -5.974689 2.021815 0
-20.94039 -6.024689 1.871815 0
-20.89039 -6.024689 1.871815 0
-20.89039 -6.024689 2.021815 0
-21.24039 -6.024689 2.071815 0
-21.24039 -5.974689 2.071815 0
-21.24039 -5.974689 2.121815 0
-21.19039 -6.024689 2.071815 0
-21.14039 -5.974689 2.121815 0
-21.09039 -6.024689 2.071815 0
-21.09039 -6.024689 2.121815 0
-21.14039 -6.024689 2.171815 0
-21.09039 -6.024689 2.171815 0
-21.19039 -6.024689 2.271815 0
-21.19039 -6.024689 2.321815 0
-21.24039 -6.024689 2.421815 0
-21.09039 -6.024689 2.271815 0
-21.14039 -6.024689 2.421815 0
-21.04039 -6.024689 2.071815 0
-21.04039 -6.024689 2.171815 0
-20.99039 -6.024689 2.221815 0
-20.94039 -6.024689 2.121815 0
-20.89039 -6.024689 2.071815 0
-20.89039 -6.024689 2.121815 0
-20.94039 -6.024689 2.171815 0
-20.89039 -6.024689 2.221815 0
-20.99039 -6.024689 2.321815 0
-20.79039 -6.074688 1.721815 0
-20.79039 -6.074688 2.021815 0
-20.74039 -6.074688 1.921815 0
-20.59039 -6.074688 1.771815 0
-20.59039 -6.074688 1.821815 0
-20.49039 -6.074688 1.771815 0
-20.79039 -6.074688 2.371815 0
-20.74039 -6.074688 2.271815 0
-20.64039 -6.074688 2.071815 0
-20.59039 -6.074688 2.171815 0
-20.49039 -6.074688 2.071815 0
-20.64039 -6.074688 2.271815 0
-20.49039 -6.074688 2.421815 0
-20.79039 -6.024689 1.671815 0
-20.84039 -6.024689 1.771815 0
-20.79039 -6.024689 1.771815 0
-20.69039 -6.024689 1.671815 0
-20.69039 -6.024689 1.721815 0
-20.69039 -6.024689 1.771815 0
-20.84039 -6.024689 1.921815 0
-20.79039 -6.024689 1.871815 0
-20.79039 -6.024689 1.921815 0
-20.84039 -6.024689 2.021815 0
-20.69039 -6.024689 1.871815 0
-20.69039 -6.024689 1.921815 0
-20.74039 -6.024689 2.021815 0
-20.69039 -6.024689 2.021815 0
-20.59039 -6.024689 1.671815 0
-20.59039 -6.024689 1.771815 0
-20.54039 -6.024689 1.671815 0
-20.49039 -6.024689 1.671815 0
-20.54039 -6.024689 1.771815 0
-20.49039 -6.024689 1.771815 0
-20.49039 -6.024689 1.821815 0
-20.64039 -6.024689 1.921815 0
-20.59039 -6.024689 1.921815 0
-20.59039 -6.024689 2.021815 0
-20.54039 -6.024689 1.921815 0
-20.49039 -6.024689 1.921815 0
-20.49039 -6.024689 2.021815 0
-20.84039 -6.024689 2.121815 0
-20.79039 -6.024689 2.121815 0
-20.79039 -6.024689 2.221815 0
-20.69039 -6.024689 2.121815 0
-20.69039 -6.024689 2.171815 0
-20.69039 -6.024689 2.221815 0
-20.84039 -6.024689 2.321815 0
-20.79039 -6.024689 2.271815 0
-20.84039 -6.024689 2.371815 0
-20.64039 -6.024689 2.121815 0
-20.59039 -6.024689 2.221815 0
-20.49039 -6.024689 2.071815 0
-20.54039 -6.024689 2.171815 0
-20.49039 -6.024689 2.171815 0
-20.64039 -6.024689 2.321815 0
-20.64039 -6.024689 2.371815 0
-20.49039 -6.024689 2.271815 0
-20.49039 -6.024689 2.371815 0
-21.09039 -6.074688 2.621815 0
-21.14039 -6.074688 2.671815 0
-20.89039 -6.074688 2.721815 0
-21.24039 -6.024689 2.471815 0
-21.24039 -6.024689 2.571815 0
-21.14039 -6.024689 2.521815 0
-21.09039 -6.024689 2.521815 0
-21.19039 -6.024689 2.771815 0
-21.19039 -6.024689 2.821815 0
-21.09039 -6.024689 2.721815 0
-21.04039 -6.024689 2.471815 0
-20.99039 -6.024689 2.471815 0
-21.04039 -6.024689 2.571815 0
-20.99039 -6.024689 2.571815 0
-20.89039 -6.024689 2.521815 0
-20.89039 -6.024689 2.571815 0
-20.99039 -6.024689 2.771815 0
-21.24039 -6.024689 2.871815 0
-21.14039 -6.024689 2.871815 0
-21.09039 -6.024689 2.871815 0
-21.24039 -6.024689 3.071815 0
-21.19039 -6.024689 3.221815 0
-21.09039 -6.024689 3.121815 0
-21.04039 -6.024689 2.871815 0
-20.99039 -6.024689 2.921815 0
-20.89039 -6.024689 2.921815 0
-21.04039 -6.024689 3.071815 0
-20.99039 -6.024689 3.221815 0
-20.79039 -6.074688 2.671815 0
-20.59039 -6.074688 2.471815 0
-20.64039 -6.074688 2.771815 0
-20.49039 -6.074688 2.771815 0
-20.64039 -6.074688 2.871815 0
-20.79039 -6.024689 2.471815 0
-20.84039 -6.024689 2.571815 0
-20.84039 -6.024689 2.621815 0
-20.69039 -6.024689 2.521815 0
-20.69039 -6.024689 2.621815 0
-20.84039 -6.024689 2.821815 0
-20.59039 -6.024689 2.521815 0
-20.64039 -6.024689 2.621815 0
-20.49039 -6.024689 2.571815 0
-20.49039 -6.024689 2.621815 0
-20.64039 -6.024689 2.821815 0
-20.49039 -6.024689 2.671815 0
-20.84039 -6.024689 2.871815 0
-20.84039 -6.024689 2.971815 0
-20.69039 -6.024689 2.921815 0
-20.69039 -6.024689 2.971815 0
-20.84039 -6.024689 3.121815 0
-20.69039 -6.024689 3.121815 0
-20.64039 -6.024689 2.971815 0
-20.49039 -6.024689 2.971815 0
-20.49039 -6.024689 3.021815 0
-20.49039 -6.024689 3.171815 0
-20.39039 -6.074688 1.771815 0
-20.44039 -6.074688 1.921815 0
-20.19039 -6.074688 1.771815 0
-20.09039 -6.074688 1.671815 0
-20.14039 -6.074688 1.771815 0
-20.14039 -6.074688 1.821815 0
-20.09039 -6.074688 1.821815 0
-20.24039 -6.074688 1.921815 0
-20.24039 -6.074688 1.971815 0
-20.09039 -6.074688 1.971815 0
-20.09039 -6.074688 2.021815 0
-20.44039 -6.074688 2.121815 0
-20.39039 -6.074688 2.071815 0
-20.29039 -6.074688 2.121815 0
-20.44039 -6.074688 2.321815 0
-20.29039 -6.074688 2.321815 0
-20.19039 -6.074688 2.071815 0
-20.14039 -6.074688 2.121815 0
-20.09039 -6.074688 2.171815 0
-20.24039 -6.074688 2.321815 0
-20.19039 -6.074688 2.371815 0
-20.09039 -6.074688 2.321815 0
-20.09039 -6.074688 2.421815 0
-20.44039 -6.024689 1.671815 0
-20.39039 -6.024689 1.671815 0
-20.44039 -6.024689 1.821815 0
-20.34039 -6.024689 1.671815 0
-20.29039 -6.024689 1.671815 0
-20.34039 -6.024689 1.771815 0
-20.34039 -6.024689 1.821815 0
-20.29039 -6.024689 1.821815 0
-20.44039 -6.024689 1.921815 0
-20.39039 -6.024689 1.921815 0
-20.44039 -6.024689 1.971815 0
-20.39039 -6.024689 2.021815 0
-20.29039 -6.024689 1.921815 0
-20.34039 -6.024689 1.971815 0
-20.29039 -6.024689 1.971815 0
-20.29039 -6.024689 2.021815 0
-20.24039 -6.024689 1.671815 0
-20.19039 -6.024689 1.721815 0
-20.24039 -6.024689 1.821815 0
-20.19039 -6.024689 1.821815 0
-20.09039 -6.024689 1.721815 0
-20.09039 -6.024689 1.821815 0
-20.19039 -6.024689 1.971815 0
-20.09039 -6.024689 1.971815 0
-20.09039 -6.024689 2.021815 0
-20.44039 -6.024689 2.071815 0
-20.39039 -6.024689 2.071815 0
-20.39039 -6.024689 2.171815 0
-20.29039 -6.024689 2.071815 0
-20.34039 -6.024689 2.171815 0
-20.29039 -6.024689 2.221815 0
-20.44039 -6.024689 2.271815 0
-20.34039 -6.024689 2.271815 0
-20.29039 -6.024689 2.421815 0
-20.24039 -6.024689 2.071815 0
-20.19039 -6.024689 2.221815 0
-20.09039 -6.024689 2.071815 0
-20.14039 -6.024689 2.221815 0
-20.09039 -6.024689 2.221815 0
-20.24039 -6.024689 2.271815 0
-19.99039 -6.074688 1.821815 0
-19.94039 -6.074688 1.721815 0
-19.89039 -6.074688 1.671815 0
-19.94039 -6.074688 1.821815 0
-19.89039 -6.074688 1.821815 0
-19.99039 -6.074688 1.921815 0
-20.04039 -6.074688 1.971815 0
-19.94039 -6.124689 1.921815 0
-19.94039 -6.074688 1.971815 0
-19.89039 -6.074688 1.971815 0
-19.84039 -6.074688 1.671815 0
-19.84039 -6.074688 1.721815 0
-19.79039 -6.074688 1.821815 0
-19.69039 -6.074688 1.671815 0
-19.74039 -6.074688 1.771815 0
-19.74039 -6.074688 1.821815 0
-19.69039 -6.074688 1.771815 0
-19.69039 -6.074688 1.821815 0
-19.79039 -6.074688 1.871815 0
-19.84039 -6.074688 2.021815 0
-19.79039 -6.074688 2.021815 0
-19.74039 -6.074688 1.971815 0
-19.74039 -6.074688 2.021815 0
-19.69039 -6.074688 2.021815 0
-19.94039 -6.074688 2.121815 0
-19.94039 -6.074688 2.221815 0
-19.89039 -6.074688 2.171815 0
-19.99039 -6.124689 2.271815 0
-20.04039 -6.074688 2.371815 0
-19.99039 -6.074688 2.371815 0
-19.94039 -6.074688 2.271815 0
-19.94039 -6.074688 2.321815 0
-19.89039 -6.074688 2.421815 0
-19.79039 -6.124689 2.221815 0
-19.74039 -6.074688 2.071815 0
-19.69039 -6.074688 2.071815 0
-19.69039 -6.074688 2.121815 0
-19.69039 -6.074688 2.171815 0
-19.84039 -6.074688 2.371815 0
-19.79039 -6.074688 2.371815 0
-19.74039 -6.074688 2.271815 0
-19.69039 -6.074688 2.271815 0
-19.69039 -6.074688 2.371815 0
-20.04039 -6.024689 1.821815 0
-19.99039 -6.024689 1.821815 0
-19.94039 -6.024689 1.721815 0
-19.94039 -6.024689 1.821815 0
-19.94039 -6.024689 2.021815 0
-19.84039 -6.024689 1.721815 0
-19.84039 -6.024689 1.821815 0
-19.99039 -6.024689 2.071815 0
-19.89039 -6.024689 2.071815 0
-19.84039 -6.024689 2.071815 0
-19.79039 -6.024689 2.071815 0
-19.84039 -6.024689 2.271815 0
-20.44039 -6.074688 2.571815 0
-20.44039 -6.074688 2.671815 0
-20.39039 -6.074688 2.771815 0
-20.29039 -6.074688 2.671815 0
-20.24039 -6.074688 2.571815 0
-20.14039 -6.074688 2.471815 0
-20.14039 -6.074688 2.621815 0
-20.09039 -6.074688 2.621815 0
-20.24039 -6.074688 2.721815 0
-20.19039 -6.074688 2.771815 0
-20.14039 -6.074688 2.821815 0
-20.44039 -6.074688 2.921815 0
-20.44039 -6.074688 3.021815 0
-20.29039 -6.074688 2.871815 0
-20.29039 -6.074688 3.021815 0
-20.44039 -6.074688 3.171815 0
-20.19039 -6.074688 2.921815 0
-20.09039 -6.074688 2.921815 0
-20.24039 -6.074688 3.071815 0
-20.24039 -6.074688 3.171815 0
-20.24039 -6.074688 3.221815 0
-20.09039 -6.074688 3.121815 0
-20.44039 -6.024689 2.571815 0
-20.34039 -6.024689 2.571815 0
-20.19039 -6.024689 2.621815 0
-20.44039 -6.024689 2.871815 0
-20.29039 -6.024689 3.071815 0
-20.14039 -6.024689 3.071815 0
-20.09039 -6.024689 3.221815 0
-19.99039 -6.124689 2.621815 0
-19.99039 -6.074688 2.571815 0
-19.89039 -6.074688 2.471815 0
-20.04039 -6.074688 2.671815 0
-20.04039 -6.074688 2.721815 0
-19.94039 -6.074688 2.671815 0
-19.89039 -6.074688 2.721815 0
-19.94039 -6.074688 2.771815 0
-19.79039 -6.124689 2.571815 0
-19.69039 -6.074688 2.471815 0
-19.74039 -6.124689 2.571815 0
-19.79039 -6.074688 2.671815 0
-19.84039 -6.074688 2.771815 0
-19.79039 -6.074688 2.771815 0
-19.74039 -6.074688 2.671815 0
-19.69039 -6.074688 2.721815 0
-19.69039 -6.074688 2.821815 0
-19.99039 -6.074688 2.971815 0
-19.89039 -6.074688 2.921815 0
-20.04039 -6.074688 3.121815 0
-19.99039 -6.074688 3.221815 0
-19.94039 -6.074688 3.071815 0
-19.89039 -6.074688 3.171815 0
-19.89039 -6.074688 3.221815 0
-19.79039 -6.124689 2.921815 0
-19.79039 -6.074688 2.971815 0
-19.69039 -6.074688 2.971815 0
-19.79039 -6.074688 3.171815 0
-19.79039 -6.074688 3.221815 0
-19.74039 -6.074688 3.121815 0
-19.94039 -6.024689 2.671815 0
-19.59039 -6.074688 0.1218147 0
-19.64039 -6.074688 0.2218147 0
-19.59039 -6.074688 0.2218147 0
-19.54039 -6.074688 0.2218147 0
-19.49039 -6.074688 0.2218147 0
-19.44039 -6.124689 0.1218147 0
-19.44039 -6.074688 0.2218147 0
-19.39039 -6.074688 0.2218147 0
-19.29039 -6.074688 0.1218147 0
-19.34039 -6.074688 0.2218147 0
-19.29039 -6.074688 0.2218147 0
-19.64039 -6.074688 0.4718147 0
-19.59039 -6.074688 0.5218147 0
-19.64039 -6.124689 0.6218147 0
-19.64039 -6.074688 0.5718147 0
-19.54039 -6.074688 0.4718147 0
-19.54039 -6.074688 0.5218147 0
-19.49039 -6.074688 0.4718147 0
-19.49039 -6.074688 0.5718147 0
-19.49039 -6.074688 0.6218147 0
-19.64039 -6.074688 0.6718147 0
-19.59039 -6.074688 0.7218148 0
-19.54039 -6.124689 0.6718147 0
-19.54039 -6.074688 0.6718147 0
-19.49039 -6.074688 0.7218148 0
-19.54039 -6.074688 0.8218147 0
-19.44039 -6.124689 0.4718147 0
-19.44039 -6.074688 0.4718147 0
-19.39039 -6.074688 0.4718147 0
-19.39039 -6.074688 0.5218147 0
-19.44039 -6.074688 0.5718147 0
-19.44039 -6.074688 0.6218147 0
-19.29039 -6.174689 0.5718147 0
-19.34039 -6.074688 0.4718147 0
-19.29039 -6.074688 0.4718147 0
-19.29039 -6.074688 0.5218147 0
-19.29039 -6.074688 0.5718147 0
-19.44039 -6.074688 0.6718147 0
-19.44039 -6.074688 0.7218148 0
-19.39039 -6.074688 0.7218148 0
-19.44039 -6.124689 0.8218147 0
-19.39039 -6.074688 0.7718147 0
-19.39039 -6.074688 0.8218147 0
-19.34039 -6.124689 0.6718147 0
-19.34039 -6.074688 0.6718147 0
-19.29039 -6.124689 0.6718147 0
-19.29039 -6.074688 0.7718147 0
-19.24039 -6.074688 0.2218147 0
-19.19039 -6.124689 0.1718147 0
-19.19039 -6.074688 0.2218147 0
-19.14039 -6.074688 0.2218147 0
-19.09039 -6.074688 0.2218147 0
-19.04039 -6.124689 0.1218147 0
-19.04039 -6.074688 0.2218147 0
-18.99039 -6.124689 0.1718147 0
-18.94039 -6.074688 0.2218147 0
-18.89039 -6.074688 0.2218147 0
-19.24039 -6.074688 0.4718147 0
-19.24039 -6.074688 0.5218147 0
-19.19039 -6.074688 0.4718147 0
-19.24039 -6.124689 0.6218147 0
-19.24039 -6.074688 0.6218147 0
-19.19039 -6.124689 0.5718147 0
-19.14039 -6.124689 0.4718147 0
-19.14039 -6.074688 0.4718147 0
-19.09039 -6.074688 0.4718147 0
-19.09039 -6.074688 0.5218147 0
-19.24039 -6.074688 0.6718147 0
-19.24039 -6.074688 0.7218148 0
-19.19039 -6.074688 0.7218148 0
-19.24039 -6.074688 0.8218147 0
-19.19039 -6.074688 0.7718147 0
-19.14039 -6.074688 0.6718147 0
-19.09039 -6.124689 0.6718147 0
-19.09039 -6.124689 0.7218148 0
-19.14039 -6.124689 0.8218147 0
-19.09039 -6.074688 0.7718147 0
-19.04039 -6.124689 0.4718147 0
-19.04039 -6.124689 0.5218147 0
-19.04039 -6.074688 0.4718147 0
-18.99039 -6.074688 0.4718147 0
-19.04039 -6.124689 0.6218147 0
-19.04039 -6.074688 0.5718147 0
-18.99039 -6.124689 0.5718147 0
-18.94039 -6.074688 0.4718147 0
-18.94039 -6.074688 0.5218147 0
-19.04039 -6.074688 0.6718147 0
-19.04039 -6.074688 0.7218148 0
-18.94039 -6.074688 0.6718147 0
-18.89039 -6.124689 0.6718147 0
-18.94039 -6.074688 0.7718147 0
-19.64039 -6.074688 0.9218147 0
-19.64039 -6.074688 0.9718148 0
-19.59039 -6.074688 0.9718148 0
-19.54039 -6.074688 0.8718147 0
-19.54039 -6.074688 0.9218147 0
-19.49039 -6.074688 0.9218147 0
-19.49039 -6.074688 1.021815 0
-19.64039 -6.124689 1.171815 0
-19.54039 -6.074688 1.121815 0
-19.49039 -6.074688 1.071815 0
-19.54039 -6.074688 1.171815 0
-19.54039 -6.074688 1.221815 0
-19.49039 -6.074688 1.171815 0
-19.44039 -6.074688 0.9218147 0
-19.39039 -6.074688 0.9218147 0
-19.44039 -6.124689 0.9718148 0
-19.39039 -6.074688 1.021815 0
-19.34039 -6.074688 0.9218147 0
-19.29039 -6.124689 0.9218147 0
-19.29039 -6.074688 0.9218147 0
-19.29039 -6.074688 1.021815 0
-19.44039 -6.074688 1.121815 0
-19.44039 -6.124689 1.171815 0
-19.44039 -6.074688 1.171815 0
-19.39039 -6.074688 1.171815 0
-19.34039 -6.074688 1.121815 0
-19.29039 -6.074688 1.121815 0
-19.64039 -6.074688 1.321815 0
-19.64039 -6.074688 1.371815 0
-19.59039 -6.074688 1.371815 0
-19.54039 -6.074688 1.271815 0
-19.54039 -6.074688 1.321815 0
-19.49039 -6.074688 1.271815 0
-19.54039 -6.074688 1.371815 0
-19.49039 -6.074688 1.371815 0
-19.49039 -6.074688 1.421815 0
-19.64039 -6.074688 1.521815 0
-19.59039 -6.074688 1.521815 0
-19.64039 -6.074688 1.571815 0
-19.54039 -6.074688 1.471815 0
-19.49039 -6.074688 1.521815 0
-19.54039 -6.074688 1.571815 0
-19.54039 -6.074688 1.621815 0
-19.49039 -6.074688 1.621815 0
-19.44039 -6.074688 1.321815 0
-19.39039 -6.074688 1.271815 0
-19.44039 -6.124689 1.421815 0
-19.44039 -6.074688 1.371815 0
-19.39039 -6.074688 1.421815 0
-19.34039 -6.074688 1.271815 0
-19.29039 -6.124689 1.321815 0
-19.29039 -6.074688 1.271815 0
-19.34039 -6.074688 1.371815 0
-19.29039 -6.074688 1.421815 0
-19.39039 -6.074688 1.471815 0
-19.39039 -6.074688 1.521815 0
-19.44039 -6.124689 1.571815 0
-19.44039 -6.074688 1.571815 0
-19.39039 -6.074688 1.621815 0
-19.29039 -6.074688 1.521815 0
-19.34039 -6.074688 1.571815 0
-19.29039 -6.074688 1.571815 0
-19.64039 -6.024689 1.121815 0
-19.24039 -6.074688 0.9218147 0
-19.19039 -6.074688 0.9218147 0
-19.24039 -6.074688 1.021815 0
-19.19039 -6.124689 0.9718148 0
-19.19039 -6.074688 1.021815 0
-19.14039 -6.074688 0.9218147 0
-19.09039 -6.074688 0.8718147 0
-19.09039 -6.074688 0.9218147 0
-19.09039 -6.074688 1.021815 0
-19.24039 -6.124689 1.071815 0
-19.24039 -6.074688 1.121815 0
-19.24039 -6.074688 1.171815 0
-19.19039 -6.074688 1.171815 0
-19.14039 -6.074688 1.121815 0
-19.14039 -6.124689 1.171815 0
-19.09039 -6.124689 1.171815 0
-19.09039 -6.074688 1.171815 0
-19.04039 -6.124689 0.9218147 0
-19.04039 -6.074688 0.9218147 0
-18.99039 -6.124689 0.8718147 0
-19.04039 -6.074688 1.021815 0
-18.99039 -6.124689 0.9718148 0
-18.94039 -6.124689 0.9218147 0
-18.94039 -6.074688 0.8718147 0
-18.94039 -6.074688 1.021815 0
-19.04039 -6.124689 1.071815 0
-19.04039 -6.074688 1.121815 0
-19.04039 -6.124689 1.171815 0
-19.04039 -6.124689 1.221815 0
-19.04039 -6.074688 1.171815 0
-18.94039 -6.074688 1.121815 0
-18.94039 -6.074688 1.171815 0
-19.24039 -6.174689 1.271815 0
-19.24039 -6.124689 1.321815 0
-19.19039 -6.074688 1.271815 0
-19.24039 -6.074688 1.371815 0
-19.24039 -6.074688 1.421815 0
-19.19039 -6.074688 1.421815 0
-19.14039 -6.124689 1.271815 0
-19.09039 -6.124689 1.321815 0
-19.09039 -6.074688 1.271815 0
-19.14039 -6.074688 1.371815 0
-19.09039 -6.074688 1.421815 0
-19.24039 -6.074688 1.471815 0
-19.24039 -6.074688 1.571815 0
-19.24039 -6.074688 1.621815 0
-19.19039 -6.074688 1.571815 0
-19.19039 -6.074688 1.621815 0
-19.14039 -6.124689 1.521815 0
-19.09039 -6.074688 1.471815 0
-19.14039 -6.074688 1.571815 0
-19.09039 -6.074688 1.571815 0
-19.04039 -6.124689 1.321815 0
-19.04039 -6.074688 1.371815 0
-19.04039 -6.074688 1.421815 0
-18.99039 -6.124689 1.371815 0
-18.94039 -6.074688 1.321815 0
-18.89039 -6.124689 1.271815 0
-18.94039 -6.074688 1.371815 0
-19.04039 -6.124689 1.471815 0
-18.99039 -6.074688 1.521815 0
-19.04039 -6.124689 1.621815 0
-19.04039 -6.074688 1.571815 0
-18.99039 -6.074688 1.571815 0
-18.94039 -6.074688 1.571815 0
-19.59039 -5.524689 0.1718147 0
-19.54039 -5.424689 0.1718147 0
-19.44039 -5.324688 0.1718147 0
-19.39039 -5.224689 0.1718147 0
-19.29039 -5.124689 0.1718147 0
-19.24039 -5.024689 0.1718147 0
-19.19039 -4.924689 0.1718147 0
-18.79039 -6.124689 0.1218147 0
-18.84039 -6.074688 0.2218147 0
-18.79039 -6.074688 0.2218147 0
-18.74039 -6.124689 0.1718147 0
-18.74039 -6.124689 0.2218147 0
-18.59039 -6.124689 0.1218147 0
-18.64039 -6.124689 0.2218147 0
-18.64039 -6.074688 0.2218147 0
-18.49039 -6.124689 0.1218147 0
-18.54039 -6.124689 0.2218147 0
-18.54039 -6.074688 0.2218147 0
-18.49039 -6.124689 0.1718147 0
-18.84039 -6.074688 0.4718147 0
-18.79039 -6.124689 0.5218147 0
-18.84039 -6.124689 0.5718147 0
-18.84039 -6.124689 0.6218147 0
-18.79039 -6.124689 0.6218147 0
-18.74039 -6.124689 0.4718147 0
-18.74039 -6.124689 0.5218147 0
-18.74039 -6.124689 0.5718147 0
-18.84039 -6.124689 0.7218148 0
-18.84039 -6.074688 0.6718147 0
-18.84039 -6.074688 0.7718147 0
-18.74039 -6.074688 0.6718147 0
-18.74039 -6.074688 0.7718147 0
-18.64039 -6.124689 0.4718147 0
-18.64039 -6.124689 0.5218147 0
-18.59039 -6.124689 0.4718147 0
-18.59039 -6.124689 0.5718147 0
-18.59039 -6.124689 0.6218147 0
-18.49039 -6.174689 0.5718147 0
-18.54039 -6.124689 0.4718147 0
-18.54039 -6.124689 0.5218147 0
-18.49039 -6.124689 0.5218147 0
-18.49039 -6.124689 0.5718147 0
-18.59039 -6.174689 0.7218148 0
-18.64039 -6.124689 0.6718147 0
-18.64039 -6.124689 0.7218148 0
-18.64039 -6.124689 0.7718147 0
-18.54039 -6.124689 0.6718147 0
-18.54039 -6.124689 0.7218148 0
-18.54039 -6.124689 0.7718147 0
-18.44039 -6.124689 0.2218147 0
-18.39039 -6.124689 0.2218147 0
-18.39039 -6.074688 0.1718147 0
-18.34039 -6.124689 0.2218147 0
-18.29039 -6.124689 0.1718147 0
-18.29039 -6.124689 0.2218147 0
-18.39039 -6.124689 0.2718147 0
-18.29039 -6.124689 0.2718147 0
-18.24039 -6.124689 0.2218147 0
-18.19039 -6.124689 0.2218147 0
-18.14039 -6.174689 0.1218147 0
-18.14039 -6.124689 0.2218147 0
-18.09039 -6.124689 0.1718147 0
-18.09039 -6.124689 0.2218147 0
-18.19039 -6.124689 0.2718147 0
-18.09039 -6.124689 0.2718147 0
-18.44039 -6.124689 0.4718147 0
-18.39039 -6.124689 0.4718147 0
-18.39039 -6.124689 0.5218147 0
-18.39039 -6.124689 0.6218147 0
-18.34039 -6.124689 0.4718147 0
-18.29039 -6.124689 0.4718147 0
-18.29039 -6.124689 0.5218147 0
-18.34039 -6.124689 0.5718147 0
-18.34039 -6.124689 0.6218147 0
-18.44039 -6.174689 0.6718147 0
-18.44039 -6.124689 0.6718147 0
-18.44039 -6.124689 0.7218148 0
-18.39039 -6.074688 0.7218148 0
-18.39039 -6.124689 0.7718147 0
-18.34039 -6.174689 0.7218148 0
-18.34039 -6.124689 0.6718147 0
-18.34039 -6.124689 0.7218148 0
-18.29039 -6.124689 0.7218148 0
-18.29039 -6.124689 0.7718147 0
-18.24039 -6.124689 0.4718147 0
-18.19039 -6.124689 0.4718147 0
-18.19039 -6.124689 0.5218147 0
-18.24039 -6.124689 0.5718147 0
-18.09039 -6.174689 0.5218147 0
-18.14039 -6.124689 0.4718147 0
-18.14039 -6.124689 0.5218147 0
-18.09039 -6.124689 0.4718147 0
-18.14039 -6.124689 0.6218147 0
-18.09039 -6.124689 0.5718147 0
-18.19039 -6.174689 0.6718147 0
-18.24039 -6.124689 0.6718147 0
-18.19039 -6.124689 0.7218148 0
-18.19039 -6.124689 0.7718147 0
-18.09039 -6.174689 0.6718147 0
-18.14039 -6.124689 0.6718147 0
-18.09039 -6.124689 0.7218148 0
-18.39039 -6.024689 0.1218147 0
-18.34039 -5.924689 0.1218147 0
-18.34039 -5.924689 0.1718147 0
-18.29039 -5.774689 0.1218147 0
-18.29039 -5.824688 0.1718147 0
-18.09039 -5.974689 0.1718147 0
-18.24039 -5.674689 0.1218147 0
-18.24039 -5.724689 0.1718147 0
-18.84039 -6.074688 0.9218147 0
-18.79039 -6.124689 0.8718147 0
-18.79039 -6.124689 0.9218147 0
-18.84039 -6.124689 1.021815 0
-18.84039 -6.074688 1.021815 0
-18.74039 -6.124689 0.9218147 0
-18.74039 -6.124689 0.9718148 0
-18.74039 -6.074688 1.021815 0
-18.84039 -6.124689 1.121815 0
-18.84039 -6.074688 1.121815 0
-18.84039 -6.124689 1.171815 0
-18.79039 -6.074688 1.171815 0
-18.74039 -6.124689 1.121815 0
-18.59039 -6.174689 0.8718147 0
-18.64039 -6.124689 0.8718147 0
-18.64039 -6.074688 0.9218147 0
-18.64039 -6.124689 0.9718148 0
-18.64039 -6.074688 1.021815 0
-18.59039 -6.124689 1.021815 0
-18.49039 -6.174689 0.9718148 0
-18.54039 -6.124689 0.9218147 0
-18.49039 -6.124689 0.9218147 0
-18.54039 -6.124689 0.9718148 0
-18.49039 -6.124689 0.9718148 0
-18.64039 -6.124689 1.121815 0
-18.59039 -6.124689 1.121815 0
-18.64039 -6.124689 1.221815 0
-18.64039 -6.074688 1.221815 0
-18.59039 -6.124689 1.171815 0
-18.54039 -6.124689 1.071815 0
-18.54039 -6.124689 1.121815 0
-18.54039 -6.124689 1.221815 0
-18.84039 -6.074688 1.321815 0
-18.79039 -6.124689 1.321815 0
-18.84039 -6.124689 1.371815 0
-18.84039 -6.074688 1.371815 0
-18.74039 -6.124689 1.321815 0
-18.74039 -6.124689 1.371815 0
-18.84039 -6.124689 1.471815 0
-18.79039 -6.074688 1.521815 0
-18.84039 -6.124689 1.571815 0
-18.84039 -6.074688 1.571815 0
-18.74039 -6.074688 1.571815 0
-18.59039 -6.174689 1.271815 0
-18.59039 -6.174689 1.371815 0
-18.64039 -6.124689 1.271815 0
-18.64039 -6.124689 1.321815 0
-18.64039 -6.124689 1.371815 0
-18.64039 -6.124689 1.421815 0
-18.54039 -6.124689 1.321815 0
-18.54039 -6.074688 1.371815 0
-18.49039 -6.124689 1.371815 0
-18.49039 -6.124689 1.421815 0
-18.64039 -6.124689 1.521815 0
-18.59039 -6.124689 1.471815 0
-18.64039 -6.074688 1.621815 0
-18.59039 -6.124689 1.621815 0
-18.54039 -6.124689 1.471815 0
-18.54039 -6.124689 1.621815 0
-18.54039 -6.074688 1.621815 0
-18.44039 -6.124689 0.8718147 0
-18.44039 -6.124689 0.9218147 0
-18.39039 -6.124689 0.9218147 0
-18.44039 -6.124689 0.9718148 0
-18.34039 -6.124689 0.9218147 0
-18.29039 -6.124689 0.8718147 0
-18.29039 -6.124689 0.9218147 0
-18.34039 -6.124689 0.9718148 0
-18.29039 -6.124689 0.9718148 0
-18.44039 -6.124689 1.071815 0
-18.44039 -6.124689 1.121815 0
-18.39039 -6.124689 1.121815 0
-18.44039 -6.124689 1.221815 0
-18.39039 -6.074688 1.171815 0
-18.34039 -6.124689 1.071815 0
-18.34039 -6.124689 1.121815 0
-18.29039 -6.124689 1.071815 0
-18.34039 -6.124689 1.171815 0
-18.34039 -6.124689 1.221815 0
-18.29039 -6.124689 1.171815 0
-18.29039 -6.124689 1.221815 0
-18.24039 -6.124689 0.9218147 0
-18.19039 -6.124689 0.9218147 0
-18.24039 -6.124689 1.021815 0
-18.19039 -6.124689 0.9718148 0
-18.14039 -6.174689 0.9218147 0
-18.14039 -6.124689 0.8718147 0
-18.14039 -6.124689 0.9218147 0
-18.09039 -6.124689 0.9218147 0
-18.09039 -6.124689 0.9718148 0
-18.19039 -6.124689 1.071815 0
-18.24039 -6.124689 1.171815 0
-18.19039 -6.124689 1.171815 0
-18.19039 -6.124689 1.221815 0
-18.14039 -6.124689 1.121815 0
-18.09039 -6.124689 1.071815 0
-18.14039 -6.124689 1.171815 0
-18.09039 -6.124689 1.171815 0
-18.09039 -6.124689 1.221815 0
-18.44039 -6.174689 1.271815 0
-18.44039 -6.174689 1.371815 0
-18.39039 -6.124689 1.321815 0
-18.44039 -6.074688 1.371815 0
-18.39039 -6.124689 1.421815 0
-18.34039 -6.174689 1.371815 0
-18.34039 -6.124689 1.371815 0
-18.29039 -6.124689 1.371815 0
-18.29039 -6.124689 1.421815 0
-18.44039 -6.124689 1.471815 0
-18.44039 -6.124689 1.571815 0
-18.44039 -6.124689 1.621815 0
-18.39039 -6.124689 1.621815 0
-18.34039 -6.124689 1.471815 0
-18.34039 -6.124689 1.521815 0
-18.29039 -6.124689 1.471815 0
-18.34039 -6.124689 1.621815 0
-18.29039 -6.124689 1.571815 0
-18.29039 -6.124689 1.621815 0
-18.19039 -6.174689 1.271815 0
-18.24039 -6.174689 1.421815 0
-18.24039 -6.124689 1.371815 0
-18.19039 -6.124689 1.371815 0
-18.19039 -6.124689 1.421815 0
-18.09039 -6.174689 1.321815 0
-18.14039 -6.124689 1.371815 0
-18.09039 -6.124689 1.421815 0
-18.19039 -6.124689 1.471815 0
-18.24039 -6.124689 1.621815 0
-18.19039 -6.124689 1.621815 0
-18.09039 -6.124689 1.471815 0
-18.09039 -6.124689 1.521815 0
-18.14039 -6.124689 1.571815 0
-18.14039 -6.124689 1.621815 0
-18.09039 -6.124689 1.621815 0
-18.19039 -5.574688 0.1218147 0
-18.14039 -5.624689 0.1718147 0
-18.14039 -5.474689 0.1218147 0
-18.09039 -5.524689 0.1718147 0
-18.09039 -5.324688 0.1218147 0
-19.64039 -6.074688 1.671815 0
-19.59039 -6.074688 1.671815 0
-19.64039 -6.074688 1.771815 0
-19.64039 -6.074688 1.821815 0
-19.59039 -6.074688 1.771815 0
-19.54039 -6.124689 1.821815 0
-19.54039 -6.074688 1.771815 0
-19.54039 -6.074688 1.821815 0
-19.49039 -6.074688 1.771815 0
-19.59039 -6.074688 1.871815 0
-19.59039 -6.074688 2.021815 0
-19.49039 -6.074688 1.871815 0
-19.54039 -6.124689 1.971815 0
-19.54039 -6.074688 2.021815 0
-19.49039 -6.074688 2.021815 0
-19.44039 -6.124689 1.721815 0
-19.44039 -6.074688 1.671815 0
-19.44039 -6.074688 1.821815 0
-19.39039 -6.074688 1.771815 0
-19.29039 -6.124689 1.671815 0
-19.29039 -6.074688 1.671815 0
-19.34039 -6.074688 1.821815 0
-19.29039 -6.074688 1.821815 0
-19.44039 -6.124689 1.921815 0
-19.39039 -6.074688 1.871815 0
-19.29039 -6.074688 1.871815 0
-19.34039 -6.074688 2.021815 0
-19.29039 -6.124689 1.971815 0
-19.29039 -6.124689 2.021815 0
-19.64039 -6.074688 2.071815 0
-19.54039 -6.074688 2.071815 0
-19.54039 -6.074688 2.121815 0
-19.49039 -6.074688 2.071815 0
-19.49039 -6.074688 2.121815 0
-19.59039 -6.074688 2.321815 0
-19.64039 -6.074688 2.421815 0
-19.59039 -6.074688 2.421815 0
-19.49039 -6.074688 2.271815 0
-19.49039 -6.074688 2.321815 0
-19.54039 -6.074688 2.421815 0
-19.44039 -6.074688 2.071815 0
-19.39039 -6.074688 2.071815 0
-19.39039 -6.074688 2.121815 0
-19.44039 -6.074688 2.221815 0
-19.29039 -6.124689 2.071815 0
-19.29039 -6.074688 2.071815 0
-19.29039 -6.074688 2.121815 0
-19.44039 -6.124689 2.271815 0
-19.39039 -6.074688 2.321815 0
-19.39039 -6.074688 2.421815 0
-19.29039 -6.074688 2.321815 0
-19.34039 -6.074688 2.421815 0
-19.29039 -6.124689 2.421815 0
-19.29039 -6.074688 2.371815 0
-19.24039 -6.074688 1.671815 0
-19.19039 -6.124689 1.721815 0
-19.24039 -6.074688 1.821815 0
-19.19039 -6.074688 1.821815 0
-19.09039 -6.074688 1.671815 0
-19.14039 -6.124689 1.821815 0
-19.14039 -6.074688 1.821815 0
-19.09039 -6.074688 1.821815 0
-19.24039 -6.074688 1.871815 0
-19.19039 -6.074688 1.871815 0
-19.24039 -6.074688 2.021815 0
-19.14039 -6.124689 1.871815 0
-19.09039 -6.074688 1.871815 0
-19.09039 -6.124689 1.971815 0
-19.04039 -6.124689 1.721815 0
-19.04039 -6.074688 1.671815 0
-18.99039 -6.124689 1.721815 0
-19.04039 -6.074688 1.821815 0
-18.99039 -6.124689 1.771815 0
-18.99039 -6.074688 1.821815 0
-18.94039 -6.074688 1.821815 0
-19.04039 -6.074688 1.921815 0
-19.04039 -6.124689 1.971815 0
-18.89039 -6.124689 1.871815 0
-19.24039 -6.074688 2.071815 0
-19.24039 -6.074688 2.121815 0
-19.19039 -6.124689 2.121815 0
-19.19039 -6.074688 2.071815 0
-19.19039 -6.074688 2.121815 0
-19.24039 -6.124689 2.221815 0
-19.14039 -6.074688 2.071815 0
-19.09039 -6.074688 2.121815 0
-19.14039 -6.124689 2.221815 0
-19.09039 -6.074688 2.171815 0
-19.19039 -6.074688 2.371815 0
-19.14039 -6.124689 2.421815 0
-19.09039 -6.074688 2.371815 0
-19.04039 -6.124689 2.121815 0
-19.04039 -6.074688 2.071815 0
-18.99039 -6.124689 2.121815 0
-18.99039 -6.074688 2.121815 0
-19.04039 -6.124689 2.221815 0
-19.04039 -6.074688 2.171815 0
-18.94039 -6.074688 2.071815 0
-18.94039 -6.074688 2.171815 0
-19.04039 -6.124689 2.321815 0
-18.99039 -6.124689 2.371815 0
-18.99039 -6.074688 2.421815 0
-19.49039 -6.074688 2.521815 0
-19.54039 -6.074688 2.621815 0
-19.64039 -6.074688 2.821815 0
-19.59039 -6.074688 2.821815 0
-19.54039 -6.074688 2.721815 0
-19.49039 -6.074688 2.721815 0
-19.44039 -6.074688 2.471815 0
-19.34039 -6.074688 2.471815 0
-19.29039 -6.124689 2.621815 0
-19.44039 -6.124689 2.671815 0
-19.44039 -6.074688 2.721815 0
-19.39039 -6.074688 2.771815 0
-19.29039 -6.124689 2.771815 0
-19.29039 -6.074688 2.771815 0
-19.54039 -6.074688 2.971815 0
-19.49039 -6.074688 2.971815 0
-19.64039 -6.074688 3.221815 0
-19.54039 -6.074688 3.221815 0
-19.49039 -6.074688 3.171815 0
-19.44039 -6.074688 2.871815 0
-19.44039 -6.124689 3.021815 0
-19.29039 -6.074688 2.871815 0
-19.34039 -6.074688 3.021815 0
-19.29039 -6.074688 3.221815 0
-19.24039 -6.074688 2.471815 0
-19.24039 -6.074688 2.521815 0
-19.19039 -6.124689 2.521815 0
-19.09039 -6.074688 2.471815 0
-19.14039 -6.124689 2.621815 0
-19.09039 -6.124689 2.621815 0
-19.24039 -6.074688 2.771815 0
-19.09039 -6.074688 2.821815 0
-19.04039 -6.124689 2.521815 0
-18.99039 -6.124689 2.521815 0
-19.04039 -6.124689 2.571815 0
-18.94039 -6.074688 2.521815 0
-18.89039 -6.124689 2.471815 0
-19.04039 -6.124689 2.721815 0
-19.04039 -6.124689 2.771815 0
-19.04039 -6.074688 2.771815 0
-19.24039 -6.074688 2.921815 0
-19.24039 -6.074688 3.021815 0
-19.14039 -6.124689 3.021815 0
-19.04039 -6.124689 2.921815 0
-18.99039 -6.124689 2.971815 0
-18.94039 -6.074688 2.871815 0
-19.04039 -6.124689 3.071815 0
-19.04039 -6.124689 3.121815 0
-18.89039 -6.124689 3.071815 0
-18.79039 -6.124689 1.721815 0
-18.84039 -6.074688 1.821815 0
-18.74039 -6.124689 1.771815 0
-18.74039 -6.074688 1.821815 0
-18.84039 -6.124689 1.921815 0
-18.84039 -6.074688 1.871815 0
-18.79039 -6.074688 1.871815 0
-18.84039 -6.124689 2.021815 0
-18.74039 -6.074688 1.871815 0
-18.69039 -6.124689 1.871815 0
-18.59039 -6.174689 1.671815 0
-18.59039 -6.124689 1.721815 0
-18.64039 -6.124689 1.821815 0
-18.49039 -6.174689 1.771815 0
-18.54039 -6.074688 1.821815 0
-18.49039 -6.124689 1.771815 0
-18.49039 -6.124689 1.821815 0
-18.64039 -6.124689 1.871815 0
-18.64039 -6.074688 1.871815 0
-18.64039 -6.074688 1.921815 0
-18.59039 -6.124689 1.921815 0
-18.59039 -6.124689 2.021815 0
-18.54039 -6.124689 1.921815 0
-18.54039 -6.124689 1.971815 0
-18.84039 -6.124689 2.071815 0
-18.84039 -6.074688 2.071815 0
-18.84039 -6.074688 2.121815 0
-18.79039 -6.074688 2.171815 0
-18.74039 -6.074688 2.071815 0
-18.74039 -6.124689 2.171815 0
-18.74039 -6.074688 2.171815 0
-18.79039 -6.124689 2.271815 0
-18.84039 -6.124689 2.371815 0
-18.84039 -6.074688 2.421815 0
-18.74039 -6.074688 2.421815 0
-18.64039 -6.074688 2.071815 0
-18.59039 -6.124689 2.121815 0
-18.64039 -6.124689 2.171815 0
-18.64039 -6.124689 2.221815 0
-18.49039 -6.174689 2.171815 0
-18.54039 -6.074688 2.071815 0
-18.54039 -6.124689 2.221815 0
-18.49039 -6.124689 2.171815 0
-18.49039 -6.124689 2.221815 0
-18.59039 -6.174689 2.421815 0
-18.59039 -6.124689 2.271815 0
-18.59039 -6.124689 2.421815 0
-18.44039 -6.124689 1.721815 0
-18.44039 -6.124689 1.821815 0
-18.34039 -6.124689 1.721815 0
-18.29039 -6.124689 1.721815 0
-18.34039 -6.124689 1.771815 0
-18.34039 -6.124689 1.821815 0
-18.44039 -6.124689 1.871815 0
-18.44039 -6.124689 1.921815 0
-18.44039 -6.074688 1.921815 0
-18.39039 -6.124689 1.871815 0
-18.44039 -6.124689 1.971815 0
-18.39039 -6.124689 1.971815 0
-18.29039 -6.124689 1.871815 0
-18.29039 -6.124689 1.921815 0
-18.34039 -6.124689 1.971815 0
-18.34039 -6.124689 2.021815 0
-18.29039 -6.124689 1.971815 0
-18.19039 -6.124689 1.671815 0
-18.19039 -6.124689 1.721815 0
-18.24039 -6.124689 1.821815 0
-18.19039 -6.124689 1.821815 0
-18.09039 -6.174689 1.721815 0
-18.09039 -6.124689 1.721815 0
-18.09039 -6.124689 1.771815 0
-18.19039 -6.174689 1.871815 0
-18.24039 -6.124689 1.871815 0
-18.19039 -6.124689 1.871815 0
-18.19039 -6.124689 1.971815 0
-18.14039 -6.124689 1.871815 0
-18.09039 -6.124689 1.871815 0
-18.09039 -6.124689 1.921815 0
-18.09039 -6.124689 1.971815 0
-18.09039 -6.124689 2.021815 0
-18.44039 -6.124689 2.071815 0
-18.39039 -6.124689 2.121815 0
-18.44039 -6.124689 2.221815 0
-18.39039 -6.124689 2.221815 0
-18.34039 -6.124689 2.071815 0
-18.34039 -6.124689 2.121815 0
-18.34039 -6.124689 2.221815 0
-18.29039 -6.124689 2.221815 0
-18.44039 -6.124689 2.271815 0
-18.34039 -6.124689 2.321815 0
