# .PCD v0.7 - Point Cloud Data file format
VERSION 0.7
FIELDS x y z intensity
SIZE 4 4 4 4
TYPE F F F F
COUNT 1 1 1 1
WIDTH 1621
HEIGHT 1
VIEWPOINT 0 0 0 1 0 0 0
POINTS 1621
DATA ascii
22.45961 47.92531 0.07181472 0
22.45961 47.92531 0.1218147 0
22.70961 47.57531 0.1218147 0
22.55961 47.87531 0.07181472 0
22.55961 47.92531 0.1218147 0
22.70961 47.77531 0.1718147 0
22.65961 47.87531 0.07181472 0
22.65961 47.92531 0.1218147 0
22.75961 47.87531 0.07181472 0
22.80961 47.87531 0.07181472 0
22.75961 47.87531 0.1718147 0
22.75961 47.92531 0.1718147 0
22.85961 47.92531 0.1718147 0
22.95961 47.87531 0.07181472 0
22.95961 47.87531 0.1718147 0
23.05961 47.87531 0.07181472 0
23.10961 47.87531 0.1718147 0
23.15961 47.57531 0.1718147 0
23.15961 47.87531 0.07181472 0
23.20961 47.87531 0.07181472 0
23.15961 47.87531 0.1718147 0
23.30961 47.87531 0.07181472 0
23.25961 47.87531 0.1718147 0
23.40961 47.87531 0.07181472 0
23.35961 47.87531 0.1718147 0
23.40961 47.87531 0.1718147 0
23.45961 47.87531 0.07181472 0
23.45961 47.87531 0.1718147 0
23.50961 47.87531 0.1718147 0
21.95961 48.02531 0.1218147 0
22.10961 47.97531 0.1218147 0
22.05961 48.02531 0.1718147 0
22.80961 47.97531 0.1718147 0
22.85961 48.12531 0.1718147 0
22.95961 48.22531 0.1718147 0
23.00961 48.32531 0.1718147 0
23.05961 48.42531 0.1718147 0
23.10961 48.57531 0.1718147 0
23.15961 48.67531 0.1718147 0
23.20961 48.77531 0.1718147 0
23.25961 48.92531 0.1718147 0
23.35961 49.02531 0.1718147 0
23.40961 49.12531 0.1718147 0
23.45961 49.22531 0.1718147 0
23.50961 49.37531 0.1718147 0
20.35961 50.62531 0.1218147 0
20.45961 50.72531 0.1218147 0
20.50961 50.82531 0.1218147 0
20.60961 50.87531 0.1218147 0
21.90961 49.62531 0.1218147 0
21.95961 49.72531 0.1218147 0
22.05961 49.82531 0.1218147 0
22.10961 49.92531 0.1218147 0
22.15961 50.02531 0.1218147 0
22.25961 50.12531 0.1218147 0
22.30961 50.22531 0.1218147 0
22.40961 50.32531 0.1218147 0
22.50961 50.42531 0.1218147 0
22.55961 50.52531 0.1218147 0
22.65961 50.62531 0.1218147 0
22.75961 50.72531 0.1218147 0
23.40961 51.87531 0.7718147 0
23.50961 51.77531 0.7718147 0
23.45961 51.87531 0.7718147 0
23.40961 51.77531 1.021815 0
23.35961 51.92531 1.071815 0
23.40961 51.92531 1.071815 0
23.45961 51.82531 1.071815 0
23.50961 51.77531 1.071815 0
23.45961 51.87531 1.121815 0
23.50961 51.92531 1.221815 0
23.50961 51.77531 1.321815 0
23.45961 51.92531 1.371815 0
23.10961 52.32531 0.7718147 0
23.00961 52.42531 0.7718147 0
23.00961 52.47531 0.8218147 0
23.05961 52.42531 0.8218147 0
23.30961 52.02531 0.7718147 0
23.25961 52.12531 0.7718147 0
23.15961 52.22531 0.7718147 0
23.20961 52.22531 0.8218147 0
23.15961 52.27531 0.8218147 0
23.35961 51.97531 0.7718147 0
23.40961 51.97531 0.7718147 0
23.35961 52.07531 0.7718147 0
23.10961 52.42531 1.121815 0
23.10961 52.47531 1.071815 0
23.10961 52.52531 1.121815 0
23.05961 52.67531 1.121815 0
23.30961 52.02531 1.071815 0
23.25961 52.12531 1.071815 0
23.15961 52.27531 1.071815 0
23.20961 52.27531 1.071815 0
23.50961 52.22531 1.071815 0
23.45961 52.32531 1.071815 0
23.40961 52.02531 1.321815 0
23.35961 52.02531 1.421815 0
23.45961 52.07531 1.371815 0
23.40961 52.27531 1.421815 0
23.50961 52.27531 1.371815 0
23.15961 52.37531 1.121815 0
23.30961 52.62531 1.421815 0
23.25961 52.72531 1.421815 0
23.35961 52.37531 1.371815 0
23.35961 52.47531 1.421815 0
23.50961 52.37531 1.371815 0
23.30961 52.72531 1.921815 0
23.35961 52.57531 1.721815 0
23.35961 52.67531 1.721815 0
23.50961 52.57531 1.871815 0
23.45961 52.72531 2.071815 0
23.50961 52.67531 2.071815 0
23.55961 47.57531 0.1718147 0
23.55961 47.87531 0.07181472 0
23.55961 47.87531 0.1718147 0
23.60961 47.87531 0.1718147 0
23.65961 47.87531 0.1218147 0
23.65961 47.87531 0.1718147 0
23.75961 47.87531 0.1218147 0
23.80961 47.87531 0.1218147 0
23.75961 47.87531 0.1718147 0
23.90961 47.87531 0.1218147 0
23.90961 47.87531 0.1718147 0
23.95961 47.57531 0.1718147 0
23.95961 47.87531 0.1218147 0
24.05961 47.87531 0.1218147 0
24.30961 47.57531 0.1718147 0
24.15961 47.87531 0.1218147 0
24.25961 47.82531 0.1218147 0
24.30961 47.87531 0.1218147 0
24.35961 47.47531 0.1718147 0
24.40961 47.82531 0.07181472 0
24.35961 47.87531 0.1218147 0
24.40961 47.87531 0.1218147 0
24.45961 47.82531 0.1218147 0
24.50961 47.82531 0.07181472 0
24.65961 47.57531 0.1718147 0
24.55961 47.82531 0.1218147 0
24.60961 47.82531 0.07181472 0
24.65961 47.82531 0.1218147 0
24.70961 47.82531 0.07181472 0
24.80961 47.47531 0.1718147 0
24.75961 47.82531 0.1218147 0
24.80961 47.82531 0.07181472 0
24.85961 47.82531 0.1218147 0
24.90961 47.82531 0.07181472 0
24.95961 47.57531 0.1718147 0
24.95961 47.72531 0.1718147 0
24.95961 47.82531 0.1218147 0
25.00961 47.77531 0.07181472 0
25.05961 47.82531 0.1218147 0
25.10961 47.77531 0.07181472 0
25.05961 47.82531 0.1718147 0
25.10961 47.92531 0.1718147 0
23.60961 49.47531 0.1718147 0
25.20961 47.47531 0.1718147 0
25.15961 47.82531 0.1218147 0
25.20961 47.77531 0.07181472 0
25.25961 47.82531 0.1218147 0
25.30961 47.77531 0.07181472 0
25.35961 47.82531 0.1218147 0
25.40961 47.77531 0.07181472 0
25.45961 47.82531 0.1218147 0
25.50961 47.77531 0.07181472 0
25.65961 47.42531 0.1718147 0
25.55961 47.77531 0.1218147 0
25.60961 47.77531 0.07181472 0
25.65961 47.77531 0.1218147 0
25.70961 47.77531 0.07181472 0
25.75961 47.77531 0.1218147 0
25.80961 47.77531 0.07181472 0
25.85961 47.77531 0.1218147 0
25.90961 47.77531 0.07181472 0
26.10961 47.27531 0.1718147 0
26.00961 47.42531 0.1718147 0
25.95961 47.77531 0.1218147 0
26.00961 47.77531 0.07181472 0
26.05961 47.77531 0.1218147 0
26.10961 47.77531 0.07181472 0
26.15961 47.72531 0.07181472 0
26.25961 47.72531 0.07181472 0
26.15961 47.77531 0.1218147 0
26.20961 47.77531 0.07181472 0
26.25961 47.77531 0.1218147 0
26.30961 47.77531 0.07181472 0
26.40961 47.42531 0.1718147 0
26.55961 47.27531 0.1718147 0
26.70961 47.42531 0.1718147 0
26.40961 47.72531 0.07181472 0
26.40961 47.72531 0.1218147 0
26.45961 47.72531 0.07181472 0
26.50961 47.72531 0.1218147 0
26.35961 47.77531 0.1218147 0
26.45961 47.77531 0.1218147 0
26.50961 47.77531 0.1218147 0
26.55961 47.72531 0.07181472 0
26.60961 47.72531 0.07181472 0
26.60961 47.72531 0.1218147 0
26.65961 47.72531 0.07181472 0
26.70961 47.72531 0.1218147 0
25.15961 48.02531 0.1718147 0
25.20961 48.17531 0.1718147 0
25.25961 48.27531 0.1718147 0
25.30961 48.37531 0.1718147 0
25.35961 48.52531 0.1718147 0
25.45961 48.62531 0.1718147 0
25.50961 48.72531 0.1718147 0
25.55961 48.82531 0.1718147 0
25.60961 48.92531 0.1718147 0
25.70961 49.02531 0.1718147 0
25.75961 49.17531 0.1718147 0
25.80961 49.27531 0.1718147 0
25.90961 49.37531 0.1718147 0
25.95961 49.47531 0.1718147 0
23.65961 49.57531 0.1718147 0
23.70961 49.67531 0.1718147 0
23.80961 49.77531 0.1718147 0
23.85961 49.87531 0.1718147 0
23.95961 50.02531 0.1718147 0
24.00961 50.12531 0.1718147 0
24.10961 50.22531 0.1718147 0
24.15961 50.32531 0.1718147 0
24.25961 50.42531 0.1718147 0
24.30961 50.52531 0.1718147 0
24.40961 50.62531 0.1718147 0
24.35961 50.97531 2.171815 0
24.60961 51.07531 2.171815 0
23.90961 51.32531 0.8218147 0
23.55961 51.67531 0.7218148 0
23.55961 51.67531 0.7718147 0
23.60961 51.67531 0.7718147 0
23.65961 51.62531 0.7718147 0
24.05961 51.32531 0.8218147 0
24.15961 51.32531 0.8218147 0
24.30961 51.27531 0.8218147 0
23.55961 51.72531 1.021815 0
23.65961 51.67531 1.021815 0
23.60961 51.72531 1.071815 0
23.65961 51.72531 1.121815 0
23.90961 51.67531 1.021815 0
23.75961 51.62531 1.071815 0
23.75961 51.67531 1.071815 0
23.75961 51.72531 1.221815 0
23.90961 51.57531 1.071815 0
23.75961 51.82531 1.021815 0
23.85961 51.77531 1.021815 0
23.75961 51.87531 1.071815 0
23.60961 51.57531 1.371815 0
23.55961 51.72531 1.321815 0
23.60961 51.72531 1.321815 0
23.70961 51.67531 1.321815 0
23.60961 51.82531 1.421815 0
23.65961 51.87531 1.371815 0
23.75961 51.72531 1.421815 0
23.85961 51.67531 1.421815 0
23.85961 51.92531 1.321815 0
23.90961 51.87531 1.321815 0
23.80961 51.82531 1.571815 0
23.85961 51.92531 1.621815 0
23.90961 51.87531 1.621815 0
24.05961 51.27531 1.021815 0
23.95961 51.22531 1.171815 0
23.95961 51.37531 0.9218147 0
24.05961 51.47531 1.071815 0
24.15961 51.32531 0.9218147 0
24.25961 51.27531 1.021815 0
24.15961 51.27531 1.121815 0
24.30961 51.32531 1.221815 0
24.15961 51.42531 1.021815 0
24.20961 51.42531 1.021815 0
24.25961 51.47531 1.021815 0
24.30961 51.47531 1.021815 0
24.15961 51.47531 1.071815 0
24.25961 51.52531 1.071815 0
24.10961 51.42531 1.471815 0
24.15961 51.22531 1.371815 0
24.15961 51.47531 1.371815 0
24.25961 51.42531 1.371815 0
24.00961 51.57531 1.021815 0
24.05961 51.57531 1.021815 0
24.00961 51.57531 1.171815 0
24.15961 51.57531 1.021815 0
24.15961 51.57531 1.171815 0
24.25961 51.57531 1.171815 0
24.00961 51.57531 1.371815 0
24.05961 51.62531 1.321815 0
24.05961 51.67531 1.571815 0
23.95961 51.82531 1.321815 0
24.05961 51.77531 1.321815 0
23.95961 51.92531 1.621815 0
24.00961 51.87531 1.621815 0
24.10961 51.82531 1.621815 0
24.05961 51.87531 1.621815 0
24.15961 51.72531 1.321815 0
24.20961 51.67531 1.321815 0
24.25961 51.72531 1.321815 0
24.30961 51.72531 1.321815 0
24.15961 51.72531 1.471815 0
24.25961 51.57531 1.521815 0
24.25961 51.72531 1.571815 0
24.25961 51.72531 1.621815 0
24.30961 51.67531 1.571815 0
24.20961 51.82531 1.421815 0
24.25961 51.77531 1.321815 0
24.30961 51.87531 1.421815 0
24.15961 51.77531 1.621815 0
24.30961 51.77531 1.471815 0
24.25961 52.62531 0.1218147 0
24.30961 52.72531 0.1718147 0
23.60961 52.12531 1.071815 0
23.65961 52.02531 1.071815 0
23.70961 51.97531 1.071815 0
23.60961 52.12531 1.371815 0
23.70961 52.02531 1.321815 0
23.65961 52.02531 1.371815 0
23.75961 51.97531 1.321815 0
23.75961 51.97531 1.621815 0
23.85961 51.97531 1.621815 0
24.45961 51.27531 0.8218147 0
24.70961 51.37531 0.8218147 0
24.80961 51.42531 0.8218147 0
24.35961 51.32531 0.9218147 0
24.40961 51.32531 1.021815 0
24.50961 51.27531 0.9218147 0
24.35961 51.32531 1.121815 0
24.35961 51.47531 1.021815 0
24.40961 51.52531 1.021815 0
24.35961 51.52531 1.071815 0
24.60961 51.32531 1.021815 0
24.70961 51.27531 0.9218147 0
24.60961 51.32531 1.121815 0
24.60961 51.32531 1.221815 0
24.55961 51.52531 1.021815 0
24.70961 51.42531 0.9218147 0
24.65961 51.52531 1.021815 0
24.70961 51.52531 1.021815 0
24.50961 51.27531 1.371815 0
24.40961 51.47531 1.521815 0
24.60961 51.42531 1.471815 0
24.65961 51.52531 1.571815 0
24.70961 51.52531 1.571815 0
24.35961 51.62531 1.171815 0
24.50961 51.57531 1.071815 0
24.45961 51.62531 1.171815 0
24.60961 51.57531 1.071815 0
24.55961 51.67531 1.171815 0
24.70961 51.57531 1.071815 0
24.70961 51.62531 1.171815 0
24.45961 51.72531 1.321815 0
24.40961 51.67531 1.571815 0
24.45961 51.62531 1.571815 0
24.50961 51.62531 1.571815 0
24.35961 51.77531 1.321815 0
24.40961 51.82531 1.321815 0
24.40961 51.87531 1.421815 0
24.45961 51.82531 1.321815 0
24.50961 51.82531 1.321815 0
24.50961 51.92531 1.421815 0
24.45961 51.82531 1.471815 0
24.60961 51.72531 1.321815 0
24.60961 51.57531 1.571815 0
24.65961 51.57531 1.571815 0
24.55961 51.87531 1.321815 0
24.60961 51.87531 1.371815 0
24.60961 51.92531 1.421815 0
24.65961 51.87531 1.321815 0
24.60961 51.82531 1.471815 0
24.80961 51.27531 1.021815 0
24.85961 51.32531 1.121815 0
24.90961 51.32531 1.221815 0
24.75961 51.47531 1.021815 0
24.80961 51.47531 1.021815 0
24.80961 51.52531 1.021815 0
24.85961 51.42531 0.9218147 0
24.85961 51.47531 1.021815 0
24.90961 51.52531 1.021815 0
24.90961 51.52531 1.071815 0
25.10961 51.32531 1.121815 0
24.95961 51.47531 0.9218147 0
24.95961 51.52531 1.021815 0
25.05961 51.52531 1.021815 0
25.00961 51.52531 1.071815 0
25.05961 51.52531 1.121815 0
24.85961 51.27531 1.321815 0
24.85961 51.17531 1.471815 0
24.90961 51.27531 1.571815 0
24.75961 51.52531 1.571815 0
24.80961 51.52531 1.571815 0
25.05961 51.37531 1.321815 0
24.95961 51.42531 1.571815 0
25.00961 51.52531 1.621815 0
25.05961 51.52531 1.471815 0
24.80961 51.57531 1.071815 0
24.80961 51.62531 1.171815 0
24.95961 51.62531 1.171815 0
25.10961 51.57531 1.071815 0
25.05961 51.62531 1.171815 0
24.75961 51.72531 1.321815 0
24.90961 51.72531 1.271815 0
24.75961 51.87531 1.321815 0
24.80961 51.87531 1.321815 0
24.75961 51.87531 1.371815 0
24.80961 51.92531 1.421815 0
24.90961 51.87531 1.321815 0
24.90961 51.87531 1.371815 0
24.85961 51.82531 1.471815 0
25.10961 51.57531 1.321815 0
25.05961 51.72531 1.271815 0
25.00961 51.57531 1.571815 0
25.05961 51.57531 1.571815 0
25.10961 51.67531 1.621815 0
25.00961 51.87531 1.321815 0
24.95961 51.92531 1.371815 0
25.00961 51.87531 1.371815 0
25.05961 51.82531 1.421815 0
25.10961 51.87531 1.321815 0
25.05961 51.87531 1.371815 0
25.05961 51.92531 1.371815 0
25.10961 51.77531 1.571815 0
24.35961 52.67531 0.1218147 0
24.40961 52.67531 0.1218147 0
24.35961 52.67531 0.5718147 0
24.40961 52.67531 0.6218147 0
24.35961 51.97531 1.571815 0
24.45961 52.02531 1.571815 0
24.65961 51.97531 1.421815 0
24.55961 52.07531 1.571815 0
24.70961 52.07531 1.571815 0
24.85961 51.97531 1.421815 0
24.80961 52.07531 1.571815 0
23.85961 51.92531 1.921815 0
23.90961 51.87531 1.871815 0
24.20961 51.22531 2.021815 0
24.00961 51.87531 1.771815 0
24.00961 51.77531 1.921815 0
23.95961 51.87531 1.921815 0
24.05961 51.77531 1.871815 0
24.05961 51.82531 1.921815 0
24.30961 51.72531 1.721815 0
24.15961 51.72531 1.871815 0
24.20961 51.92531 1.721815 0
24.30961 51.87531 1.721815 0
24.15961 51.92531 2.071815 0
24.15961 51.87531 2.171815 0
24.20961 51.92531 2.221815 0
24.10961 51.92531 2.721815 0
24.25961 51.72531 2.971815 0
23.60961 51.97531 1.821815 0
23.70961 52.02531 1.921815 0
23.65961 52.07531 1.971815 0
23.65961 52.12531 1.971815 0
23.70961 52.17531 1.671815 0
23.55961 52.17531 1.971815 0
23.75961 52.02531 1.671815 0
23.80961 52.07531 1.671815 0
23.90961 52.02531 1.671815 0
23.90961 52.12531 1.771815 0
23.75961 51.97531 1.921815 0
23.75961 51.97531 1.971815 0
23.75961 52.02531 1.971815 0
23.80961 52.02531 1.971815 0
23.85961 51.97531 1.971815 0
23.75961 52.17531 1.721815 0
23.70961 52.27531 2.171815 0
23.90961 52.17531 2.121815 0
23.80961 52.22531 2.271815 0
23.85961 52.17531 2.271815 0
23.90961 52.17531 2.271815 0
23.85961 52.22531 2.371815 0
23.85961 52.27531 2.321815 0
23.70961 52.37531 1.721815 0
23.65961 52.52531 1.721815 0
23.70961 52.52531 1.771815 0
23.55961 52.42531 2.021815 0
23.65961 52.72531 1.771815 0
23.55961 52.72531 1.871815 0
23.60961 52.57531 2.071815 0
23.85961 52.42531 2.371815 0
23.85961 52.67531 2.421815 0
24.05961 52.02531 1.771815 0
23.95961 52.22531 1.971815 0
24.15961 52.12531 1.971815 0
24.30961 52.12531 1.971815 0
24.20961 52.22531 1.971815 0
24.25961 52.17531 1.971815 0
23.95961 52.12531 2.221815 0
24.05961 52.02531 2.071815 0
24.05961 52.02531 2.221815 0
24.10961 51.97531 2.221815 0
24.10961 52.02531 2.221815 0
24.00961 52.07531 2.271815 0
24.10961 51.97531 2.321815 0
24.10961 51.97531 2.421815 0
23.95961 52.22531 2.321815 0
24.10961 52.27531 2.371815 0
24.20961 52.12531 2.271815 0
24.20961 52.12531 2.421815 0
24.25961 52.12531 2.271815 0
24.30961 52.07531 2.271815 0
23.80961 52.27531 2.771815 0
23.70961 52.62531 2.721815 0
23.65961 52.72531 2.771815 0
23.80961 52.42531 2.621815 0
23.90961 52.37531 2.621815 0
23.85961 52.47531 2.521815 0
23.75961 52.52531 2.671815 0
23.80961 52.47531 2.721815 0
23.90961 52.37531 2.671815 0
23.90961 52.37531 2.721815 0
23.85961 52.37531 2.771815 0
23.75961 52.42531 2.871815 0
23.90961 52.37531 2.871815 0
24.10961 52.12531 2.771815 0
24.00961 52.22531 2.471815 0
23.95961 52.17531 2.621815 0
23.95961 52.27531 2.571815 0
24.00961 52.27531 2.621815 0
24.10961 52.17531 2.571815 0
24.10961 52.22531 2.621815 0
24.05961 52.27531 2.471815 0
24.00961 52.32531 2.671815 0
24.20961 52.02531 2.571815 0
24.20961 52.12531 2.571815 0
24.25961 52.12531 2.571815 0
24.30961 52.12531 2.571815 0
24.30961 52.12531 2.671815 0
24.15961 52.17531 2.721815 0
24.15961 52.32531 2.821815 0
24.25961 52.22531 2.771815 0
24.00961 52.27531 2.971815 0
24.30961 52.07531 3.021815 0
24.40961 51.32531 1.971815 0
24.50961 51.37531 1.771815 0
24.35961 51.52531 1.921815 0
24.65961 51.42531 1.971815 0
24.45961 51.37531 2.221815 0
24.60961 51.52531 2.121815 0
24.45961 51.62531 1.921815 0
24.45961 51.67531 1.971815 0
24.45961 51.77531 1.721815 0
24.35961 51.77531 2.021815 0
24.45961 51.92531 2.021815 0
24.55961 51.57531 1.671815 0
24.55961 51.72531 1.671815 0
24.65961 51.67531 1.671815 0
24.55961 51.72531 1.871815 0
24.60961 51.67531 1.921815 0
24.55961 51.77531 1.871815 0
24.60961 51.77531 1.871815 0
24.60961 51.77531 1.921815 0
24.65961 51.82531 1.871815 0
24.70961 51.82531 1.871815 0
24.70961 51.87531 1.921815 0
24.50961 51.92531 2.271815 0
24.45961 51.92531 2.371815 0
24.55961 51.62531 2.071815 0
24.65961 51.67531 2.071815 0
24.55961 51.72531 2.371815 0
24.55961 51.87531 2.221815 0
24.55961 51.92531 2.221815 0
24.65961 51.92531 2.221815 0
24.75961 51.42531 1.771815 0
24.80961 51.47531 1.671815 0
24.90961 51.47531 1.971815 0
24.80961 51.42531 2.171815 0
24.80961 51.62531 1.671815 0
24.85961 51.57531 1.671815 0
24.90961 51.62531 1.671815 0
24.85961 51.57531 1.771815 0
24.90961 51.72531 1.771815 0
24.75961 51.72531 1.921815 0
24.80961 51.82531 1.871815 0
24.75961 51.77531 1.971815 0
24.75961 51.87531 1.921815 0
24.90961 51.77531 1.871815 0
24.90961 51.87531 1.871815 0
24.90961 51.92531 1.971815 0
24.95961 51.67531 1.671815 0
24.95961 51.72531 1.671815 0
25.00961 51.77531 1.671815 0
25.00961 51.82531 1.771815 0
25.00961 51.87531 1.671815 0
25.05961 51.92531 1.671815 0
25.00961 51.87531 1.871815 0
24.80961 51.57531 2.121815 0
24.80961 51.67531 2.071815 0
24.90961 51.72531 2.071815 0
24.80961 51.92531 2.121815 0
24.90961 51.87531 2.171815 0
24.80961 51.77531 2.371815 0
24.75961 51.87531 2.371815 0
24.95961 51.62531 2.071815 0
24.95961 51.62531 2.171815 0
25.00961 51.77531 2.071815 0
24.95961 51.87531 2.371815 0
24.40961 51.57531 2.621815 0
24.40961 51.87531 2.671815 0
24.55961 51.67531 2.621815 0
24.70961 51.82531 2.621815 0
24.45961 51.82531 2.971815 0
24.55961 51.57531 2.921815 0
24.60961 51.92531 2.971815 0
24.75961 51.72531 2.871815 0
24.80961 51.92531 2.871815 0
24.35961 52.12531 1.971815 0
24.40961 52.07531 1.971815 0
24.45961 52.07531 1.921815 0
24.50961 52.07531 1.971815 0
24.55961 52.02531 1.971815 0
24.35961 52.02531 2.221815 0
24.40961 52.02531 2.221815 0
24.45961 51.97531 2.221815 0
24.35961 52.02531 2.321815 0
24.35961 52.02531 2.421815 0
24.50961 51.97531 2.421815 0
24.50961 52.17531 2.421815 0
24.55961 52.02531 2.071815 0
24.65961 52.07531 2.071815 0
24.70961 52.12531 2.071815 0
24.65961 51.97531 2.271815 0
24.60961 52.22531 2.421815 0
24.80961 51.97531 1.921815 0
24.80961 51.97531 1.971815 0
24.85961 52.02531 1.921815 0
24.90961 51.97531 1.921815 0
24.90961 52.02531 1.971815 0
24.90961 52.12531 1.921815 0
24.80961 52.22531 1.671815 0
24.90961 52.27531 1.671815 0
25.05961 52.02531 1.721815 0
25.10961 52.02531 1.671815 0
25.10961 52.12531 1.721815 0
25.00961 52.02531 1.921815 0
25.00961 52.02531 1.971815 0
25.10961 52.02531 1.921815 0
25.10961 52.07531 1.971815 0
25.00961 52.22531 1.921815 0
24.95961 52.27531 1.921815 0
25.10961 52.22531 1.971815 0
25.10961 52.32531 1.921815 0
24.75961 51.97531 2.221815 0
24.80961 52.02531 2.221815 0
24.80961 52.12531 2.071815 0
24.85961 52.02531 2.221815 0
24.90961 52.12531 2.071815 0
24.90961 52.12531 2.121815 0
24.85961 52.12531 2.221815 0
24.90961 52.07531 2.221815 0
24.75961 51.97531 2.271815 0
24.75961 51.97531 2.371815 0
24.85961 51.97531 2.371815 0
24.85961 52.07531 2.271815 0
24.85961 52.07531 2.371815 0
24.90961 52.22531 2.421815 0
25.00961 51.97531 2.121815 0
24.95961 52.02531 2.221815 0
25.05961 52.12531 2.121815 0
25.05961 52.07531 2.221815 0
25.10961 52.12531 2.221815 0
24.95961 52.12531 2.271815 0
25.00961 52.12531 2.271815 0
24.95961 52.12531 2.371815 0
25.00961 52.17531 2.071815 0
25.10961 52.17531 2.071815 0
25.10961 52.22531 2.121815 0
24.95961 52.32531 2.421815 0
25.05961 52.22531 2.321815 0
25.10961 52.17531 2.271815 0
25.05961 52.17531 2.371815 0
25.00961 52.37531 1.921815 0
25.10961 52.47531 1.921815 0
25.10961 52.47531 2.021815 0
25.05961 52.72531 2.021815 0
25.00961 52.37531 2.171815 0
25.05961 52.37531 2.421815 0
25.05961 52.47531 2.371815 0
24.95961 52.62531 2.171815 0
25.00961 52.57531 2.171815 0
24.40961 51.97531 2.571815 0
24.35961 52.12531 2.571815 0
24.40961 52.12531 2.571815 0
24.50961 52.07531 2.571815 0
24.50961 52.12531 2.571815 0
24.40961 52.12531 2.671815 0
24.40961 52.22531 2.771815 0
24.50961 52.22531 2.771815 0
24.60961 51.97531 2.521815 0
24.55961 52.12531 2.571815 0
24.65961 52.07531 2.521815 0
24.65961 52.12531 2.571815 0
24.55961 51.97531 2.671815 0
24.55961 52.12531 2.671815 0
24.70961 52.02531 2.671815 0
24.70961 52.12531 2.721815 0
24.70961 52.17531 2.571815 0
24.60961 52.22531 2.771815 0
24.65961 52.17531 2.671815 0
24.40961 52.02531 2.971815 0
24.50961 51.97531 2.871815 0
24.45961 52.07531 2.971815 0
24.40961 52.12531 3.071815 0
24.45961 52.02531 3.221815 0
24.50961 52.22531 3.071815 0
24.65961 52.02531 2.871815 0
24.60961 52.12531 3.221815 0
24.60961 52.17531 2.971815 0
24.70961 52.22531 2.971815 0
24.60961 52.22531 3.071815 0
24.70961 52.22531 3.221815 0
24.70961 52.27531 3.071815 0
24.80961 51.97531 2.621815 0
24.75961 52.12531 2.521815 0
24.80961 52.22531 2.621815 0
24.80961 52.27531 2.621815 0
24.85961 52.17531 2.521815 0
24.90961 52.32531 2.571815 0
24.80961 52.17531 2.671815 0
24.80961 52.22531 2.721815 0
24.75961 52.27531 2.671815 0
24.85961 52.32531 2.671815 0
24.90961 52.27531 2.771815 0
24.95961 52.12531 2.621815 0
24.75961 52.12531 2.871815 0
24.75961 52.07531 2.971815 0
24.85961 52.12531 2.921815 0
24.75961 52.32531 2.971815 0
24.85961 52.22531 2.871815 0
24.85961 52.17531 2.971815 0
24.80961 52.32531 3.221815 0
24.95961 52.32531 2.871815 0
24.90961 52.37531 2.621815 0
24.85961 52.42531 2.671815 0
24.90961 52.37531 2.671815 0
24.90961 52.57531 2.721815 0
25.00961 52.42531 2.571815 0
25.10961 52.47531 2.571815 0
25.00961 52.42531 2.671815 0
24.95961 52.37531 2.771815 0
25.05961 52.47531 2.771815 0
25.10961 52.67531 2.571815 0
25.00961 52.62531 2.671815 0
25.00961 52.67531 2.721815 0
25.05961 52.57531 2.721815 0
25.10961 52.67531 2.821815 0
24.85961 52.37531 2.971815 0
24.90961 52.37531 2.971815 0
24.90961 52.52531 3.021815 0
24.75961 52.37531 3.071815 0
24.85961 52.47531 3.071815 0
24.85961 52.62531 3.021815 0
24.80961 52.57531 3.221815 0
24.90961 52.62531 3.121815 0
24.95961 52.47531 2.871815 0
24.95961 52.67531 3.021815 0
25.05961 52.62531 2.871815 0
26.05961 49.57531 0.1718147 0
26.10961 49.67531 0.1718147 0
26.20961 49.77531 0.1718147 0
26.25961 49.87531 0.1718147 0
26.35961 49.97531 0.1718147 0
26.40961 50.07531 0.1718147 0
26.50961 50.17531 0.1718147 0
26.55961 50.27531 0.1718147 0
26.65961 50.37531 0.1718147 0
26.70961 50.47531 0.1718147 0
25.20961 51.27531 1.221815 0
25.15961 51.52531 0.9718148 0
25.20961 51.52531 1.021815 0
25.15961 51.52531 1.071815 0
25.25961 51.47531 1.221815 0
25.20961 51.22531 1.471815 0
25.15961 51.72531 1.021815 0
25.15961 51.62531 1.171815 0
25.25961 51.57531 1.121815 0
25.25961 51.62531 1.121815 0
25.25961 51.67531 1.221815 0
25.25961 51.77531 1.021815 0
25.20961 51.77531 1.071815 0
25.30961 51.77531 1.071815 0
25.40961 51.62531 1.121815 0
25.35961 51.67531 1.171815 0
25.35961 51.77531 1.021815 0
25.50961 51.82531 1.021815 0
25.40961 51.82531 1.071815 0
25.35961 51.82531 1.221815 0
25.40961 51.87531 1.171815 0
25.45961 51.77531 1.121815 0
25.50961 51.77531 1.071815 0
25.50961 51.92531 1.121815 0
25.20961 51.72531 1.271815 0
25.20961 51.72531 1.321815 0
25.30961 51.72531 1.421815 0
25.15961 51.67531 1.471815 0
25.15961 51.72531 1.471815 0
25.15961 51.87531 1.321815 0
25.15961 51.87531 1.371815 0
25.25961 51.87531 1.271815 0
25.30961 51.87531 1.321815 0
25.20961 51.77531 1.471815 0
25.20961 51.82531 1.621815 0
25.20961 51.92531 1.471815 0
25.25961 51.87531 1.521815 0
25.30961 51.92531 1.621815 0
25.35961 51.82531 1.421815 0
25.40961 51.77531 1.371815 0
25.45961 51.92531 1.371815 0
25.50961 51.92531 1.421815 0
25.55961 51.82531 0.9718148 0
25.40961 52.02531 1.171815 0
25.45961 51.97531 1.221815 0
25.45961 52.12531 1.171815 0
25.50961 52.12531 1.221815 0
25.15961 52.02531 1.421815 0
25.30961 52.02531 1.321815 0
25.25961 52.07531 1.321815 0
25.15961 51.97531 1.621815 0
25.30961 51.97531 1.521815 0
25.30961 52.12531 1.471815 0
25.20961 52.17531 1.421815 0
25.25961 52.32531 1.471815 0
25.35961 52.07531 1.321815 0
25.35961 52.12531 1.321815 0
25.40961 52.02531 1.621815 0
25.40961 52.07531 1.521815 0
25.45961 52.12531 1.521815 0
25.50961 52.12531 1.571815 0
25.40961 52.27531 1.321815 0
25.35961 52.32531 1.371815 0
25.45961 52.22531 1.321815 0
25.35961 52.32531 1.471815 0
25.45961 52.37531 1.321815 0
25.50961 52.42531 1.371815 0
25.50961 52.52531 1.321815 0
25.35961 52.47531 1.471815 0
25.45961 52.52531 1.471815 0
25.45961 52.57531 1.421815 0
25.40961 52.62531 1.471815 0
25.45961 52.62531 1.471815 0
25.60961 51.97531 1.021815 0
25.55961 51.97531 1.121815 0
25.55961 52.02531 1.071815 0
25.60961 52.07531 1.071815 0
25.60961 52.07531 1.121815 0
25.60961 52.17531 1.021815 0
25.70961 52.27531 1.021815 0
25.60961 52.17531 1.071815 0
25.55961 52.27531 1.171815 0
25.60961 52.27531 1.221815 0
25.65961 52.17531 1.121815 0
25.65961 52.32531 1.121815 0
25.75961 52.17531 0.9218147 0
25.80961 52.32531 0.9218147 0
25.75961 52.32531 1.071815 0
25.75961 52.32531 1.121815 0
25.55961 52.02531 1.371815 0
25.60961 52.12531 1.371815 0
25.55961 52.22531 1.521815 0
25.65961 52.22531 1.571815 0
25.65961 52.27531 1.521815 0
25.60961 52.37531 1.221815 0
25.65961 52.42531 1.221815 0
25.65961 52.52531 1.221815 0
25.70961 52.57531 1.121815 0
25.65961 52.62531 1.221815 0
25.70961 52.67531 1.221815 0
25.75961 52.42531 1.021815 0
25.80961 52.52531 1.021815 0
25.85961 52.42531 0.9218147 0
25.75961 52.47531 1.121815 0
25.80961 52.62531 1.121815 0
25.80961 52.67531 1.121815 0
25.85961 52.62531 1.121815 0
25.70961 52.37531 1.521815 0
25.55961 52.62531 1.321815 0
25.60961 52.57531 1.371815 0
25.15961 51.97531 1.771815 0
25.20961 52.12531 1.721815 0
25.25961 52.07531 1.771815 0
25.15961 52.02531 1.921815 0
25.15961 51.97531 1.971815 0
25.20961 52.12531 2.021815 0
25.25961 52.07531 1.921815 0
25.20961 52.27531 1.721815 0
25.25961 52.17531 1.671815 0
25.25961 52.22531 1.721815 0
25.30961 52.22531 1.721815 0
25.30961 52.27531 1.921815 0
25.40961 52.17531 1.771815 0
25.35961 52.27531 1.671815 0
25.40961 52.27531 1.721815 0
25.35961 52.17531 2.021815 0
25.35961 52.22531 1.971815 0
25.15961 51.97531 2.321815 0
25.25961 52.07531 2.321815 0
25.20961 52.22531 2.071815 0
25.25961 52.22531 2.221815 0
25.20961 52.22531 2.371815 0
25.20961 52.27531 2.271815 0
25.20961 52.32531 2.371815 0
25.25961 52.32531 2.321815 0
25.40961 52.27531 2.221815 0
25.25961 52.37531 1.771815 0
25.20961 52.52531 1.921815 0
25.30961 52.52531 1.921815 0
25.25961 52.57531 1.921815 0
25.40961 52.37531 1.721815 0
25.35961 52.42531 1.771815 0
25.45961 52.37531 1.671815 0
25.45961 52.37531 1.721815 0
25.45961 52.52531 1.771815 0
25.35961 52.67531 1.821815 0
25.50961 52.57531 1.771815 0
25.15961 52.47531 2.371815 0
25.15961 52.47531 2.421815 0
25.30961 52.42531 2.371815 0
25.25961 52.57531 2.371815 0
25.35961 52.37531 2.321815 0
25.35961 52.72531 2.171815 0
25.50961 52.72531 2.121815 0
25.55961 52.42531 1.721815 0
25.55961 52.52531 1.721815 0
25.55961 52.57531 1.771815 0
25.65961 52.62531 1.721815 0
25.60961 52.72531 2.121815 0
25.20961 52.52531 2.471815 0
25.15961 52.62531 2.771815 0
25.20961 52.67531 2.721815 0
24.30961 51.92531 3.621815 0
24.20961 51.92531 4.021815 0
24.05961 52.17531 3.471815 0
24.25961 51.97531 3.271815 0
24.30961 52.12531 3.421815 0
24.25961 52.22531 3.921815 0
24.20961 52.22531 4.271815 0
24.35961 51.82531 3.321815 0
24.50961 51.92531 3.321815 0
24.35961 52.12531 3.371815 0
24.45961 52.02531 3.571815 0
24.45961 52.22531 3.371815 0
24.35961 52.22531 3.471815 0
24.70961 52.07531 3.271815 0
24.55961 52.17531 3.421815 0
24.65961 52.17531 3.321815 0
24.65961 52.32531 3.321815 0
24.65961 52.27531 3.421815 0
24.55961 52.17531 3.571815 0
24.70961 52.32531 3.571815 0
24.35961 52.12531 3.771815 0
24.45961 51.97531 3.971815 0
24.45961 52.27531 3.771815 0
24.40961 52.27531 3.871815 0
24.55961 52.12531 3.971815 0
24.55961 52.32531 3.871815 0
24.65961 52.32531 3.971815 0
24.70961 52.37531 3.421815 0
24.70961 52.52531 3.621815 0
24.50961 52.37531 3.821815 0
24.60961 52.52531 3.821815 0
24.70961 52.37531 3.821815 0
24.75961 52.32531 3.321815 0
24.80961 52.42531 3.371815 0
24.80961 52.47531 3.421815 0
24.85961 52.57531 3.421815 0
24.85961 52.62531 3.371815 0
24.75961 52.52531 3.871815 0
24.80961 52.67531 3.871815 0
24.40961 52.27531 4.221815 0
24.35961 52.32531 4.371815 0
24.50961 52.42531 4.221815 0
24.45961 52.47531 4.371815 0
24.45961 52.72531 4.271815 0
24.55961 52.57531 4.371815 0
27.00961 47.27531 0.1718147 0
27.05961 47.42531 0.1718147 0
27.10961 47.52531 0.1718147 0
26.75961 47.72531 0.07181472 0
26.80961 47.72531 0.1218147 0
26.85961 47.72531 0.07181472 0
26.90961 47.72531 0.1218147 0
26.95961 47.72531 0.07181472 0
27.00961 47.72531 0.1218147 0
27.10961 47.72531 0.07181472 0
27.10961 47.72531 0.1218147 0
27.45961 47.27531 0.1718147 0
27.15961 47.72531 0.07181472 0
27.20961 47.72531 0.1218147 0
27.15961 47.67531 0.1718147 0
27.25961 47.67531 0.07181472 0
27.30961 47.72531 0.1218147 0
27.20961 47.77531 0.1718147 0
27.25961 47.87531 0.1718147 0
27.40961 47.67531 0.07181472 0
27.40961 47.72531 0.1218147 0
27.45961 47.67531 0.07181472 0
27.50961 47.72531 0.1218147 0
28.30961 47.07531 0.1718147 0
27.80961 47.27531 0.1718147 0
27.55961 47.67531 0.07181472 0
27.60961 47.72531 0.1218147 0
27.65961 47.67531 0.07181472 0
27.70961 47.72531 0.1218147 0
27.75961 47.67531 0.07181472 0
27.80961 47.72531 0.1218147 0
27.85961 47.72531 0.07181472 0
27.90961 47.67531 0.1218147 0
27.90961 47.72531 0.1218147 0
28.20961 47.27531 0.1718147 0
28.00961 47.67531 0.1218147 0
28.05961 47.62531 0.07181472 0
28.05961 47.67531 0.1218147 0
28.05961 47.72531 0.1218147 0
28.10961 47.67531 0.1218147 0
28.15961 47.62531 0.07181472 0
28.20961 47.62531 0.07181472 0
28.15961 47.67531 0.1218147 0
28.20961 47.67531 0.1218147 0
28.30961 47.62531 0.07181472 0
28.25961 47.67531 0.1218147 0
28.30961 47.67531 0.1218147 0
27.30961 48.02531 0.1718147 0
27.40961 48.12531 0.1718147 0
27.45961 48.22531 0.1718147 0
27.50961 48.32531 0.1718147 0
27.55961 48.42531 0.1718147 0
27.60961 48.57531 0.1718147 0
27.70961 48.67531 0.1718147 0
27.75961 48.77531 0.1718147 0
27.80961 48.87531 0.1718147 0
27.90961 48.97531 0.1718147 0
27.95961 49.07531 0.1718147 0
28.05961 49.17531 0.1718147 0
28.10961 49.27531 0.1718147 0
28.20961 49.42531 0.1718147 0
28.25961 49.52531 0.1718147 0
28.75961 47.12531 0.1718147 0
28.55961 47.27531 0.1718147 0
28.35961 47.67531 0.1218147 0
28.40961 47.67531 0.1218147 0
28.45961 47.62531 0.07181472 0
28.50961 47.67531 0.1218147 0
28.55961 47.62531 0.07181472 0
28.60961 47.67531 0.1218147 0
28.65961 47.62531 0.07181472 0
28.70961 47.67531 0.1218147 0
28.80961 47.32531 0.1718147 0
28.80961 47.42531 0.1718147 0
28.75961 47.62531 0.07181472 0
28.80961 47.67531 0.1218147 0
28.85961 47.62531 0.07181472 0
28.90961 47.62531 0.07181472 0
28.90961 47.57531 0.1718147 0
28.85961 47.67531 0.1218147 0
29.00961 47.62531 0.07181472 0
28.95961 47.67531 0.1218147 0
28.95961 47.67531 0.1718147 0
29.05961 47.62531 0.1218147 0
29.00961 47.77531 0.1718147 0
29.05961 47.92531 0.1718147 0
29.20961 47.07531 0.1718147 0
29.60961 47.07531 0.1718147 0
29.15961 47.62531 0.07181472 0
29.15961 47.62531 0.1218147 0
29.25961 47.62531 0.07181472 0
29.25961 47.62531 0.1218147 0
29.30961 47.62531 0.07181472 0
29.35961 47.67531 0.1218147 0
29.45961 47.62531 0.07181472 0
29.50961 47.62531 0.1218147 0
29.55961 47.57531 0.07181472 0
29.55961 47.62531 0.1218147 0
29.60961 47.62531 0.07181472 0
29.65961 47.62531 0.1218147 0
29.75961 47.57531 0.07181472 0
29.75961 47.62531 0.1218147 0
29.80961 47.57531 0.1218147 0
29.85961 47.57531 0.1218147 0
29.85961 47.62531 0.1218147 0
29.90961 47.57531 0.1218147 0
29.10961 48.02531 0.1718147 0
29.15961 48.12531 0.1718147 0
29.20961 48.27531 0.1718147 0
29.30961 48.37531 0.1718147 0
29.35961 48.47531 0.1718147 0
29.40961 48.62531 0.1718147 0
29.50961 48.72531 0.1718147 0
29.55961 48.82531 0.1718147 0
29.60961 48.92531 0.1718147 0
29.65961 49.07531 0.1718147 0
29.75961 49.17531 0.1718147 0
29.80961 49.27531 0.1718147 0
29.90961 49.37531 0.1718147 0
28.35961 49.62531 0.1718147 0
28.40961 49.72531 0.1718147 0
28.50961 49.82531 0.1718147 0
28.55961 49.92531 0.1718147 0
28.65961 50.02531 0.1718147 0
28.70961 50.12531 0.1718147 0
28.80961 50.22531 0.1718147 0
28.90961 50.32531 0.1718147 0
28.95961 50.37531 0.1718147 0
30.00961 47.07531 0.2218147 0
30.35961 47.12531 0.2218147 0
30.65961 47.12531 0.2218147 0
30.10961 47.52531 0.07181472 0
30.20961 47.52531 0.07181472 0
30.30961 47.52531 0.07181472 0
29.95961 47.57531 0.1218147 0
29.95961 47.62531 0.1218147 0
30.05961 47.57531 0.07181472 0
30.05961 47.57531 0.1218147 0
30.10961 47.62531 0.1218147 0
30.15961 47.62531 0.1218147 0
30.20961 47.57531 0.1218147 0
30.20961 47.62531 0.1218147 0
30.25961 47.62531 0.1218147 0
30.30961 47.57531 0.1218147 0
30.45961 47.52531 0.07181472 0
30.50961 47.52531 0.07181472 0
30.60961 47.52531 0.07181472 0
30.70961 47.52531 0.07181472 0
30.35961 47.62531 0.1218147 0
30.40961 47.57531 0.1218147 0
30.45961 47.62531 0.1218147 0
30.50961 47.57531 0.1218147 0
30.55961 47.62531 0.1218147 0
30.60961 47.57531 0.1218147 0
30.65961 47.57531 0.1218147 0
30.65961 47.62531 0.1218147 0
30.70961 47.57531 0.1218147 0
31.00961 47.12531 0.2218147 0
31.30961 47.12531 0.2218147 0
30.80961 47.52531 0.07181472 0
30.90961 47.52531 0.07181472 0
31.00961 47.52531 0.07181472 0
30.75961 47.62531 0.1218147 0
30.80961 47.57531 0.1218147 0
30.85961 47.62531 0.1218147 0
30.90961 47.57531 0.1218147 0
31.00961 47.57531 0.1218147 0
31.15961 47.47531 0.07181472 0
31.20961 47.52531 0.07181472 0
31.30961 47.52531 0.07181472 0
31.45961 47.17531 0.2218147 0
31.50961 47.32531 0.2218147 0
31.35961 47.52531 0.1218147 0
31.40961 47.52531 0.07181472 0
31.50961 47.52531 0.07181472 0
31.15961 47.57531 0.1218147 0
31.25961 47.57531 0.1218147 0
31.45961 47.57531 0.1218147 0
31.50961 47.57531 0.1218147 0
29.95961 49.47531 0.1718147 0
31.55961 47.42531 0.2218147 0
31.60961 47.47531 0.07181472 0
31.60961 47.52531 0.2218147 0
31.65961 47.52531 0.1218147 0
31.70961 47.52531 0.07181472 0
31.75961 47.52531 0.1218147 0
31.80961 47.52531 0.07181472 0
31.80961 47.52531 0.1218147 0
31.85961 47.52531 0.07181472 0
31.90961 47.52531 0.07181472 0
31.90961 47.52531 0.1218147 0
31.55961 47.57531 0.1218147 0
31.60961 47.57531 0.1218147 0
31.65961 47.62531 0.2218147 0
31.70961 47.72531 0.2218147 0
31.75961 47.87531 0.2218147 0
32.00961 47.42531 0.07181472 0
32.00961 47.47531 0.1218147 0
32.00961 47.52531 0.1218147 0
32.10961 47.47531 0.07181472 0
32.10961 47.47531 0.1218147 0
32.20961 47.42531 0.07181472 0
32.15961 47.52531 0.1218147 0
32.20961 47.47531 0.1218147 0
32.30961 47.42531 0.07181472 0
32.25961 47.52531 0.1218147 0
32.30961 47.52531 0.1218147 0
32.40961 47.42531 0.07181472 0
32.35961 47.52531 0.1218147 0
32.40961 47.47531 0.1218147 0
32.50961 47.42531 0.07181472 0
32.45961 47.52531 0.1218147 0
32.50961 47.47531 0.1218147 0
32.60961 47.42531 0.07181472 0
32.55961 47.52531 0.1218147 0
32.60961 47.47531 0.1218147 0
32.70961 47.42531 0.07181472 0
32.65961 47.52531 0.1218147 0
32.70961 47.47531 0.1218147 0
32.80961 47.42531 0.07181472 0
32.75961 47.52531 0.1218147 0
32.80961 47.47531 0.1218147 0
32.90961 47.42531 0.07181472 0
32.85961 47.52531 0.1218147 0
32.90961 47.47531 0.1218147 0
33.00961 47.42531 0.07181472 0
32.95961 47.52531 0.1218147 0
33.00961 47.47531 0.1218147 0
33.10961 47.42531 0.07181472 0
33.10961 47.47531 0.1218147 0
31.80961 47.97531 0.2218147 0
31.90961 48.07531 0.2218147 0
31.95961 48.22531 0.2218147 0
32.00961 48.32531 0.2218147 0
32.05961 48.42531 0.2218147 0
32.15961 48.52531 0.2218147 0
32.20961 48.62531 0.2218147 0
32.25961 48.72531 0.2218147 0
32.35961 48.82531 0.2218147 0
32.40961 48.92531 0.2218147 0
32.50961 49.02531 0.2218147 0
32.55961 49.17531 0.2218147 0
32.60961 49.27531 0.2218147 0
32.70961 49.37531 0.2218147 0
32.75961 49.47531 0.2218147 0
30.05961 49.62531 0.1718147 0
30.10961 49.72531 0.1718147 0
30.20961 49.82531 0.1718147 0
30.25961 49.92531 0.1718147 0
30.35961 50.02531 0.1718147 0
30.45961 50.12531 0.1718147 0
30.50961 50.22531 0.1718147 0
32.85961 49.57531 0.2218147 0
32.90961 49.67531 0.2218147 0
33.00961 49.77531 0.2218147 0
33.10961 49.87531 0.2218147 0
32.30961 50.12531 2.771815 0
32.60961 49.57531 2.921815 0
32.40961 50.32531 2.771815 0
32.60961 50.17531 3.021815 0
33.00961 49.62531 2.871815 0
32.90961 50.17531 2.971815 0
32.95961 50.32531 2.971815 0
32.45961 50.42531 2.721815 0
32.50961 50.47531 2.771815 0
32.70961 50.42531 2.671815 0
32.65961 50.57531 2.871815 0
32.65961 50.72531 2.921815 0
32.65961 50.82531 2.621815 0
32.70961 50.82531 2.771815 0
32.70961 50.92531 2.721815 0
32.85961 50.52531 2.721815 0
32.75961 50.57531 2.671815 0
32.85961 50.57531 2.821815 0
32.90961 50.67531 2.671815 0
32.95961 50.67531 2.821815 0
32.85961 50.72531 2.921815 0
33.00961 50.42531 3.171815 0
33.00961 50.72531 2.871815 0
32.75961 50.87531 2.621815 0
32.80961 50.92531 2.671815 0
32.90961 50.92531 2.671815 0
32.85961 50.97531 2.621815 0
32.80961 51.02531 2.771815 0
32.95961 50.77531 2.671815 0
33.05961 50.77531 2.821815 0
33.10961 50.92531 2.671815 0
32.95961 50.97531 2.621815 0
33.05961 51.07531 2.621815 0
33.10961 51.12531 2.621815 0
32.95961 51.02531 2.721815 0
33.05961 51.07531 2.721815 0
32.80961 50.82531 2.971815 0
32.90961 50.87531 2.971815 0
33.05961 50.82531 2.921815 0
32.95961 51.22531 0.2218147 0
33.05961 51.27531 0.1718147 0
33.10961 51.32531 0.1718147 0
32.95961 51.37531 0.1718147 0
33.05961 51.47531 0.1718147 0
33.10961 51.52531 0.2218147 0
32.95961 51.22531 0.6218147 0
33.05961 51.32531 0.6218147 0
33.00961 51.47531 0.5718147 0
33.10961 51.37531 0.5718147 0
33.10961 51.62531 0.2218147 0
33.10961 51.57531 0.5218147 0
33.10961 51.62531 0.5218147 0
33.10961 51.67531 0.5218147 0
33.10961 51.62531 0.8218147 0
33.10961 51.67531 0.8218147 0
32.95961 51.22531 1.071815 0
33.05961 51.32531 1.071815 0
33.10961 51.37531 0.9718148 0
33.05961 51.47531 0.9218147 0
32.95961 51.22531 1.521815 0
33.05961 51.32531 1.521815 0
33.00961 51.52531 1.271815 0
33.10961 51.37531 1.371815 0
33.10961 51.52531 1.471815 0
33.05961 51.47531 1.621815 0
33.10961 51.57531 0.8718147 0
33.10961 51.62531 1.121815 0
33.10961 51.57531 1.171815 0
33.10961 51.67531 1.121815 0
33.10961 51.62531 1.421815 0
33.10961 51.72531 1.421815 0
32.95961 51.22531 1.971815 0
33.05961 51.27531 1.971815 0
33.10961 51.37531 1.771815 0
33.05961 51.47531 1.971815 0
32.95961 51.22531 2.421815 0
33.05961 51.27531 2.421815 0
33.10961 51.37531 2.171815 0
33.10961 51.52531 2.171815 0
33.05961 51.47531 2.321815 0
33.10961 51.62531 1.721815 0
33.10961 51.57531 1.821815 0
33.10961 51.67531 1.721815 0
33.10961 51.62531 2.021815 0
33.10961 51.72531 2.021815 0
33.10961 51.57531 2.171815 0
33.10961 51.62531 2.321815 0
33.10961 51.57531 2.371815 0
32.65961 51.32531 2.621815 0
32.70961 51.72531 2.671815 0
32.80961 51.27531 2.571815 0
32.90961 51.17531 2.771815 0
32.75961 51.42531 2.621815 0
32.85961 51.42531 2.571815 0
32.85961 51.47531 2.621815 0
32.95961 51.27531 2.571815 0
33.05961 51.27531 2.571815 0
33.10961 51.32531 2.571815 0
33.10961 51.32531 2.621815 0
33.00961 51.32531 2.771815 0
32.95961 51.42531 2.621815 0
33.05961 51.42531 2.621815 0
33.10961 51.37531 2.621815 0
33.10961 51.52531 2.471815 0
33.10961 51.52531 2.771815 0
32.70961 52.62531 2.571815 0
32.85961 52.07531 2.621815 0
32.85961 52.62531 2.571815 0
32.95961 52.62531 2.571815 0
33.35961 47.12531 0.2218147 0
33.20961 47.42531 0.07181472 0
33.20961 47.47531 0.1218147 0
33.30961 47.42531 0.07181472 0
33.30961 47.47531 0.1218147 0
33.40961 47.22531 0.2218147 0
33.40961 47.42531 0.07181472 0
33.40961 47.47531 0.1218147 0
33.50961 47.42531 0.07181472 0
33.45961 47.37531 0.2218147 0
33.45961 47.47531 0.1218147 0
33.50961 47.47531 0.1218147 0
33.50961 47.47531 0.2218147 0
33.60961 47.42531 0.07181472 0
33.60961 47.47531 0.1218147 0
33.70961 47.42531 0.07181472 0
33.70961 47.47531 0.1218147 0
33.80961 47.42531 0.07181472 0
33.75961 47.47531 0.1218147 0
33.80961 47.47531 0.1218147 0
33.90961 47.42531 0.1218147 0
33.90961 47.47531 0.1218147 0
33.60961 47.57531 0.2218147 0
33.65961 47.67531 0.2218147 0
33.70961 47.77531 0.2218147 0
33.75961 47.92531 0.2218147 0
34.00961 47.42531 0.1218147 0
34.00961 47.47531 0.1218147 0
34.05961 47.37531 0.1218147 0
34.10961 47.42531 0.1218147 0
34.05961 47.47531 0.1218147 0
34.10961 47.47531 0.1218147 0
34.15961 47.32531 0.07181472 0
34.25961 47.32531 0.07181472 0
34.20961 47.42531 0.1218147 0
34.20961 47.47531 0.1218147 0
34.30961 47.42531 0.1218147 0
34.30961 47.47531 0.1218147 0
34.35961 47.32531 0.07181472 0
34.45961 47.32531 0.07181472 0
34.40961 47.42531 0.1218147 0
34.40961 47.47531 0.1218147 0
34.50961 47.42531 0.1218147 0
34.50961 47.47531 0.1218147 0
34.55961 47.32531 0.07181472 0
34.65961 47.32531 0.07181472 0
34.60961 47.37531 0.1218147 0
34.60961 47.47531 0.1218147 0
34.70961 47.42531 0.1218147 0
33.85961 48.02531 0.2218147 0
33.85961 48.12531 0.2218147 0
33.95961 48.22531 0.2218147 0
34.00961 48.37531 0.2218147 0
34.10961 48.47531 0.2218147 0
34.15961 48.57531 0.2218147 0
34.25961 48.67531 0.2218147 0
34.30961 48.77531 0.2218147 0
34.35961 48.87531 0.2218147 0
34.45961 48.97531 0.2218147 0
34.50961 49.07531 0.2218147 0
34.60961 49.22531 0.2218147 0
34.70961 49.27531 0.2218147 0
35.40961 47.12531 0.2218147 0
34.75961 47.32531 0.07181472 0
34.85961 47.32531 0.07181472 0
34.80961 47.42531 0.1218147 0
34.90961 47.42531 0.1218147 0
34.90961 47.47531 0.1218147 0
34.95961 47.32531 0.07181472 0
35.05961 47.32531 0.07181472 0
35.00961 47.37531 0.1218147 0
35.00961 47.42531 0.1218147 0
35.10961 47.37531 0.1218147 0
35.10961 47.42531 0.1218147 0
35.15961 47.32531 0.07181472 0
35.25961 47.32531 0.07181472 0
35.20961 47.37531 0.1218147 0
35.30961 47.37531 0.1218147 0
35.35961 47.32531 0.07181472 0
35.45961 47.22531 0.2218147 0
35.45961 47.32531 0.07181472 0
35.40961 47.37531 0.1218147 0
35.50961 47.37531 0.1218147 0
35.50961 47.37531 0.2218147 0
35.55961 47.32531 0.07181472 0
35.65961 47.32531 0.07181472 0
35.60961 47.37531 0.1218147 0
35.55961 47.47531 0.2218147 0
35.70961 47.37531 0.1218147 0
35.75961 47.32531 0.07181472 0
35.85961 47.32531 0.07181472 0
35.80961 47.37531 0.1218147 0
35.90961 47.37531 0.1218147 0
35.60961 47.57531 0.2218147 0
35.65961 47.72531 0.2218147 0
35.75961 47.82531 0.2218147 0
35.80961 47.92531 0.2218147 0
35.95961 47.32531 0.07181472 0
36.10961 47.22531 0.07181472 0
36.05961 47.32531 0.07181472 0
35.95961 47.37531 0.1218147 0
36.00961 47.37531 0.1218147 0
36.10961 47.37531 0.1218147 0
36.15961 47.32531 0.07181472 0
36.20961 47.32531 0.07181472 0
36.25961 47.22531 0.07181472 0
36.25961 47.32531 0.07181472 0
36.20961 47.37531 0.1218147 0
36.30961 47.37531 0.1218147 0
34.75961 49.42531 0.2218147 0
34.80961 49.52531 0.2218147 0
35.85961 48.02531 0.2218147 0
35.90961 48.17531 0.2218147 0
35.95961 48.27531 0.2218147 0
36.05961 48.37531 0.2218147 0
36.15961 48.47531 0.2218147 0
36.20961 48.62531 0.2218147 0
36.25961 48.67531 0.2218147 0
36.15961 48.62531 3.071815 0
35.65961 49.27531 2.821815 0
35.80961 49.42531 2.821815 0
33.75961 49.52531 3.471815 0
35.50961 49.12531 3.521815 0
35.65961 49.27531 3.521815 0
35.60961 49.52531 3.521815 0
33.15961 49.97531 0.2218147 0
33.25961 50.07531 0.2218147 0
33.45961 49.62531 2.821815 0
33.30961 50.32531 2.921815 0
33.90961 49.67531 2.771815 0
33.60961 50.32531 2.871815 0
33.75961 50.02531 3.221815 0
33.85961 50.32531 2.871815 0
33.25961 50.72531 2.771815 0
33.20961 50.42531 3.121815 0
33.20961 50.62531 3.221815 0
33.30961 50.72531 3.221815 0
33.40961 50.47531 3.071815 0
33.40961 50.57531 3.171815 0
33.50961 50.57531 3.071815 0
33.45961 50.72531 3.221815 0
33.15961 51.02531 2.671815 0
33.15961 51.07531 2.721815 0
33.25961 51.07531 2.671815 0
33.25961 51.12531 2.671815 0
33.45961 50.77531 2.771815 0
33.35961 51.07531 2.671815 0
33.45961 51.07531 2.671815 0
33.50961 51.07531 2.671815 0
33.15961 50.77531 2.871815 0
33.15961 50.82531 2.921815 0
33.20961 50.87531 2.871815 0
33.25961 50.82531 2.871815 0
33.30961 50.87531 2.871815 0
33.30961 50.97531 2.921815 0
33.45961 50.87531 2.871815 0
33.40961 50.97531 2.921815 0
33.80961 50.72531 2.721815 0
33.60961 50.57531 3.171815 0
33.60961 50.72531 3.171815 0
33.70961 50.57531 3.071815 0
33.65961 50.72531 3.171815 0
33.80961 50.72531 3.121815 0
33.75961 50.72531 3.171815 0
33.60961 50.77531 2.721815 0
33.60961 50.87531 2.821815 0
33.60961 51.07531 2.671815 0
33.70961 51.07531 2.671815 0
33.75961 50.87531 2.821815 0
33.90961 50.87531 2.771815 0
33.85961 51.07531 2.621815 0
33.55961 50.97531 2.871815 0
33.65961 50.97531 2.871815 0
33.80961 50.82531 3.171815 0
33.90961 50.87531 3.171815 0
33.75961 50.97531 2.871815 0
33.85961 50.97531 2.871815 0
34.05961 49.82531 2.771815 0
34.15961 49.97531 2.771815 0
34.20961 50.17531 2.771815 0
34.15961 50.32531 2.821815 0
34.10961 50.02531 3.171815 0
34.45961 50.02531 3.121815 0
34.30961 50.37531 2.771815 0
33.95961 50.57531 3.021815 0
34.15961 50.57531 2.971815 0
33.95961 50.77531 2.671815 0
34.05961 50.87531 2.771815 0
34.00961 51.07531 2.621815 0
34.00961 51.12531 2.621815 0
34.10961 51.07531 2.621815 0
34.00961 50.97531 2.821815 0
34.10961 50.97531 2.821815 0
34.15961 50.77531 2.671815 0
34.15961 50.87531 2.771815 0
34.25961 50.82531 2.671815 0
34.30961 50.87531 2.721815 0
34.20961 51.02531 2.621815 0
34.15961 51.12531 2.621815 0
34.25961 51.02531 2.621815 0
34.20961 50.97531 2.821815 0
34.30961 50.97531 2.821815 0
33.95961 50.77531 3.121815 0
34.00961 50.87531 3.171815 0
34.15961 50.77531 3.071815 0
34.15961 50.87531 3.121815 0
34.30961 50.77531 3.071815 0
34.30961 50.87531 3.121815 0
34.40961 50.37531 2.771815 0
34.40961 50.52531 2.771815 0
34.50961 50.67531 2.771815 0
34.65961 50.37531 2.721815 0
34.40961 50.57531 2.971815 0
34.50961 50.72531 3.021815 0
34.60961 50.57531 2.921815 0
34.35961 50.87531 2.671815 0
34.40961 50.87531 2.721815 0
34.35961 51.07531 2.621815 0
34.45961 51.02531 2.621815 0
34.40961 50.97531 2.771815 0
34.45961 50.97531 2.671815 0
34.50961 50.97531 2.771815 0
34.55961 50.87531 2.721815 0
34.60961 50.87531 2.771815 0
34.65961 50.87531 2.671815 0
34.55961 51.02531 2.621815 0
34.65961 51.07531 2.621815 0
34.70961 51.07531 2.621815 0
34.60961 50.97531 2.771815 0
34.55961 51.07531 2.671815 0
34.70961 50.97531 2.771815 0
34.65961 51.12531 2.671815 0
34.40961 50.87531 3.071815 0
34.65961 50.77531 3.021815 0
34.55961 50.87531 3.071815 0
34.70961 50.87531 3.071815 0
33.15961 51.47531 0.1718147 0
33.20961 51.52531 0.2218147 0
33.15961 51.47531 0.5218147 0
33.20961 51.52531 0.5218147 0
33.15961 51.52531 0.5718147 0
33.20961 51.52531 0.8218147 0
33.15961 51.62531 0.2218147 0
33.20961 51.57531 0.2218147 0
33.20961 51.62531 0.1718147 0
33.25961 51.62531 0.2218147 0
33.30961 51.57531 0.2218147 0
33.25961 51.67531 0.2218147 0
33.20961 51.62531 0.5218147 0
33.20961 51.67531 0.5218147 0
33.20961 51.67531 0.5718147 0
33.25961 51.62531 0.5218147 0
33.20961 51.62531 0.8218147 0
33.25961 51.62531 0.8218147 0
33.25961 51.77531 0.5218147 0
33.15961 51.47531 0.8718147 0
33.15961 51.52531 0.9718148 0
33.20961 51.52531 1.171815 0
33.15961 51.47531 1.271815 0
33.15961 51.52531 1.371815 0
33.15961 51.47531 1.621815 0
33.20961 51.67531 0.9218147 0
33.25961 51.72531 0.8718147 0
33.20961 51.57531 1.121815 0
33.20961 51.67531 1.121815 0
33.25961 51.62531 1.121815 0
33.25961 51.72531 1.171815 0
33.20961 51.62531 1.421815 0
33.20961 51.67531 1.271815 0
33.25961 51.62531 1.421815 0
33.20961 51.57531 1.471815 0
33.20961 51.67531 1.621815 0
33.25961 51.72531 1.521815 0
33.15961 51.52531 1.771815 0
33.15961 51.47531 1.971815 0
33.15961 51.47531 2.321815 0
33.20961 51.62531 1.721815 0
33.20961 51.57531 1.821815 0
33.20961 51.67531 1.721815 0
33.25961 51.62531 1.721815 0
33.20961 51.62531 2.021815 0
33.20961 51.67531 1.971815 0
33.25961 51.62531 2.021815 0
33.25961 51.77531 1.821815 0
