# .PCD v0.7 - Point Cloud Data file format
VERSION 0.7
FIELDS x y z intensity
SIZE 4 4 4 4
TYPE F F F F
COUNT 1 1 1 1
WIDTH 1527
HEIGHT 1
VIEWPOINT 0 0 0 1 0 0 0
POINTS 1527
DATA ascii
0.1096118 -54.57469 1.521815 0
0.05961184 -54.52469 1.571815 0
0.1596118 -54.57469 1.321815 0
0.2096118 -54.57469 1.271815 0
0.2096118 -54.57469 1.321815 0
0.1596118 -54.57469 1.371815 0
0.2096118 -54.57469 1.371815 0
0.2096118 -54.57469 1.421815 0
0.1596118 -54.52469 1.271815 0
0.1596118 -54.52469 1.421815 0
0.2596118 -54.57469 1.321815 0
0.3096119 -54.57469 1.321815 0
0.2596118 -54.57469 1.371815 0
0.2596118 -54.57469 1.421815 0
0.3096119 -54.57469 1.421815 0
0.3096119 -54.52469 1.271815 0
0.2096118 -54.57469 1.521815 0
0.2596118 -54.57469 1.521815 0
0.2596118 -54.57469 1.571815 0
0.3596118 -54.57469 0.07181472 0
0.3596118 -54.57469 0.1218147 0
0.4096119 -54.57469 0.07181472 0
0.3596118 -54.57469 0.1718147 0
0.4096119 -54.57469 0.1718147 0
0.4096119 -54.52469 0.1218147 0
0.4596118 -54.57469 0.07181472 0
0.4596118 -54.57469 0.1218147 0
0.5096118 -54.57469 0.1218147 0
0.4596118 -54.57469 0.1718147 0
0.5096118 -54.57469 0.1718147 0
0.3596118 -54.57469 0.4218147 0
0.4596118 -54.57469 0.4218147 0
0.5596119 -54.57469 0.07181472 0
0.5596119 -54.57469 0.1218147 0
0.6096119 -54.57469 0.07181472 0
0.6096119 -54.57469 0.1218147 0
0.6096119 -54.57469 0.1718147 0
0.5596119 -54.52469 0.07181472 0
0.6596118 -54.57469 0.07181472 0
0.6596118 -54.57469 0.1218147 0
0.7096118 -54.57469 0.07181472 0
0.7096118 -54.57469 0.1218147 0
0.6596118 -54.57469 0.1718147 0
0.7096118 -54.57469 0.1718147 0
0.5596119 -54.57469 0.4218147 0
0.5596119 -54.52469 0.4218147 0
0.6596118 -54.57469 0.4218147 0
0.3596118 -54.57469 0.4718147 0
0.3596118 -54.57469 0.5218147 0
0.4096119 -54.57469 0.4718147 0
0.4096119 -54.57469 0.5218147 0
0.3596118 -54.57469 0.5718147 0
0.4096119 -54.57469 0.5718147 0
0.4096119 -54.52469 0.5218147 0
0.4596118 -54.57469 0.4718147 0
0.4596118 -54.57469 0.5218147 0
0.5096118 -54.57469 0.5218147 0
0.4596118 -54.57469 0.5718147 0
0.5096118 -54.57469 0.5718147 0
0.5096118 -54.52469 0.5718147 0
0.3596118 -54.57469 0.7218148 0
0.3596118 -54.57469 0.8218147 0
0.4596118 -54.57469 0.7218148 0
0.4596118 -54.57469 0.7718147 0
0.4596118 -54.57469 0.8218147 0
0.5596119 -54.57469 0.4718147 0
0.5596119 -54.57469 0.5218147 0
0.6096119 -54.57469 0.4718147 0
0.6096119 -54.57469 0.5218147 0
0.5596119 -54.57469 0.6218147 0
0.6096119 -54.57469 0.5718147 0
0.6596118 -54.57469 0.4718147 0
0.6596118 -54.57469 0.5218147 0
0.7096118 -54.57469 0.4718147 0
0.7096118 -54.57469 0.5218147 0
0.6596118 -54.57469 0.5718147 0
0.7096118 -54.57469 0.5718147 0
0.7096118 -54.52469 0.5718147 0
0.5596119 -54.57469 0.7218148 0
0.5596119 -54.57469 0.7718147 0
0.6096119 -54.57469 0.8218147 0
0.6596118 -54.57469 0.7218148 0
0.6596118 -54.57469 0.7718147 0
0.7096118 -54.57469 0.8218147 0
0.7596118 -54.57469 0.07181472 0
0.7596118 -54.57469 0.1218147 0
0.8096119 -54.57469 0.07181472 0
0.8096119 -54.57469 0.1218147 0
0.7596118 -54.57469 0.1718147 0
0.8096119 -54.52469 0.07181472 0
0.8596119 -54.57469 0.07181472 0
0.8596119 -54.57469 0.1218147 0
0.9096119 -54.57469 0.07181472 0
0.9096119 -54.57469 0.1218147 0
0.8596119 -54.57469 0.1718147 0
0.9096119 -54.57469 0.1718147 0
0.7596118 -54.57469 0.4218147 0
0.8596119 -54.57469 0.4218147 0
0.9596118 -54.57469 0.07181472 0
0.9596118 -54.57469 0.1218147 0
1.009612 -54.57469 0.07181472 0
0.9596118 -54.57469 0.1718147 0
1.009612 -54.57469 0.1718147 0
1.059612 -54.57469 0.07181472 0
1.059612 -54.57469 0.1218147 0
1.109612 -54.57469 0.07181472 0
1.109612 -54.57469 0.1218147 0
1.109612 -54.57469 0.1718147 0
0.9596118 -54.57469 0.4218147 0
1.059612 -54.57469 0.4218147 0
1.109612 -54.57469 0.4218147 0
0.7596118 -54.57469 0.5218147 0
0.8096119 -54.57469 0.4718147 0
0.8096119 -54.57469 0.5218147 0
0.7596118 -54.57469 0.5718147 0
0.8096119 -54.57469 0.5718147 0
0.7596118 -54.52469 0.5218147 0
0.8596119 -54.57469 0.4718147 0
0.8596119 -54.57469 0.5218147 0
0.9096119 -54.57469 0.4718147 0
0.9096119 -54.57469 0.5218147 0
0.8596119 -54.57469 0.5718147 0
0.8596119 -54.57469 0.6218147 0
0.9096119 -54.57469 0.5718147 0
0.9096119 -54.52469 0.5218147 0
0.9096119 -54.52469 0.5718147 0
0.7596118 -54.57469 0.7218148 0
0.7596118 -54.57469 0.7718147 0
0.8596119 -54.57469 0.7718147 0
0.8596119 -54.57469 0.8218147 0
0.9596118 -54.57469 0.4718147 0
0.9596118 -54.57469 0.5218147 0
1.009612 -54.57469 0.5218147 0
0.9596118 -54.57469 0.5718147 0
1.009612 -54.57469 0.5718147 0
1.009612 -54.57469 0.6218147 0
1.059612 -54.57469 0.4718147 0
1.059612 -54.57469 0.5218147 0
1.109612 -54.62469 0.4718147 0
1.109612 -54.57469 0.5218147 0
1.059612 -54.57469 0.5718147 0
1.109612 -54.57469 0.5718147 0
1.109612 -54.52469 0.5218147 0
1.109612 -54.52469 0.5718147 0
0.9596118 -54.57469 0.7718147 0
0.9596118 -54.57469 0.8218147 0
1.009612 -54.57469 0.7718147 0
1.059612 -54.57469 0.7718147 0
1.109612 -54.57469 0.8218147 0
0.3596118 -54.57469 0.9218147 0
0.4096119 -54.57469 0.8718147 0
0.4096119 -54.57469 0.9218147 0
0.3596118 -54.57469 0.9718148 0
0.4096119 -54.57469 0.9718148 0
0.4596118 -54.57469 0.9218147 0
0.5096118 -54.57469 0.9218147 0
0.4596118 -54.57469 0.9718148 0
0.5096118 -54.57469 0.9718148 0
0.4596118 -54.52469 0.9718148 0
0.3596118 -54.57469 1.071815 0
0.3596118 -54.57469 1.121815 0
0.4096119 -54.57469 1.071815 0
0.3596118 -54.57469 1.171815 0
0.4596118 -54.57469 1.071815 0
0.4596118 -54.57469 1.121815 0
0.5096118 -54.57469 1.121815 0
0.4596118 -54.57469 1.171815 0
0.5096118 -54.57469 1.171815 0
0.5596119 -54.57469 0.8718147 0
0.5596119 -54.57469 0.9218147 0
0.5596119 -54.57469 0.9718148 0
0.6096119 -54.57469 0.9718148 0
0.6596118 -54.57469 0.8718147 0
0.6596118 -54.57469 0.9218147 0
0.7096118 -54.57469 0.9218147 0
0.6596118 -54.57469 0.9718148 0
0.7096118 -54.57469 0.9718148 0
0.5596119 -54.57469 1.071815 0
0.5596119 -54.57469 1.121815 0
0.6096119 -54.57469 1.071815 0
0.5596119 -54.57469 1.221815 0
0.6096119 -54.57469 1.171815 0
0.6596118 -54.57469 1.071815 0
0.6596118 -54.57469 1.121815 0
0.7096118 -54.57469 1.171815 0
0.3596118 -54.57469 1.321815 0
0.4096119 -54.57469 1.271815 0
0.4096119 -54.57469 1.321815 0
0.3596118 -54.57469 1.371815 0
0.3596118 -54.57469 1.421815 0
0.4096119 -54.57469 1.421815 0
0.4596118 -54.57469 1.321815 0
0.5096118 -54.57469 1.321815 0
0.4596118 -54.57469 1.371815 0
0.4596118 -54.57469 1.421815 0
0.5096118 -54.57469 1.371815 0
0.5096118 -54.52469 1.271815 0
0.3596118 -54.57469 1.521815 0
0.4096119 -54.57469 1.571815 0
0.4096119 -54.52469 1.571815 0
0.4596118 -54.57469 1.521815 0
0.5596119 -54.57469 1.271815 0
0.5596119 -54.57469 1.321815 0
0.6096119 -54.57469 1.321815 0
0.5596119 -54.57469 1.421815 0
0.6096119 -54.57469 1.371815 0
0.6096119 -54.57469 1.421815 0
0.6596118 -54.62469 1.321815 0
0.6596118 -54.57469 1.271815 0
0.6596118 -54.57469 1.321815 0
0.7096118 -54.57469 1.321815 0
0.6596118 -54.57469 1.421815 0
0.7096118 -54.57469 1.371815 0
0.7096118 -54.57469 1.421815 0
0.7096118 -54.52469 1.271815 0
0.5596119 -54.57469 1.621815 0
0.6096119 -54.57469 1.571815 0
0.7096118 -54.57469 1.571815 0
0.7596118 -54.57469 0.9218147 0
0.8096119 -54.57469 0.8718147 0
0.8096119 -54.57469 0.9218147 0
0.7596118 -54.57469 0.9718148 0
0.8096119 -54.57469 0.9718148 0
0.9096119 -54.57469 0.8718147 0
0.9096119 -54.57469 0.9218147 0
0.8596119 -54.57469 0.9718148 0
0.9096119 -54.62469 0.9718148 0
0.9096119 -54.57469 0.9718148 0
0.7596118 -54.57469 1.071815 0
0.7596118 -54.57469 1.121815 0
0.8096119 -54.57469 1.071815 0
0.8596119 -54.57469 1.071815 0
0.8596119 -54.57469 1.121815 0
0.9096119 -54.57469 1.071815 0
0.8596119 -54.57469 1.221815 0
0.9096119 -54.57469 1.171815 0
0.9596118 -54.57469 0.9218147 0
1.009612 -54.57469 0.9218147 0
0.9596118 -54.57469 0.9718148 0
1.009612 -54.57469 0.9718148 0
1.059612 -54.57469 0.8718147 0
1.059612 -54.57469 0.9218147 0
1.109612 -54.57469 0.9218147 0
1.059612 -54.57469 0.9718148 0
0.9596118 -54.57469 1.071815 0
0.9596118 -54.57469 1.121815 0
1.009612 -54.57469 1.071815 0
0.9596118 -54.57469 1.221815 0
1.009612 -54.57469 1.171815 0
1.059612 -54.57469 1.071815 0
1.059612 -54.57469 1.121815 0
1.109612 -54.57469 1.171815 0
1.109612 -54.57469 1.221815 0
0.7596118 -54.57469 1.321815 0
0.8096119 -54.57469 1.271815 0
0.8096119 -54.57469 1.321815 0
0.7596118 -54.57469 1.371815 0
0.7596118 -54.57469 1.421815 0
0.8096119 -54.57469 1.421815 0
0.8596119 -54.62469 1.321815 0
0.8596119 -54.57469 1.321815 0
0.9096119 -54.57469 1.271815 0
0.9096119 -54.57469 1.321815 0
0.8596119 -54.57469 1.421815 0
0.9096119 -54.57469 1.371815 0
0.9096119 -54.57469 1.421815 0
0.7596118 -54.57469 1.621815 0
0.8096119 -54.57469 1.571815 0
0.8596119 -54.57469 1.571815 0
0.9096119 -54.57469 1.621815 0
0.9596118 -54.57469 1.321815 0
1.009612 -54.57469 1.321815 0
0.9596118 -54.57469 1.421815 0
1.059612 -54.57469 1.271815 0
1.059612 -54.57469 1.321815 0
1.109612 -54.57469 1.321815 0
1.059612 -54.57469 1.371815 0
1.059612 -54.57469 1.421815 0
1.109612 -54.57469 1.421815 0
1.109612 -54.52469 1.271815 0
1.009612 -54.57469 1.471815 0
0.9596118 -54.57469 1.571815 0
1.009612 -54.57469 1.571815 0
1.059612 -54.57469 1.621815 0
1.109612 -54.57469 1.571815 0
-0.4403882 -54.57469 1.721815 0
-0.3903882 -54.57469 1.671815 0
-0.4403882 -54.57469 1.771815 0
-0.3903882 -54.57469 1.821815 0
-0.4403882 -54.52469 1.771815 0
-0.3903882 -54.52469 1.771815 0
-0.3403882 -54.57469 1.671815 0
-0.3403882 -54.57469 1.721815 0
-0.2903882 -54.57469 1.671815 0
-0.2903882 -54.57469 1.721815 0
-0.3403882 -54.57469 1.771815 0
-0.2903882 -54.57469 1.771815 0
-0.2903882 -54.57469 1.821815 0
-0.3403882 -54.52469 1.771815 0
-0.2903882 -54.52469 1.771815 0
-0.4403882 -54.57469 1.871815 0
-0.4403882 -54.57469 2.021815 0
-0.3903882 -54.52469 1.871815 0
-0.3903882 -54.52469 1.971815 0
-0.3403882 -54.57469 1.871815 0
-0.3403882 -54.57469 2.021815 0
-0.2903882 -54.57469 2.021815 0
-0.3403882 -54.52469 1.971815 0
-0.2403882 -54.57469 1.671815 0
-0.2403882 -54.57469 1.721815 0
-0.1903882 -54.57469 1.671815 0
-0.1903882 -54.57469 1.721815 0
-0.2403882 -54.57469 1.821815 0
-0.1903882 -54.57469 1.771815 0
-0.2403882 -54.52469 1.771815 0
-0.1403882 -54.57469 1.671815 0
-0.1403882 -54.57469 1.721815 0
-0.09038816 -54.57469 1.671815 0
-0.1403882 -54.57469 1.821815 0
-0.09038816 -54.57469 1.771815 0
-0.09038816 -54.57469 1.821815 0
-0.09038816 -54.52469 1.771815 0
-0.2403882 -54.57469 1.871815 0
-0.2403882 -54.57469 2.021815 0
-0.1903882 -54.57469 1.971815 0
-0.1903882 -54.52469 2.021815 0
-0.09038816 -54.57469 1.871815 0
-0.1403882 -54.57469 2.021815 0
-0.1403882 -54.52469 1.921815 0
-0.1403882 -54.52469 1.971815 0
-0.4403882 -54.57469 2.121815 0
-0.3903882 -54.57469 2.071815 0
-0.3903882 -54.57469 2.121815 0
-0.4403882 -54.57469 2.171815 0
-0.4403882 -54.57469 2.221815 0
-0.3903882 -54.57469 2.221815 0
-0.4403882 -54.52469 2.171815 0
-0.4403882 -54.52469 2.221815 0
-0.3403882 -54.57469 2.071815 0
-0.3403882 -54.57469 2.121815 0
-0.2903882 -54.57469 2.121815 0
-0.3403882 -54.57469 2.171815 0
-0.3403882 -54.57469 2.221815 0
-0.2903882 -54.57469 2.221815 0
-0.4403882 -54.57469 2.371815 0
-0.3903882 -54.57469 2.371815 0
-0.3903882 -54.57469 2.421815 0
-0.4403882 -54.52469 2.371815 0
-0.4403882 -54.52469 2.421815 0
-0.2903882 -54.57469 2.271815 0
-0.3403882 -54.57469 2.371815 0
-0.2903882 -54.57469 2.421815 0
-0.3403882 -54.52469 2.371815 0
-0.2903882 -54.52469 2.421815 0
-0.2403882 -54.57469 2.071815 0
-0.2403882 -54.57469 2.121815 0
-0.1903882 -54.57469 2.071815 0
-0.1903882 -54.57469 2.121815 0
-0.2403882 -54.57469 2.221815 0
-0.1903882 -54.57469 2.171815 0
-0.2403882 -54.52469 2.171815 0
-0.1403882 -54.57469 2.071815 0
-0.1403882 -54.57469 2.121815 0
-0.09038816 -54.57469 2.071815 0
-0.1403882 -54.57469 2.221815 0
-0.09038816 -54.57469 2.171815 0
-0.09038816 -54.52469 2.121815 0
-0.2403882 -54.57469 2.271815 0
-0.2403882 -54.57469 2.371815 0
-0.1903882 -54.57469 2.421815 0
-0.2403882 -54.52469 2.371815 0
-0.1403882 -54.57469 2.271815 0
-0.09038816 -54.57469 2.271815 0
-0.1403882 -54.57469 2.371815 0
-0.09038816 -54.57469 2.421815 0
-0.09038816 -54.52469 2.371815 0
-0.04038816 -54.57469 1.671815 0
-0.04038816 -54.57469 1.721815 0
0.009611839 -54.57469 1.671815 0
-0.04038816 -54.57469 1.771815 0
0.009611839 -54.57469 1.771815 0
-0.04038816 -54.52469 1.771815 0
0.05961184 -54.57469 1.721815 0
0.1096118 -54.57469 1.671815 0
0.1096118 -54.57469 1.721815 0
0.05961184 -54.57469 1.771815 0
0.05961184 -54.57469 1.821815 0
0.1096118 -54.57469 1.771815 0
0.05961184 -54.52469 1.671815 0
0.009611839 -54.57469 1.871815 0
0.009611839 -54.57469 2.021815 0
0.05961184 -54.57469 1.871815 0
0.1096118 -54.57469 1.871815 0
0.05961184 -54.52469 1.971815 0
0.1596118 -54.57469 1.671815 0
0.1596118 -54.57469 1.721815 0
0.2096118 -54.57469 1.671815 0
0.2096118 -54.57469 1.721815 0
0.2096118 -54.57469 1.771815 0
0.2096118 -54.57469 1.821815 0
0.1596118 -54.52469 1.771815 0
0.2596118 -54.57469 1.671815 0
0.2596118 -54.57469 1.721815 0
0.3096119 -54.57469 1.671815 0
0.3096119 -54.57469 1.721815 0
0.2596118 -54.57469 1.771815 0
0.2596118 -54.57469 1.821815 0
0.3096119 -54.57469 1.771815 0
0.2096118 -54.57469 1.871815 0
0.2096118 -54.57469 2.021815 0
0.1596118 -54.52469 1.921815 0
0.2096118 -54.52469 1.971815 0
0.2596118 -54.57469 1.871815 0
0.3096119 -54.57469 1.921815 0
0.3096119 -54.52469 1.971815 0
-0.04038816 -54.57469 2.071815 0
-0.04038816 -54.57469 2.121815 0
0.009611839 -54.57469 2.121815 0
-0.04038816 -54.57469 2.171815 0
0.009611839 -54.57469 2.221815 0
0.009611839 -54.52469 2.171815 0
0.05961184 -54.57469 2.071815 0
0.05961184 -54.57469 2.121815 0
0.1096118 -54.57469 2.071815 0
0.05961184 -54.57469 2.171815 0
0.1096118 -54.57469 2.171815 0
0.1096118 -54.57469 2.221815 0
-0.04038816 -54.57469 2.371815 0
-0.04038816 -54.52469 2.371815 0
0.05961184 -54.57469 2.271815 0
0.05961184 -54.57469 2.321815 0
0.05961184 -54.57469 2.371815 0
0.05961184 -54.52469 2.371815 0
0.1596118 -54.57469 2.071815 0
0.1596118 -54.57469 2.121815 0
0.2096118 -54.57469 2.071815 0
0.2096118 -54.57469 2.121815 0
0.2096118 -54.57469 2.171815 0
0.2096118 -54.52469 2.121815 0
0.2596118 -54.62469 2.071815 0
0.2596118 -54.57469 2.121815 0
0.3096119 -54.57469 2.071815 0
0.3096119 -54.57469 2.121815 0
0.2596118 -54.57469 2.221815 0
0.2096118 -54.57469 2.271815 0
0.2096118 -54.57469 2.321815 0
0.1596118 -54.57469 2.371815 0
0.2596118 -54.57469 2.271815 0
0.2596118 -54.57469 2.371815 0
0.3096119 -54.57469 2.371815 0
0.2596118 -54.52469 2.421815 0
-0.4403882 -54.57469 2.521815 0
-0.3903882 -54.57469 2.471815 0
-0.4403882 -54.57469 2.571815 0
-0.4403882 -54.57469 2.621815 0
-0.3903882 -54.52469 2.521815 0
-0.3403882 -54.57469 2.471815 0
-0.2903882 -54.57469 2.521815 0
-0.3403882 -54.57469 2.571815 0
-0.3403882 -54.52469 2.571815 0
-0.3403882 -54.52469 2.621815 0
-0.2903882 -54.52469 2.621815 0
-0.4403882 -54.57469 2.721815 0
-0.3903882 -54.57469 2.671815 0
-0.3903882 -54.57469 2.771815 0
-0.3903882 -54.57469 2.821815 0
-0.4403882 -54.52469 2.671815 0
-0.3903882 -54.52469 2.821815 0
-0.3403882 -54.57469 2.721815 0
-0.2903882 -54.57469 2.721815 0
-0.2903882 -54.57469 2.771815 0
-0.2403882 -54.57469 2.471815 0
-0.1903882 -54.57469 2.471815 0
-0.1903882 -54.57469 2.521815 0
-0.2403882 -54.57469 2.571815 0
-0.1903882 -54.57469 2.571815 0
-0.1903882 -54.57469 2.621815 0
-0.1403882 -54.57469 2.471815 0
-0.09038816 -54.57469 2.521815 0
-0.09038816 -54.57469 2.571815 0
-0.1403882 -54.52469 2.571815 0
-0.1403882 -54.52469 2.621815 0
-0.2403882 -54.57469 2.671815 0
-0.2403882 -54.57469 2.721815 0
-0.2403882 -54.57469 2.821815 0
-0.1903882 -54.57469 2.771815 0
-0.2403882 -54.52469 2.821815 0
-0.1403882 -54.57469 2.721815 0
-0.09038816 -54.57469 2.721815 0
-0.09038816 -54.57469 2.821815 0
-0.09038816 -54.52469 2.671815 0
-0.4403882 -54.57469 2.871815 0
-0.4403882 -54.57469 2.921815 0
-0.3903882 -54.57469 2.921815 0
-0.4403882 -54.57469 2.971815 0
-0.4403882 -54.52469 2.971815 0
-0.3403882 -54.57469 2.871815 0
-0.3403882 -54.57469 2.921815 0
-0.2903882 -54.57469 2.871815 0
-0.2903882 -54.57469 2.921815 0
-0.3403882 -54.57469 2.971815 0
-0.3403882 -54.52469 2.971815 0
-0.2903882 -54.52469 3.021815 0
-0.3903882 -54.57469 3.221815 0
-0.4403882 -54.52469 3.071815 0
-0.3903882 -54.52469 3.121815 0
-0.4403882 -54.52469 3.221815 0
-0.2903882 -54.57469 3.171815 0
-0.2403882 -54.57469 2.921815 0
-0.1903882 -54.57469 2.871815 0
-0.1903882 -54.57469 2.921815 0
-0.2403882 -54.57469 2.971815 0
-0.1903882 -54.57469 2.971815 0
-0.1903882 -54.57469 3.021815 0
-0.1403882 -54.57469 2.871815 0
-0.09038816 -54.57469 2.921815 0
-0.09038816 -54.57469 2.971815 0
-0.2403882 -54.57469 3.121815 0
-0.2403882 -54.57469 3.221815 0
-0.1403882 -54.57469 3.171815 0
-0.09038816 -54.57469 3.171815 0
-0.09038816 -54.57469 3.221815 0
-0.04038816 -54.57469 2.471815 0
-0.04038816 -54.57469 2.521815 0
0.009611839 -54.57469 2.471815 0
-0.04038816 -54.57469 2.571815 0
0.009611839 -54.57469 2.621815 0
0.05961184 -54.57469 2.471815 0
0.05961184 -54.57469 2.521815 0
0.1096118 -54.57469 2.471815 0
0.05961184 -54.57469 2.571815 0
0.1096118 -54.57469 2.571815 0
0.1096118 -54.57469 2.621815 0
0.05961184 -54.52469 2.621815 0
-0.04038816 -54.57469 2.721815 0
0.009611839 -54.57469 2.721815 0
-0.04038816 -54.57469 2.771815 0
0.05961184 -54.57469 2.671815 0
0.05961184 -54.57469 2.721815 0
0.05961184 -54.57469 2.771815 0
0.05961184 -54.57469 2.821815 0
0.05961184 -54.52469 2.821815 0
0.1596118 -54.57469 2.471815 0
0.1596118 -54.57469 2.521815 0
0.2096118 -54.57469 2.471815 0
0.2096118 -54.57469 2.521815 0
0.1596118 -54.57469 2.571815 0
0.2096118 -54.57469 2.571815 0
0.2096118 -54.52469 2.521815 0
0.2096118 -54.52469 2.621815 0
0.2596118 -54.57469 2.471815 0
0.3096119 -54.57469 2.471815 0
0.3096119 -54.57469 2.521815 0
0.2596118 -54.57469 2.621815 0
0.1596118 -54.57469 2.721815 0
0.2096118 -54.57469 2.721815 0
0.1596118 -54.57469 2.821815 0
0.2596118 -54.57469 2.671815 0
0.2596118 -54.57469 2.721815 0
0.2596118 -54.57469 2.771815 0
0.2596118 -54.57469 2.821815 0
0.3096119 -54.52469 2.671815 0
-0.04038816 -54.57469 2.871815 0
-0.04038816 -54.57469 2.921815 0
-0.04038816 -54.57469 2.971815 0
-0.04038816 -54.57469 3.021815 0
0.009611839 -54.57469 2.971815 0
0.05961184 -54.57469 2.871815 0
0.05961184 -54.57469 2.921815 0
0.1096118 -54.57469 2.871815 0
0.05961184 -54.57469 2.971815 0
0.05961184 -54.57469 3.021815 0
0.1096118 -54.57469 2.971815 0
0.1096118 -54.57469 3.021815 0
0.05961184 -54.57469 3.171815 0
0.05961184 -54.57469 3.221815 0
0.1596118 -54.57469 2.871815 0
0.1596118 -54.57469 2.921815 0
0.2096118 -54.57469 2.871815 0
0.1596118 -54.57469 2.971815 0
0.2096118 -54.57469 2.971815 0
0.2096118 -54.57469 3.021815 0
0.3096119 -54.57469 2.871815 0
0.3096119 -54.57469 2.921815 0
0.2596118 -54.57469 2.971815 0
0.3096119 -54.57469 2.971815 0
0.3096119 -54.57469 3.021815 0
0.2596118 -54.52469 3.021815 0
0.2096118 -54.57469 3.221815 0
0.2596118 -54.57469 3.221815 0
0.3596118 -54.57469 1.671815 0
0.3596118 -54.57469 1.721815 0
0.4096119 -54.57469 1.671815 0
0.4096119 -54.57469 1.721815 0
0.3596118 -54.57469 1.771815 0
0.4596118 -54.57469 1.671815 0
0.4596118 -54.57469 1.721815 0
0.5096118 -54.57469 1.671815 0
0.5096118 -54.57469 1.721815 0
0.4596118 -54.57469 1.771815 0
0.5096118 -54.57469 1.771815 0
0.3596118 -54.57469 1.871815 0
0.4096119 -54.57469 1.871815 0
0.4096119 -54.57469 2.021815 0
0.4596118 -54.57469 1.921815 0
0.5096118 -54.52469 1.971815 0
0.5596119 -54.57469 1.671815 0
0.5596119 -54.57469 1.721815 0
0.5596119 -54.57469 1.771815 0
0.5596119 -54.57469 1.821815 0
0.6096119 -54.57469 1.771815 0
0.6596118 -54.57469 1.671815 0
0.6596118 -54.57469 1.721815 0
0.7096118 -54.57469 1.721815 0
0.6596118 -54.57469 1.771815 0
0.7096118 -54.57469 1.771815 0
0.5596119 -54.57469 1.871815 0
0.6096119 -54.57469 1.871815 0
0.6096119 -54.57469 1.921815 0
0.5596119 -54.52469 1.971815 0
0.7096118 -54.57469 1.871815 0
0.7096118 -54.57469 1.921815 0
0.7096118 -54.52469 1.971815 0
0.3596118 -54.57469 2.071815 0
0.3596118 -54.57469 2.121815 0
0.4096119 -54.57469 2.071815 0
0.4096119 -54.57469 2.121815 0
0.3596118 -54.57469 2.171815 0
0.4596118 -54.57469 2.071815 0
0.4596118 -54.57469 2.121815 0
0.5096118 -54.57469 2.121815 0
0.4596118 -54.57469 2.171815 0
0.5096118 -54.57469 2.171815 0
0.5096118 -54.57469 2.221815 0
0.3596118 -54.57469 2.271815 0
0.3596118 -54.57469 2.321815 0
0.4096119 -54.57469 2.321815 0
0.3596118 -54.57469 2.421815 0
0.4596118 -54.57469 2.271815 0
0.4596118 -54.57469 2.371815 0
0.4596118 -54.57469 2.421815 0
0.5096118 -54.57469 2.371815 0
0.5596119 -54.57469 2.071815 0
0.5596119 -54.57469 2.121815 0
0.6096119 -54.57469 2.071815 0
0.6096119 -54.57469 2.171815 0
0.6596118 -54.57469 2.071815 0
0.6596118 -54.57469 2.121815 0
0.7096118 -54.57469 2.071815 0
0.7096118 -54.57469 2.121815 0
0.6596118 -54.57469 2.171815 0
0.6596118 -54.57469 2.221815 0
0.5596119 -54.57469 2.321815 0
0.6096119 -54.57469 2.271815 0
0.5596119 -54.57469 2.421815 0
0.6096119 -54.57469 2.371815 0
0.7096118 -54.57469 2.271815 0
0.7096118 -54.57469 2.321815 0
0.6596118 -54.62469 2.421815 0
0.7096118 -54.57469 2.371815 0
0.7596118 -54.57469 1.721815 0
0.8096119 -54.57469 1.671815 0
0.7596118 -54.57469 1.771815 0
0.8096119 -54.57469 1.771815 0
0.8596119 -54.57469 1.721815 0
0.9096119 -54.57469 1.671815 0
0.9096119 -54.57469 1.721815 0
0.8596119 -54.57469 1.771815 0
0.8596119 -54.57469 1.821815 0
0.9096119 -54.57469 1.771815 0
0.9096119 -54.57469 1.821815 0
0.7596118 -54.57469 1.921815 0
0.8096119 -54.57469 1.921815 0
0.8596119 -54.57469 1.871815 0
0.8596119 -54.57469 1.921815 0
0.9096119 -54.57469 1.921815 0
0.9096119 -54.52469 1.971815 0
0.9596118 -54.57469 1.721815 0
1.009612 -54.62469 1.721815 0
1.009612 -54.57469 1.721815 0
0.9596118 -54.57469 1.771815 0
1.009612 -54.57469 1.771815 0
1.059612 -54.57469 1.671815 0
1.059612 -54.57469 1.721815 0
1.109612 -54.57469 1.721815 0
1.059612 -54.57469 1.771815 0
1.059612 -54.57469 1.821815 0
1.109612 -54.57469 1.771815 0
1.109612 -54.52469 1.721815 0
0.9596118 -54.57469 1.921815 0
1.009612 -54.57469 1.921815 0
0.9596118 -54.57469 2.021815 0
1.059612 -54.57469 1.921815 0
1.109612 -54.62469 1.971815 0
1.109612 -54.47469 1.971815 0
0.7596118 -54.57469 2.071815 0
0.7596118 -54.57469 2.121815 0
0.8096119 -54.57469 2.071815 0
0.7596118 -54.57469 2.221815 0
0.8596119 -54.57469 2.071815 0
0.8596119 -54.57469 2.121815 0
0.9096119 -54.57469 2.071815 0
0.9096119 -54.57469 2.121815 0
0.8596119 -54.57469 2.171815 0
0.9096119 -54.57469 2.171815 0
0.9096119 -54.57469 2.221815 0
0.7596118 -54.57469 2.271815 0
0.7596118 -54.62469 2.421815 0
0.7596118 -54.57469 2.371815 0
0.8096119 -54.62469 2.371815 0
0.8596119 -54.57469 2.321815 0
0.8596119 -54.57469 2.421815 0
0.9096119 -54.57469 2.371815 0
0.9596118 -54.62469 2.121815 0
0.9596118 -54.57469 2.121815 0
1.009612 -54.57469 2.071815 0
1.009612 -54.57469 2.121815 0
1.059612 -54.57469 2.071815 0
1.059612 -54.57469 2.121815 0
1.109612 -54.57469 2.121815 0
1.059612 -54.57469 2.171815 0
1.059612 -54.57469 2.221815 0
1.109612 -54.52469 2.121815 0
0.9596118 -54.62469 2.321815 0
1.009612 -54.57469 2.271815 0
1.009612 -54.57469 2.421815 0
1.109612 -54.62469 2.321815 0
1.059612 -54.57469 2.371815 0
1.109612 -54.57469 2.371815 0
1.109612 -54.57469 2.421815 0
0.3596118 -54.57469 2.471815 0
0.4096119 -54.57469 2.471815 0
0.4096119 -54.57469 2.521815 0
0.3596118 -54.57469 2.571815 0
0.3596118 -54.57469 2.621815 0
0.4596118 -54.57469 2.471815 0
0.5096118 -54.57469 2.521815 0
0.4596118 -54.57469 2.571815 0
0.4596118 -54.57469 2.621815 0
0.5096118 -54.57469 2.571815 0
0.5096118 -54.57469 2.621815 0
0.4096119 -54.57469 2.671815 0
0.3596118 -54.57469 2.771815 0
0.3596118 -54.57469 2.821815 0
0.4096119 -54.57469 2.821815 0
0.4596118 -54.57469 2.771815 0
0.4596118 -54.57469 2.821815 0
0.5096118 -54.57469 2.771815 0
0.5096118 -54.52469 2.671815 0
0.5596119 -54.57469 2.471815 0
0.5596119 -54.57469 2.521815 0
0.6096119 -54.57469 2.471815 0
0.6096119 -54.57469 2.571815 0
0.6096119 -54.57469 2.621815 0
0.6596118 -54.57469 2.471815 0
0.6596118 -54.57469 2.521815 0
0.7096118 -54.57469 2.471815 0
0.6596118 -54.57469 2.571815 0
0.7096118 -54.57469 2.571815 0
0.5596119 -54.57469 2.671815 0
0.6096119 -54.57469 2.671815 0
0.5596119 -54.57469 2.771815 0
0.5596119 -54.57469 2.821815 0
0.6096119 -54.57469 2.821815 0
0.7096118 -54.57469 2.671815 0
0.6596118 -54.57469 2.771815 0
0.6596118 -54.57469 2.821815 0
0.7096118 -54.57469 2.771815 0
0.7096118 -54.52469 2.671815 0
0.3596118 -54.57469 2.871815 0
0.4096119 -54.57469 2.871815 0
0.4096119 -54.57469 2.921815 0
0.3596118 -54.57469 2.971815 0
0.3596118 -54.57469 3.021815 0
0.4096119 -54.57469 2.971815 0
0.4096119 -54.57469 3.021815 0
0.4596118 -54.57469 2.871815 0
0.4596118 -54.57469 2.971815 0
0.4596118 -54.57469 3.021815 0
0.5096118 -54.57469 2.971815 0
0.5096118 -54.57469 3.021815 0
0.3596118 -54.57469 3.221815 0
0.4096119 -54.57469 3.221815 0
0.5596119 -54.57469 2.871815 0
0.5596119 -54.57469 2.921815 0
0.6096119 -54.57469 2.871815 0
0.6096119 -54.57469 2.971815 0
0.6096119 -54.57469 3.021815 0
0.6596118 -54.57469 2.871815 0
0.6596118 -54.57469 2.921815 0
0.7096118 -54.57469 2.921815 0
0.6596118 -54.57469 2.971815 0
0.6596118 -54.57469 3.021815 0
0.7096118 -54.57469 2.971815 0
0.7096118 -54.57469 3.021815 0
0.5596119 -54.57469 3.071815 0
0.6096119 -54.57469 3.071815 0
0.5596119 -54.57469 3.221815 0
0.6596118 -54.57469 3.071815 0
0.7096118 -54.62469 3.071815 0
0.7596118 -54.57469 2.471815 0
0.7596118 -54.57469 2.521815 0
0.8096119 -54.57469 2.471815 0
0.7596118 -54.57469 2.621815 0
0.8096119 -54.57469 2.571815 0
0.8096119 -54.57469 2.621815 0
0.8596119 -54.57469 2.471815 0
0.8596119 -54.57469 2.521815 0
0.9096119 -54.57469 2.471815 0
0.9096119 -54.57469 2.521815 0
0.7596118 -54.57469 2.671815 0
0.7596118 -54.57469 2.771815 0
0.7596118 -54.57469 2.821815 0
0.8596119 -54.62469 2.671815 0
0.9096119 -54.57469 2.671815 0
0.9096119 -54.57469 2.721815 0
0.8596119 -54.57469 2.821815 0
0.9096119 -54.57469 2.771815 0
0.9596118 -54.57469 2.471815 0
0.9596118 -54.57469 2.521815 0
1.009612 -54.57469 2.521815 0
1.009612 -54.57469 2.621815 0
1.059612 -54.57469 2.471815 0
1.109612 -54.57469 2.521815 0
1.109612 -54.52469 2.471815 0
0.9596118 -54.57469 2.671815 0
0.9596118 -54.57469 2.821815 0
1.009612 -54.62469 2.771815 0
1.059612 -54.57469 2.671815 0
1.059612 -54.57469 2.721815 0
1.109612 -54.57469 2.721815 0
1.059612 -54.57469 2.821815 0
1.109612 -54.57469 2.821815 0
0.7596118 -54.57469 2.871815 0
0.7596118 -54.57469 2.921815 0
0.8096119 -54.57469 2.871815 0
0.8096119 -54.57469 2.921815 0
0.8596119 -54.57469 2.921815 0
0.9096119 -54.57469 2.871815 0
0.9096119 -54.57469 2.921815 0
0.8596119 -54.57469 2.971815 0
0.8596119 -54.57469 3.021815 0
0.9096119 -54.57469 3.021815 0
0.7596118 -54.57469 3.071815 0
0.8096119 -54.57469 3.071815 0
0.8596119 -54.57469 3.071815 0
0.8596119 -54.57469 3.121815 0
0.9096119 -54.57469 3.071815 0
0.9596118 -54.57469 2.921815 0
1.009612 -54.57469 2.871815 0
1.009612 -54.57469 2.921815 0
1.059612 -54.57469 2.871815 0
1.059612 -54.57469 2.921815 0
1.109612 -54.57469 2.921815 0
1.109612 -54.57469 3.021815 0
0.9596118 -54.57469 3.071815 0
1.009612 -54.57469 3.121815 0
1.059612 -54.57469 3.121815 0
1.109612 -54.57469 3.071815 0
-1.890388 -54.47469 3.571815 0
-1.740388 -54.52469 3.621815 0
-1.940388 -54.47469 3.771815 0
-1.890388 -54.47469 3.771815 0
-1.740388 -54.52469 3.771815 0
-1.540388 -54.52469 3.621815 0
-1.340388 -54.52469 3.621815 0
-1.590388 -54.52469 3.771815 0
-1.540388 -54.52469 3.771815 0
-1.590388 -54.52469 4.021815 0
-1.390388 -54.52469 3.771815 0
-1.290388 -54.52469 3.771815 0
-1.390388 -54.52469 3.971815 0
-1.390388 -54.52469 4.021815 0
-1.890388 -54.47469 4.221815 0
-1.890388 -54.47469 4.321815 0
-1.740388 -54.52469 4.221815 0
-1.740388 -54.52469 4.321815 0
-1.990388 -54.47469 4.721815 0
-1.540388 -54.52469 4.221815 0
-1.590388 -54.52469 4.321815 0
-1.340388 -54.52469 4.121815 0
-1.340388 -54.52469 4.221815 0
-1.390388 -54.52469 4.321815 0
-1.590388 -54.52469 4.721815 0
-1.390388 -54.52469 4.721815 0
-1.190388 -54.52469 3.321815 0
-1.090388 -54.52469 3.321815 0
-1.090388 -54.52469 3.421815 0
-1.140388 -54.52469 3.621815 0
-1.090388 -54.52469 3.571815 0
-1.040388 -54.52469 3.271815 0
-0.8903882 -54.57469 3.271815 0
-0.9403882 -54.52469 3.321815 0
-0.9403882 -54.52469 3.421815 0
-0.9903882 -54.57469 3.621815 0
-0.9903882 -54.52469 3.521815 0
-1.090388 -54.52469 3.771815 0
-1.090388 -54.52469 3.821815 0
-1.190388 -54.52469 4.021815 0
-0.9403882 -54.52469 3.771815 0
-0.9403882 -54.52469 3.821815 0
-0.9403882 -54.52469 4.021815 0
-0.7903882 -54.52469 3.271815 0
-0.7903882 -54.52469 3.321815 0
-0.8403882 -54.52469 3.421815 0
-0.6903881 -54.57469 3.271815 0
-0.6903881 -54.57469 3.321815 0
-0.7403882 -54.52469 3.321815 0
-0.6903881 -54.52469 3.421815 0
-0.8403882 -54.52469 3.521815 0
-0.7903882 -54.52469 3.621815 0
-0.6903881 -54.52469 3.521815 0
-0.6403882 -54.57469 3.321815 0
-0.5903882 -54.57469 3.371815 0
-0.5903882 -54.57469 3.421815 0
-0.5403882 -54.57469 3.271815 0
-0.5403882 -54.57469 3.321815 0
-0.4903882 -54.57469 3.271815 0
-0.5403882 -54.52469 3.321815 0
-0.5903882 -54.57469 3.621815 0
-0.5403882 -54.52469 3.471815 0
-0.7903882 -54.52469 3.771815 0
-0.7403882 -54.57469 3.771815 0
-0.6903881 -54.52469 3.771815 0
-0.7403882 -54.52469 4.021815 0
-0.5903882 -54.52469 3.771815 0
-0.5403882 -54.57469 3.821815 0
-0.5403882 -54.52469 4.021815 0
-1.140388 -54.52469 4.221815 0
-1.090388 -54.52469 4.321815 0
-0.9903882 -54.57469 4.221815 0
-0.9403882 -54.57469 4.321815 0
-1.190388 -54.52469 4.721815 0
-0.9403882 -54.52469 4.721815 0
-0.7903882 -54.57469 4.221815 0
-0.7403882 -54.57469 4.321815 0
-0.5903882 -54.57469 4.221815 0
-0.5903882 -54.57469 4.371815 0
-0.7403882 -54.52469 4.721815 0
-0.5403882 -54.52469 4.721815 0
-1.890388 -54.47469 4.871815 0
-1.740388 -54.52469 4.871815 0
-1.540388 -54.52469 4.871815 0
-1.340388 -54.52469 4.871815 0
-1.140388 -54.52469 4.871815 0
-0.9903882 -54.52469 4.871815 0
-0.7903882 -54.57469 4.871815 0
-0.5903882 -54.52469 4.871815 0
-0.4903882 -54.52469 5.171815 0
-1.990388 -54.42469 4.021815 0
-1.790388 -54.42469 3.771815 0
-1.790388 -54.37469 3.871815 0
-1.790388 -54.37469 4.021815 0
-1.790388 -54.37469 4.471815 0
-1.790388 -54.37469 4.721815 0
-1.240388 -54.37469 4.121815 0
-1.240388 -54.17469 4.071815 0
-0.4403882 -54.57469 3.271815 0
-0.3903882 -54.57469 3.321815 0
-0.4403882 -54.57469 3.371815 0
-0.4403882 -54.57469 3.421815 0
-0.3903882 -54.52469 3.321815 0
-0.3403882 -54.57469 3.271815 0
-0.2903882 -54.57469 3.271815 0
-0.2903882 -54.57469 3.321815 0
-0.3403882 -54.57469 3.371815 0
-0.3403882 -54.57469 3.421815 0
-0.3403882 -54.52469 3.321815 0
-0.4403882 -54.52469 3.471815 0
-0.4403882 -54.52469 3.621815 0
-0.2903882 -54.57469 3.471815 0
-0.2403882 -54.57469 3.321815 0
-0.1903882 -54.57469 3.271815 0
-0.1903882 -54.57469 3.321815 0
-0.1903882 -54.57469 3.421815 0
-0.1903882 -54.52469 3.371815 0
-0.1403882 -54.57469 3.271815 0
-0.09038816 -54.57469 3.321815 0
-0.09038816 -54.57469 3.371815 0
-0.1403882 -54.52469 3.321815 0
-0.1903882 -54.57469 3.471815 0
-0.2403882 -54.57469 3.621815 0
-0.4403882 -54.57469 3.771815 0
-0.3903882 -54.52469 3.821815 0
-0.3403882 -54.52469 4.021815 0
-0.2403882 -54.57469 3.771815 0
-0.2403882 -54.52469 3.821815 0
-0.09038816 -54.57469 3.821815 0
-0.09038816 -54.52469 3.771815 0
-0.1403882 -54.52469 4.021815 0
-0.04038816 -54.57469 3.271815 0
-0.04038816 -54.57469 3.321815 0
-0.04038816 -54.57469 3.421815 0
0.05961184 -54.57469 3.271815 0
0.05961184 -54.57469 3.321815 0
0.1096118 -54.57469 3.271815 0
0.05961184 -54.57469 3.371815 0
0.1096118 -54.57469 3.421815 0
0.05961184 -54.52469 3.321815 0
-0.04038816 -54.52469 3.621815 0
0.05961184 -54.57469 3.621815 0
0.2096118 -54.57469 3.271815 0
0.2096118 -54.57469 3.321815 0
0.1596118 -54.57469 3.371815 0
0.2096118 -54.57469 3.371815 0
0.2096118 -54.57469 3.421815 0
0.3096119 -54.57469 3.321815 0
0.3096119 -54.57469 3.371815 0
0.3096119 -54.52469 3.321815 0
0.1596118 -54.57469 3.621815 0
0.3096119 -54.57469 3.621815 0
0.05961184 -54.57469 3.771815 0
0.05961184 -54.57469 3.821815 0
0.05961184 -54.52469 4.021815 0
0.2096118 -54.57469 3.671815 0
0.2096118 -54.57469 3.821815 0
0.2596118 -54.57469 3.821815 0
0.3096119 -54.57469 3.821815 0
0.2096118 -54.57469 4.021815 0
0.2596118 -54.57469 3.871815 0
-0.4403882 -54.57469 4.221815 0
-0.4403882 -54.52469 4.321815 0
-0.2403882 -54.57469 4.271815 0
-0.2403882 -54.57469 4.371815 0
-0.2403882 -54.52469 4.371815 0
-0.09038816 -54.57469 4.371815 0
-0.3403882 -54.52469 4.771815 0
-0.04038816 -54.57469 4.271815 0
0.05961184 -54.57469 4.371815 0
0.3096119 -54.57469 4.071815 0
0.1596118 -54.57469 4.271815 0
0.3096119 -54.57469 4.271815 0
0.2596118 -54.57469 4.371815 0
0.2096118 -54.57469 4.621815 0
0.2596118 -54.57469 4.471815 0
0.3596118 -54.57469 3.271815 0
0.4096119 -54.57469 3.271815 0
0.4096119 -54.57469 3.321815 0
0.3596118 -54.57469 3.371815 0
0.3596118 -54.57469 3.421815 0
0.4096119 -54.57469 3.371815 0
0.4596118 -54.57469 3.271815 0
0.4596118 -54.57469 3.321815 0
0.5096118 -54.57469 3.321815 0
0.4596118 -54.57469 3.421815 0
0.5096118 -54.57469 3.371815 0
0.5096118 -54.57469 3.421815 0
0.5096118 -54.52469 3.321815 0
0.3596118 -54.57469 3.471815 0
0.5096118 -54.57469 3.471815 0
0.5096118 -54.57469 3.621815 0
0.5596119 -54.57469 3.321815 0
0.6096119 -54.57469 3.271815 0
0.6096119 -54.57469 3.321815 0
0.6096119 -54.57469 3.371815 0
0.6596118 -54.57469 3.321815 0
0.7096118 -54.57469 3.271815 0
0.7096118 -54.57469 3.321815 0
0.6596118 -54.57469 3.371815 0
0.7096118 -54.57469 3.371815 0
0.7096118 -54.57469 3.421815 0
0.6096119 -54.57469 3.571815 0
0.6596118 -54.57469 3.471815 0
0.7096118 -54.57469 3.621815 0
0.3596118 -54.57469 3.671815 0
0.4096119 -54.57469 3.821815 0
0.4596118 -54.57469 3.821815 0
0.5096118 -54.57469 3.921815 0
0.5596119 -54.57469 3.721815 0
0.6096119 -54.57469 3.821815 0
0.5596119 -54.52469 3.821815 0
0.7096118 -54.57469 3.721815 0
0.7596118 -54.57469 3.271815 0
0.8096119 -54.57469 3.321815 0
0.7596118 -54.57469 3.371815 0
0.8096119 -54.57469 3.371815 0
0.8596119 -54.57469 3.321815 0
0.9096119 -54.57469 3.271815 0
0.8596119 -54.57469 3.371815 0
0.9096119 -54.57469 3.371815 0
0.7596118 -54.57469 3.521815 0
0.8096119 -54.57469 3.471815 0
0.8096119 -54.57469 3.621815 0
0.9096119 -54.57469 3.521815 0
0.9096119 -54.57469 3.621815 0
0.9596118 -54.62469 3.321815 0
0.9596118 -54.57469 3.321815 0
0.9596118 -54.57469 3.371815 0
1.009612 -54.57469 3.371815 0
1.009612 -54.57469 3.421815 0
1.059612 -54.57469 3.271815 0
1.059612 -54.57469 3.321815 0
1.109612 -54.57469 3.321815 0
1.059612 -54.57469 3.371815 0
1.109612 -54.57469 3.371815 0
1.009612 -54.57469 3.621815 0
1.059612 -54.57469 3.571815 0
1.109612 -54.57469 3.621815 0
0.7596118 -54.57469 3.821815 0
0.8096119 -54.57469 3.821815 0
0.8596119 -54.57469 3.771815 0
0.9096119 -54.57469 3.821815 0
0.7596118 -54.57469 3.871815 0
0.7596118 -54.57469 3.971815 0
0.9096119 -54.57469 3.871815 0
1.059612 -54.57469 3.771815 0
1.059612 -54.57469 3.821815 0
1.009612 -54.62469 3.871815 0
1.059612 -54.57469 3.871815 0
1.059612 -54.57469 4.021815 0
0.5096118 -54.57469 4.071815 0
0.4096119 -54.57469 4.371815 0
0.5096118 -54.57469 4.271815 0
0.6096119 -54.57469 4.121815 0
0.7096118 -54.52469 4.071815 0
0.5596119 -54.57469 4.371815 0
0.7096118 -54.57469 4.271815 0
0.5096118 -54.57469 4.471815 0
0.8096119 -54.57469 4.121815 0
0.9096119 -54.57469 4.071815 0
0.7596118 -54.57469 4.371815 0
0.9096119 -54.57469 4.271815 0
0.9096119 -54.57469 4.371815 0
1.009612 -54.57469 4.171815 0
1.109612 -54.57469 4.271815 0
1.059612 -54.57469 4.421815 0
0.7596118 -54.57469 4.571815 0
1.059612 -54.57469 4.621815 0
-0.4403882 -54.57469 4.871815 0
-0.2403882 -54.57469 4.871815 0
-0.1403882 -54.57469 5.271815 0
-0.04038816 -54.57469 4.921815 0
0.1596118 -54.57469 4.921815 0
0.3096119 -54.57469 4.921815 0
0.2096118 -54.57469 5.321815 0
0.5096118 -54.57469 4.921815 0
0.7096118 -54.57469 4.921815 0
0.9096119 -54.57469 4.921815 0
1.109612 -54.57469 4.921815 0
-2.040388 -52.77469 0.1218147 0
-1.890388 -52.67469 0.1218147 0
-2.040388 -52.62469 0.07181472 0
-1.990388 -52.62469 0.1218147 0
-1.890388 -52.62469 0.07181472 0
-1.790388 -52.62469 0.07181472 0
-1.790388 -52.62469 0.1218147 0
-1.740388 -52.62469 0.1218147 0
-1.640388 -52.62469 0.07181472 0
-1.590388 -52.62469 0.1218147 0
-1.540388 -52.62469 0.07181472 0
-1.440388 -52.62469 0.1218147 0
-1.390388 -52.62469 0.07181472 0
-1.290388 -52.62469 0.07181472 0
-1.290388 -52.62469 0.1218147 0
-2.040388 -52.77469 2.921815 0
-1.990388 -52.82469 2.871815 0
-2.040388 -52.77469 2.971815 0
-2.040388 -52.67469 2.921815 0
-1.890388 -52.77469 2.921815 0
-1.940388 -52.72469 2.971815 0
-1.990388 -52.67469 3.221815 0
-1.890388 -52.62469 2.971815 0
-1.890388 -52.62469 3.021815 0
-1.890388 -52.62469 3.071815 0
-1.840388 -52.82469 2.871815 0
-1.790388 -52.77469 2.921815 0
-1.840388 -52.67469 2.971815 0
-1.690388 -52.77469 2.871815 0
-1.740388 -52.67469 2.971815 0
-1.740388 -52.62469 2.971815 0
-1.740388 -52.62469 3.021815 0
-1.640388 -52.82469 2.921815 0
-1.590388 -52.67469 3.021815 0
-1.540388 -52.82469 2.871815 0
-1.540388 -52.82469 2.921815 0
-1.490388 -52.77469 2.971815 0
-1.490388 -52.67469 2.971815 0
-1.590388 -52.67469 3.121815 0
-1.640388 -52.62469 2.971815 0
-1.540388 -52.62469 3.021815 0
-1.390388 -52.82469 2.871815 0
-1.390388 -52.77469 2.921815 0
-1.440388 -52.67469 3.021815 0
-1.390388 -52.67469 2.971815 0
-1.390388 -52.67469 3.021815 0
-1.290388 -52.77469 2.921815 0
-1.340388 -52.67469 3.071815 0
-1.340388 -52.62469 3.021815 0
-1.290388 -52.62469 3.021815 0
-1.240388 -52.82469 2.871815 0
-1.240388 -52.67469 2.971815 0
-1.140388 -52.67469 3.071815 0
-2.040388 -51.17469 0.07181472 0
-2.040388 -51.07469 0.1218147 0
-1.940388 -51.17469 0.07181472 0
-1.990388 -50.97469 0.1218147 0
-1.890388 -50.87469 0.1218147 0
-1.790388 -51.17469 0.07181472 0
-1.840388 -50.77469 0.1218147 0
-1.740388 -50.67469 0.1218147 0
-1.690388 -50.57469 0.1218147 0
-1.640388 -51.17469 0.07181472 0
-1.540388 -51.17469 0.07181472 0
-1.390388 -51.17469 0.07181472 0
-1.290388 -51.12469 0.07181472 0
-1.590388 -50.47469 0.1218147 0
-1.540388 -50.37469 0.1218147 0
-1.490388 -50.27469 0.1218147 0
-1.440388 -50.17469 0.1218147 0
-1.340388 -50.07469 0.1218147 0
-1.290388 -49.97469 0.1218147 0
-1.140388 -51.17469 0.07181472 0
-1.040388 -51.17469 0.07181472 0
-0.8903882 -51.17469 0.07181472 0
-0.7903882 -51.12469 0.07181472 0
-0.6403882 -51.12469 0.07181472 0
-0.4903882 -51.12469 0.07181472 0
-1.190388 -49.87469 0.1218147 0
-1.140388 -49.77469 0.1218147 0
-1.090388 -49.67469 0.1218147 0
0.5596119 -51.82469 0.1218147 0
0.6596118 -51.72469 0.1218147 0
0.7096118 -51.57469 0.1218147 0
0.8096119 -51.52469 0.1218147 0
0.9096119 -51.42469 0.1218147 0
1.009612 -51.32469 0.1218147 0
-0.3903882 -51.07469 0.07181472 0
-0.2403882 -51.07469 0.07181472 0
-0.1403882 -51.07469 0.07181472 0
0.009611839 -51.02469 0.07181472 0
0.1096118 -51.02469 0.07181472 0
0.2596118 -50.97469 0.07181472 0
0.3596118 -50.97469 0.07181472 0
0.5096118 -50.97469 0.07181472 0
0.6096119 -50.92469 0.07181472 0
0.7596118 -50.92469 0.07181472 0
0.8596119 -50.87469 0.07181472 0
1.059612 -51.17469 0.1218147 0
1.009612 -50.87469 0.07181472 0
1.109612 -50.82469 0.07181472 0
-1.990388 -52.67469 3.321815 0
-1.990388 -52.67469 3.371815 0
-2.040388 -52.67469 3.721815 0
-1.990388 -52.67469 3.671815 0
-1.640388 -52.67469 3.321815 0
-1.590388 -52.67469 3.321815 0
-1.590388 -52.67469 3.671815 0
-1.890388 -52.62469 4.121815 0
-1.640388 -52.67469 4.071815 0
-1.240388 -52.67469 3.421815 0
1.159612 -54.57469 0.07181472 0
1.209612 -54.62469 0.1218147 0
1.209612 -54.57469 0.07181472 0
1.209612 -54.57469 0.1218147 0
1.159612 -54.62469 0.1718147 0
1.209612 -54.57469 0.1718147 0
1.159612 -54.52469 0.07181472 0
1.259612 -54.57469 0.07181472 0
1.309612 -54.57469 0.07181472 0
1.259612 -54.57469 0.1718147 0
1.159612 -54.57469 0.4218147 0
1.209612 -54.57469 0.4218147 0
1.259612 -54.57469 0.4218147 0
1.309612 -54.57469 0.4218147 0
1.359612 -54.57469 0.1218147 0
1.409612 -54.57469 0.07181472 0
1.359612 -54.62469 0.1718147 0
1.359612 -54.57469 0.1718147 0
1.459612 -54.57469 0.07181472 0
1.459612 -54.57469 0.1218147 0
1.509612 -54.62469 0.1218147 0
1.509612 -54.57469 0.07181472 0
1.509612 -54.57469 0.1218147 0
1.459612 -54.57469 0.1718147 0
1.509612 -54.62469 0.1718147 0
1.409612 -54.57469 0.4218147 0
1.509612 -54.62469 0.4218147 0
1.509612 -54.57469 0.4218147 0
1.309612 -54.67469 0.7718147 0
1.209612 -54.57469 0.4718147 0
1.209612 -54.57469 0.5718147 0
1.159612 -54.52469 0.4718147 0
1.159612 -54.52469 0.5218147 0
1.209612 -54.47469 0.5218147 0
1.159612 -54.52469 0.5718147 0
1.209612 -54.52469 0.5718147 0
1.259612 -54.62469 0.5218147 0
1.309612 -54.62469 0.5218147 0
1.309612 -54.52469 0.4718147 0
1.309612 -54.52469 0.5218147 0
1.309612 -54.47469 0.5218147 0
1.259612 -54.52469 0.5718147 0
1.309612 -54.52469 0.5718147 0
1.209612 -54.57469 0.7718147 0
1.209612 -54.57469 0.8218147 0
1.159612 -54.52469 0.7718147 0
1.509612 -54.67469 0.5718147 0
1.359612 -54.67469 0.7718147 0
1.409612 -54.67469 0.7718147 0
1.459612 -54.67469 0.7718147 0
1.509612 -54.67469 0.7718147 0
1.409612 -54.62469 0.5218147 0
1.359612 -54.62469 0.5718147 0
1.359612 -54.62469 0.6218147 0
1.359612 -54.57469 0.5718147 0
1.359612 -54.52469 0.5218147 0
1.409612 -54.47469 0.4718147 0
1.359612 -54.52469 0.5718147 0
1.459612 -54.62469 0.5218147 0
1.459612 -54.57469 0.5718147 0
1.459612 -54.52469 0.4718147 0
1.459612 -54.52469 0.5218147 0
1.459612 -54.47469 0.5218147 0
1.509612 -54.52469 0.5218147 0
1.459612 -54.52469 0.5718147 0
1.509612 -54.52469 0.5718147 0
1.559612 -54.57469 0.07181472 0
1.609612 -54.62469 0.1218147 0
1.609612 -54.57469 0.07181472 0
1.609612 -54.57469 0.1218147 0
1.559612 -54.57469 0.1718147 0
1.609612 -54.62469 0.1718147 0
1.609612 -54.57469 0.1718147 0
1.659612 -54.62469 0.1218147 0
1.659612 -54.57469 0.07181472 0
1.709612 -54.57469 0.07181472 0
1.709612 -54.62469 0.1718147 0
1.659612 -54.57469 0.4218147 0
1.759612 -54.62469 0.07181472 0
1.759612 -54.62469 0.1218147 0
1.759612 -54.57469 0.07181472 0
1.759612 -54.57469 0.1218147 0
1.809612 -54.62469 0.1218147 0
1.809612 -54.57469 0.07181472 0
1.759612 -54.57469 0.1718147 0
1.809612 -54.62469 0.1718147 0
1.859612 -54.57469 0.07181472 0
1.859612 -54.57469 0.1218147 0
1.909612 -54.62469 0.1218147 0
1.909612 -54.57469 0.07181472 0
1.859612 -54.62469 0.1718147 0
1.859612 -54.57469 0.1718147 0
1.759612 -54.57469 0.4218147 0
1.809612 -54.57469 0.4218147 0
1.859612 -54.57469 0.4218147 0
1.659612 -54.67469 0.5218147 0
1.659612 -54.67469 0.6218147 0
1.559612 -54.72469 0.7718147 0
1.659612 -54.72469 0.7718147 0
1.659612 -54.67469 0.7718147 0
1.609612 -54.62469 0.5218147 0
1.559612 -54.62469 0.5718147 0
1.559612 -54.52469 0.5218147 0
1.559612 -54.47469 0.4718147 0
1.609612 -54.52469 0.4718147 0
1.609612 -54.47469 0.5218147 0
1.609612 -54.52469 0.5718147 0
1.709612 -54.62469 0.5718147 0
1.659612 -54.52469 0.4718147 0
1.709612 -54.52469 0.4718147 0
1.709612 -54.52469 0.5218147 0
1.709612 -54.52469 0.5718147 0
1.759612 -54.67469 0.5718147 0
1.759612 -54.72469 0.7718147 0
1.759612 -54.67469 0.7718147 0
1.859612 -54.67469 0.7718147 0
1.909612 -54.72469 0.7718147 0
1.759612 -54.62469 0.5218147 0
1.809612 -54.62469 0.5718147 0
1.809612 -54.57469 0.5718147 0
1.759612 -54.52469 0.5218147 0
1.809612 -54.52469 0.4718147 0
1.759612 -54.52469 0.5718147 0
1.859612 -54.62469 0.5218147 0
1.859612 -54.52469 0.4718147 0
1.859612 -54.52469 0.5218147 0
1.909612 -54.52469 0.5218147 0
1.909612 -54.47469 0.5218147 0
1.859612 -54.52469 0.5718147 0
1.909612 -54.52469 0.5718147 0
1.209612 -54.67469 0.9718148 0
1.259612 -54.72469 0.9718148 0
1.309612 -54.67469 0.9718148 0
1.309612 -54.67469 1.121815 0
1.309612 -54.67469 1.171815 0
1.209612 -54.57469 0.9218147 0
1.159612 -54.57469 0.9718148 0
1.209612 -54.57469 0.9718148 0
1.159612 -54.52469 0.8718147 0
1.159612 -54.52469 0.9718148 0
1.209612 -54.52469 0.9718148 0
1.209612 -54.57469 1.071815 0
1.209612 -54.57469 1.221815 0
1.159612 -54.52469 1.121815 0
1.209612 -54.52469 1.071815 0
1.259612 -54.62469 1.071815 0
1.359612 -54.72469 0.9218147 0
1.359612 -54.67469 0.8718147 0
1.409612 -54.67469 0.8718147 0
1.359612 -54.72469 0.9718148 0
1.359612 -54.67469 0.9718148 0
1.409612 -54.72469 0.9718148 0
1.409612 -54.67469 0.9718148 0
1.459612 -54.67469 0.8718147 0
1.459612 -54.67469 0.9218147 0
1.509612 -54.72469 0.9218147 0
1.459612 -54.72469 0.9718148 0
1.509612 -54.72469 0.9718148 0
1.509612 -54.72469 1.021815 0
1.509612 -54.67469 0.9718148 0
1.509612 -54.67469 1.021815 0
1.359612 -54.72469 1.121815 0
1.409612 -54.67469 1.071815 0
1.409612 -54.67469 1.121815 0
1.409612 -54.72469 1.221815 0
1.409612 -54.67469 1.171815 0
1.459612 -54.72469 1.121815 0
1.509612 -54.67469 1.121815 0
1.509612 -54.67469 1.171815 0
1.259612 -54.72469 1.321815 0
1.309612 -54.72469 1.321815 0
1.259612 -54.72469 1.371815 0
1.309612 -54.72469 1.471815 0
1.209612 -54.62469 1.321815 0
1.209612 -54.57469 1.321815 0
1.209612 -54.57469 1.371815 0
1.209612 -54.57469 1.421815 0
1.159612 -54.52469 1.271815 0
1.159612 -54.52469 1.421815 0
1.209612 -54.52469 1.421815 0
1.209612 -54.57469 1.571815 0
1.159612 -54.52469 1.471815 0
1.209612 -54.52469 1.571815 0
1.259612 -54.57469 1.621815 0
1.359612 -54.72469 1.321815 0
1.359612 -54.67469 1.271815 0
1.409612 -54.72469 1.321815 0
1.359612 -54.72469 1.421815 0
1.409612 -54.72469 1.371815 0
1.409612 -54.72469 1.421815 0
1.459612 -54.72469 1.321815 0
1.459612 -54.67469 1.271815 0
1.459612 -54.67469 1.321815 0
1.509612 -54.72469 1.321815 0
1.459612 -54.72469 1.421815 0
1.509612 -54.72469 1.371815 0
1.359612 -54.67469 1.471815 0
1.409612 -54.67469 1.471815 0
1.509612 -54.72469 1.471815 0
1.509612 -54.67469 1.471815 0
1.359612 -54.62469 1.271815 0
1.409612 -54.62469 1.621815 0
1.459612 -54.62469 1.621815 0
1.509612 -54.62469 1.621815 0
1.559612 -54.72469 0.8718147 0
1.559612 -54.72469 0.9218147 0
1.609612 -54.67469 0.8718147 0
1.559612 -54.72469 0.9718148 0
1.609612 -54.72469 0.9718148 0
1.659612 -54.72469 0.9218147 0
1.709612 -54.72469 0.8718147 0
1.659612 -54.72469 0.9718148 0
1.659612 -54.72469 1.021815 0
1.659612 -54.67469 0.9718148 0
1.709612 -54.72469 0.9718148 0
1.559612 -54.67469 1.121815 0
1.609612 -54.67469 1.071815 0
1.609612 -54.67469 1.121815 0
1.559612 -54.72469 1.221815 0
1.659612 -54.72469 1.121815 0
1.659612 -54.67469 1.171815 0
1.709612 -54.72469 1.221815 0
1.709612 -54.67469 1.171815 0
1.759612 -54.72469 0.9218147 0
1.759612 -54.67469 0.8718147 0
1.809612 -54.67469 0.8718147 0
1.809612 -54.67469 0.9218147 0
1.759612 -54.72469 0.9718148 0
1.809612 -54.67469 0.9718148 0
1.859612 -54.67469 0.8718147 0
1.859612 -54.67469 0.9218147 0
1.909612 -54.72469 0.9218147 0
1.859612 -54.72469 0.9718148 0
1.859612 -54.72469 1.021815 0
1.909612 -54.72469 0.9718148 0
1.759612 -54.67469 1.071815 0
1.759612 -54.67469 1.121815 0
1.809612 -54.72469 1.121815 0
1.809612 -54.67469 1.221815 0
1.859612 -54.72469 1.121815 0
1.909612 -54.72469 1.121815 0
1.859612 -54.67469 1.171815 0
1.559612 -54.67469 1.271815 0
1.559612 -54.67469 1.321815 0
1.609612 -54.67469 1.271815 0
1.609612 -54.67469 1.321815 0
1.559612 -54.72469 1.421815 0
1.659612 -54.72469 1.321815 0
1.709612 -54.72469 1.321815 0
1.659612 -54.72469 1.371815 0
1.709612 -54.72469 1.421815 0
1.559612 -54.72469 1.471815 0
1.659612 -54.72469 1.471815 0
1.659612 -54.67469 1.471815 0
1.609612 -54.62469 1.471815 0
1.609612 -54.57469 1.471815 0
1.609612 -54.62469 1.621815 0
1.709612 -54.62469 1.471815 0
1.659612 -54.62469 1.621815 0
1.709612 -54.62469 1.621815 0
1.759612 -54.72469 1.321815 0
1.759612 -54.67469 1.271815 0
1.809612 -54.67469 1.271815 0
1.809612 -54.67469 1.321815 0
1.759612 -54.72469 1.371815 0
1.859612 -54.72469 1.321815 0
1.859612 -54.67469 1.271815 0
1.909612 -54.72469 1.321815 0
1.909612 -54.72469 1.371815 0
1.909612 -54.72469 1.421815 0
1.759612 -54.67469 1.471815 0
1.809612 -54.67469 1.471815 0
1.859612 -54.72469 1.471815 0
1.909612 -54.72469 1.471815 0
1.809612 -54.57469 1.471815 0
1.759612 -54.62469 1.621815 0
1.809612 -54.62469 1.621815 0
