# .PCD v0.7 - Point Cloud Data file format
VERSION 0.7
FIELDS x y z intensity
SIZE 4 4 4 4
TYPE F F F F
COUNT 1 1 1 1
WIDTH 1529
HEIGHT 1
VIEWPOINT 0 0 0 1 0 0 0
POINTS 1529
DATA ascii
83.50961 -18.17469 -0.02818528 0
83.70961 -18.07469 -0.02818528 0
83.85961 -17.92469 -0.02818528 0
84.00961 -17.82469 -0.02818528 0
84.20961 -17.67469 -0.02818528 0
84.40961 -24.02469 -0.02818528 0
84.50961 -22.72469 -0.07818528 0
84.40961 -22.52469 -0.07818528 0
84.70961 -22.77469 -0.07818528 0
84.60961 -22.57469 -0.07818528 0
84.90961 -22.77469 -0.07818528 0
84.80962 -22.62469 -0.07818528 0
85.05962 -22.62469 -0.07818528 0
85.15961 -22.77469 -0.07818528 0
85.25961 -22.67469 -0.07818528 0
85.35961 -22.82469 -0.07818528 0
85.45961 -22.72469 -0.07818528 0
85.55962 -22.77469 -0.07818528 0
85.65961 -22.72469 -0.07818528 0
85.75961 -22.77469 -0.07818528 0
85.85961 -22.72469 -0.07818528 0
84.95961 -21.72469 -0.02818528 0
84.40961 -21.52469 -0.02818528 0
84.55962 -21.57469 -0.02818528 0
84.75961 -21.62469 -0.02818528 0
85.15961 -22.27469 -0.07818528 0
85.40961 -22.37469 -0.07818528 0
85.15961 -21.77469 -0.02818528 0
85.60961 -22.42469 -0.07818528 0
85.80962 -22.42469 -0.07818528 0
86.00961 -22.82469 -0.07818528 0
86.10961 -22.77469 -0.07818528 0
86.00961 -22.52469 -0.07818528 0
86.20961 -22.77469 -0.07818528 0
86.30962 -22.77469 -0.07818528 0
86.20961 -22.52469 -0.07818528 0
86.40961 -22.77469 -0.07818528 0
86.50961 -22.82469 -0.07818528 0
86.40961 -22.57469 -0.07818528 0
86.60961 -22.77469 -0.07818528 0
87.35961 -24.02469 -0.02818528 0
86.75961 -22.82469 -0.07818528 0
86.85961 -22.77469 -0.07818528 0
86.95961 -22.82469 -0.07818528 0
87.05962 -22.77469 -0.07818528 0
87.15961 -22.87469 -0.07818528 0
87.25961 -22.77469 -0.07818528 0
87.35961 -22.82469 -0.07818528 0
87.50961 -22.77469 -0.07818528 0
87.25961 -20.92469 -0.02818528 0
87.45961 -21.02469 -0.02818528 0
84.45961 -20.32469 -0.07818528 0
84.65961 -20.22469 -0.07818528 0
84.85961 -20.12469 -0.07818528 0
85.05962 -20.07469 -0.07818528 0
85.25961 -19.97469 -0.07818528 0
85.40961 -19.82469 -0.07818528 0
85.50961 -19.72469 -0.02818528 0
85.35961 -19.62469 -0.02818528 0
85.70961 -19.87469 -0.02818528 0
85.60961 -19.72469 -0.07818528 0
85.85961 -19.97469 -0.02818528 0
85.80962 -19.62469 -0.07818528 0
86.00961 -20.12469 -0.02818528 0
86.20961 -20.22469 -0.02818528 0
86.55962 -20.47469 -0.02818528 0
86.70961 -20.57469 -0.02818528 0
86.35961 -20.37469 -0.02818528 0
85.95961 -19.52469 -0.07818528 0
86.15961 -19.42469 -0.07818528 0
86.30962 -19.27469 -0.07818528 0
86.90961 -20.67469 -0.02818528 0
87.05962 -20.82469 -0.02818528 0
86.50961 -19.17469 -0.07818528 0
86.70961 -19.07469 -0.07818528 0
86.85961 -18.97469 -0.07818528 0
87.05962 -18.82469 -0.07818528 0
87.20961 -18.72469 -0.07818528 0
87.40961 -18.57469 -0.07818528 0
81.90961 -16.17469 -0.02818528 0
82.50961 -17.22469 -0.02818528 0
82.65961 -17.07469 -0.02818528 0
82.15961 -16.52469 -0.02818528 0
82.05962 -16.37469 -0.02818528 0
81.65961 -15.87469 -0.02818528 0
81.75961 -16.02469 -0.02818528 0
82.80962 -16.92469 -0.02818528 0
82.95961 -16.77469 -0.02818528 0
83.10961 -16.62469 -0.02818528 0
83.25961 -16.47469 -0.02818528 0
83.40961 -16.32469 -0.02818528 0
83.55962 -16.17469 -0.02818528 0
83.70961 -16.02469 -0.02818528 0
83.85961 -15.87469 -0.02818528 0
84.05962 -15.72469 -0.02818528 0
84.35961 -17.52469 -0.02818528 0
84.50961 -17.42469 -0.02818528 0
84.70961 -17.27469 -0.02818528 0
84.85961 -17.12469 -0.02818528 0
85.00961 -16.97469 -0.02818528 0
85.15961 -16.82469 -0.02818528 0
85.30962 -16.67469 -0.02818528 0
85.50961 -16.57469 -0.02818528 0
85.65961 -16.42469 -0.02818528 0
85.75961 -16.22469 -0.02818528 0
85.95961 -16.07469 -0.02818528 0
86.10961 -15.92469 -0.02818528 0
86.25961 -15.77469 -0.02818528 0
87.55962 -23.97469 -0.02818528 0
87.60961 -24.02469 -0.02818528 0
87.75961 -23.87469 -0.02818528 0
87.85961 -23.92469 -0.02818528 0
87.95961 -23.87469 -0.02818528 0
88.05962 -23.87469 -0.02818528 0
88.15961 -23.82469 -0.02818528 0
88.25961 -23.82469 -0.02818528 0
87.60961 -22.87469 -0.07818528 0
87.80962 -22.87469 -0.07818528 0
87.70961 -22.72469 -0.07818528 0
87.90961 -22.72469 -0.07818528 0
88.00961 -22.87469 -0.07818528 0
88.20961 -22.87469 -0.07818528 0
88.10961 -22.67469 -0.07818528 0
88.35961 -23.77469 -0.02818528 0
88.40961 -23.77469 -0.02818528 0
88.50961 -23.67469 -0.02818528 0
88.65961 -23.67469 -0.02818528 0
88.70961 -23.62469 -0.02818528 0
88.80962 -23.62469 -0.02818528 0
88.90961 -23.57469 -0.02818528 0
89.00961 -23.52469 -0.02818528 0
89.10961 -23.52469 -0.02818528 0
88.45961 -22.87469 -0.07818528 0
88.65961 -22.87469 -0.1281853 0
88.35961 -22.67469 -0.07818528 0
88.55962 -22.62469 -0.07818528 0
88.85961 -22.87469 -0.1281853 0
88.75961 -22.62469 -0.07818528 0
89.05962 -22.82469 -0.1281853 0
88.95961 -22.57469 -0.07818528 0
87.80962 -21.27469 -0.02818528 0
87.60961 -21.12469 -0.02818528 0
88.00961 -21.37469 -0.02818528 0
88.15961 -21.47469 -0.02818528 0
88.35961 -21.52469 -0.02818528 0
88.55962 -21.62469 -0.02818528 0
89.20961 -23.47469 -0.02818528 0
89.30962 -23.42469 -0.02818528 0
89.40961 -23.37469 -0.02818528 0
89.50961 -23.37469 -0.02818528 0
89.60961 -23.32469 -0.02818528 0
89.70961 -23.32469 -0.02818528 0
89.20961 -22.57469 -0.07818528 0
89.40961 -22.57469 -0.07818528 0
89.40961 -22.52469 -0.07818528 0
89.80962 -23.22469 -0.02818528 0
89.85961 -23.22469 -0.02818528 0
89.60961 -22.62469 -0.07818528 0
89.60961 -22.47469 -0.07818528 0
89.85961 -22.67469 -0.07818528 0
89.80962 -22.47469 -0.07818528 0
90.55962 -24.02469 -0.02818528 0
90.00961 -23.12469 -0.02818528 0
90.05962 -23.17469 -0.02818528 0
90.20961 -23.07469 -0.02818528 0
90.25961 -23.07469 -0.02818528 0
90.05962 -22.67469 -0.07818528 0
90.05962 -22.67469 -0.02818528 0
90.25961 -22.72469 -0.07818528 0
90.25961 -22.67469 -0.02818528 0
90.35961 -22.97469 -0.02818528 0
90.45961 -23.02469 -0.02818528 0
90.60961 -22.97469 -0.02818528 0
90.55962 -22.87469 -0.02818528 0
90.45961 -22.72469 -0.07818528 0
90.45961 -22.67469 -0.02818528 0
90.65961 -22.72469 -0.02818528 0
90.00961 -22.37469 -0.07818528 0
90.25961 -22.37469 -0.07818528 0
90.45961 -22.27469 -0.07818528 0
90.65961 -22.27469 -0.07818528 0
87.55962 -18.47469 -0.07818528 0
87.75961 -18.32469 -0.07818528 0
87.90961 -18.22469 -0.07818528 0
88.10961 -18.07469 -0.07818528 0
88.25961 -17.92469 -0.07818528 0
88.40961 -17.82469 -0.07818528 0
88.55962 -17.67469 -0.07818528 0
90.80962 -22.87469 -0.02818528 0
90.75961 -22.77469 -0.02818528 0
90.85961 -22.72469 -0.02818528 0
90.85961 -22.57469 -0.02818528 0
90.85961 -22.47469 -0.02818528 0
90.85961 -22.22469 -0.07818528 0
90.85961 -22.12469 -0.02818528 0
90.90961 -22.07469 -0.02818528 0
90.90961 -21.77469 -0.02818528 0
91.00961 -22.02469 -0.07818528 0
90.90961 -21.62469 -0.02818528 0
90.90961 -21.42469 -0.02818528 0
90.90961 -21.22469 -0.02818528 0
90.90961 -21.07469 -0.02818528 0
90.95961 -20.82469 0.02181472 0
90.95961 -20.77469 0.02181472 0
90.95961 -20.67469 -0.02818528 0
90.95961 -20.47469 0.02181472 0
90.95961 -20.37469 -0.02818528 0
91.00961 -20.07469 0.02181472 0
90.95961 -20.02469 0.02181472 0
91.10961 -19.97469 -0.07818528 0
91.00961 -19.72469 0.02181472 0
91.10961 -19.67469 -0.02818528 0
91.00961 -19.42469 0.02181472 0
91.15961 -19.62469 -0.02818528 0
91.00961 -19.12469 0.02181472 0
91.00961 -19.07469 0.02181472 0
91.00961 -18.82469 0.02181472 0
91.05962 -18.77469 0.02181472 0
91.00961 -18.57469 0.02181472 0
91.05962 -18.47469 0.02181472 0
91.15961 -19.22469 -0.02818528 0
91.15961 -19.17469 -0.02818528 0
91.15961 -18.82469 -0.02818528 0
91.15961 -18.77469 -0.02818528 0
91.20961 -18.52469 -0.02818528 0
91.20961 -18.47469 -0.02818528 0
91.05962 -18.27469 0.02181472 0
91.05962 -18.17469 0.02181472 0
91.05962 -18.02469 0.02181472 0
91.05962 -17.77469 0.02181472 0
91.15961 -18.37469 -0.02818528 0
91.20961 -18.17469 -0.02818528 0
91.20961 -18.12469 -0.02818528 0
91.15961 -17.97469 0.02181472 0
91.20961 -17.82469 -0.02818528 0
88.75961 -17.57469 -0.07818528 0
88.90961 -17.42469 -0.07818528 0
89.05962 -17.27469 -0.07818528 0
89.20961 -17.12469 -0.07818528 0
89.40961 -16.97469 -0.07818528 0
89.55962 -16.82469 -0.07818528 0
89.70961 -16.67469 -0.07818528 0
89.85961 -16.57469 -0.07818528 0
90.00961 -16.37469 -0.07818528 0
90.15961 -16.22469 -0.07818528 0
90.30962 -16.07469 -0.07818528 0
90.45961 -15.92469 -0.07818528 0
90.55962 -15.77469 -0.07818528 0
90.95961 -17.37469 0.02181472 0
91.10961 -17.32469 0.02181472 0
91.10961 -17.27469 -0.02818528 0
91.20961 -17.52469 -0.02818528 0
91.15961 -17.12469 -0.02818528 0
91.20961 -17.12469 0.02181472 0
91.25961 -17.17469 0.02181472 0
91.25961 -17.12469 -0.02818528 0
91.25961 -17.12469 0.02181472 0
91.35961 -17.17469 0.02181472 0
91.40961 -17.17469 0.02181472 0
91.35961 -17.12469 0.02181472 0
91.50961 -17.17469 -0.1281853 0
91.45961 -17.17469 -0.02818528 0
91.45961 -17.17469 0.02181472 0
91.50961 -17.22469 0.02181472 0
91.50961 -17.17469 -0.02818528 0
91.50961 -17.17469 0.02181472 0
91.75961 -17.27469 0.02181472 0
91.55962 -17.22469 0.02181472 0
91.55962 -17.17469 -0.02818528 0
91.65961 -17.22469 0.02181472 0
91.70961 -17.17469 -0.02818528 0
91.70961 -17.17469 0.02181472 0
91.75961 -17.17469 -0.02818528 0
91.80962 -17.22469 0.02181472 0
91.85961 -17.17469 -0.1281853 0
91.85961 -17.22469 0.02181472 0
91.85961 -17.17469 -0.02818528 0
91.95961 -17.27469 0.02181472 0
92.20961 -17.27469 0.02181472 0
91.95961 -17.22469 0.02181472 0
92.00961 -17.22469 -0.02818528 0
92.00961 -17.22469 0.02181472 0
92.10961 -17.22469 0.02181472 0
92.20961 -17.17469 -0.1281853 0
92.15961 -17.22469 0.02181472 0
92.15961 -17.17469 -0.02818528 0
92.20961 -17.22469 0.02181472 0
92.25961 -17.22469 -0.02818528 0
92.25961 -17.22469 0.02181472 0
92.30962 -17.22469 0.02181472 0
92.35961 -17.27469 0.02181472 0
92.45961 -17.27469 0.02181472 0
92.55962 -17.27469 0.02181472 0
92.70961 -17.27469 0.02181472 0
92.40961 -17.22469 0.02181472 0
92.50961 -17.22469 -0.1281853 0
92.45961 -17.22469 -0.02818528 0
92.45961 -17.22469 0.02181472 0
92.50961 -17.22469 0.02181472 0
92.55962 -17.22469 -0.02818528 0
92.60961 -17.22469 0.02181472 0
92.65961 -17.22469 0.02181472 0
92.70961 -17.22469 0.02181472 0
92.85961 -17.27469 0.02181472 0
92.95961 -17.32469 0.02181472 0
93.00961 -17.27469 0.02181472 0
93.05962 -17.27469 0.02181472 0
93.10961 -17.27469 0.02181472 0
92.75961 -17.22469 0.02181472 0
92.80962 -17.22469 0.02181472 0
92.85961 -17.22469 -0.1281853 0
92.85961 -17.22469 0.02181472 0
92.90961 -17.22469 0.02181472 0
92.95961 -17.22469 0.02181472 0
93.00961 -17.22469 0.02181472 0
93.05962 -17.22469 0.02181472 0
93.15961 -17.27469 0.02181472 0
93.20961 -17.32469 0.02181472 0
93.20961 -17.27469 0.02181472 0
93.25961 -17.27469 0.02181472 0
93.35961 -17.27469 -0.02818528 0
93.35961 -17.27469 0.02181472 0
93.40961 -17.27469 0.02181472 0
93.45961 -17.32469 0.02181472 0
93.50961 -17.27469 -0.02818528 0
93.50961 -17.27469 0.02181472 0
93.20961 -17.22469 -0.1281853 0
93.25961 -17.22469 0.02181472 0
93.50961 -17.22469 -0.07818528 0
93.55962 -17.27469 0.02181472 0
93.60961 -17.27469 0.02181472 0
93.65961 -17.27469 0.02181472 0
93.70961 -17.27469 -0.02818528 0
93.80962 -17.27469 -0.07818528 0
93.75961 -17.27469 -0.02818528 0
93.75961 -17.27469 0.02181472 0
93.80962 -17.27469 0.02181472 0
93.90961 -17.32469 0.02181472 0
93.90961 -17.27469 -0.02818528 0
93.95961 -17.27469 -0.02818528 0
93.95961 -17.27469 0.02181472 0
94.00961 -17.27469 0.02181472 0
94.05962 -17.27469 -0.07818528 0
94.10961 -17.27469 -0.07818528 0
94.05962 -17.27469 -0.02818528 0
94.05962 -17.27469 0.02181472 0
94.10961 -17.32469 0.02181472 0
94.10961 -17.27469 0.02181472 0
94.15961 -17.32469 -0.02818528 0
94.25961 -17.32469 -0.02818528 0
94.25961 -17.32469 0.02181472 0
94.25961 -17.27469 0.02181472 0
94.35961 -17.27469 -0.07818528 0
94.40961 -17.27469 -0.07818528 0
94.35961 -17.32469 -0.02818528 0
94.40961 -17.32469 0.02181472 0
94.45961 -17.32469 -0.02818528 0
94.45961 -17.32469 0.02181472 0
94.45961 -17.27469 0.02181472 0
94.55962 -17.32469 0.02181472 0
94.60961 -17.32469 -0.02818528 0
94.60961 -17.32469 0.02181472 0
94.65961 -17.27469 -0.07818528 0
94.70961 -17.32469 0.02181472 0
94.75961 -17.32469 -0.07818528 0
94.75961 -17.32469 0.02181472 0
94.80962 -17.32469 -0.02818528 0
94.90961 -17.32469 0.02181472 0
94.95961 -17.32469 -0.07818528 0
95.00961 -17.32469 -0.02818528 0
95.05962 -17.32469 0.02181472 0
95.20961 -17.32469 -0.07818528 0
95.15961 -17.32469 0.02181472 0
95.20961 -17.32469 -0.02818528 0
95.20961 -17.32469 0.02181472 0
95.25961 -17.32469 -0.02818528 0
95.35961 -17.32469 0.02181472 0
95.40961 -17.32469 -0.02818528 0
95.45961 -17.37469 -0.02818528 0
95.50961 -17.37469 -0.02818528 0
95.50961 -17.32469 0.02181472 0
95.60961 -17.37469 -0.02818528 0
95.55962 -17.32469 0.02181472 0
95.65961 -17.37469 0.02181472 0
95.70961 -17.37469 -0.02818528 0
95.75961 -17.37469 -0.02818528 0
95.80962 -17.37469 -0.02818528 0
95.80962 -17.37469 0.02181472 0
95.85961 -17.37469 0.02181472 0
95.90961 -17.37469 -0.02818528 0
95.95961 -17.37469 -0.02818528 0
95.95961 -17.37469 0.02181472 0
96.00961 -17.37469 -0.02818528 0
96.00961 -17.37469 0.02181472 0
96.10961 -17.37469 0.02181472 0
96.15961 -17.37469 -0.02818528 0
96.20961 -17.37469 -0.02818528 0
96.25961 -17.37469 0.02181472 0
96.30962 -17.37469 -0.02818528 0
96.40961 -17.37469 -0.02818528 0
96.40961 -17.37469 0.02181472 0
96.50961 -17.37469 -0.02818528 0
96.55962 -17.37469 0.02181472 0
96.60961 -17.42469 -0.02818528 0
96.65961 -17.42469 -0.02818528 0
96.65961 -17.37469 -0.02818528 0
96.70961 -17.37469 -0.02818528 0
96.70961 -17.37469 0.02181472 0
96.80962 -17.42469 -0.02818528 0
96.85961 -17.42469 -0.02818528 0
96.85961 -17.42469 0.02181472 0
96.85961 -17.37469 -0.02818528 0
96.90961 -17.42469 -0.02818528 0
96.90961 -17.42469 0.02181472 0
97.00961 -17.42469 0.02181472 0
97.00961 -17.37469 -0.02818528 0
97.05962 -17.42469 -0.02818528 0
97.15961 -17.47469 0.02181472 0
97.15961 -17.42469 -0.02818528 0
97.15961 -17.42469 0.02181472 0
97.25961 -17.42469 -0.02818528 0
97.30962 -17.42469 0.02181472 0
97.40961 -17.47469 0.02181472 0
97.35961 -17.42469 -0.02818528 0
97.40961 -17.42469 -0.02818528 0
97.45961 -17.42469 -0.02818528 0
97.45961 -17.42469 0.02181472 0
97.50961 -17.42469 -0.02818528 0
97.60961 -17.42469 -0.02818528 0
97.60961 -17.42469 0.02181472 0
97.65961 -17.42469 -0.02818528 0
97.70961 -17.42469 -0.02818528 0
97.60961 -17.17469 0.02181472 0
97.70961 -17.07469 -0.02818528 0
97.65961 -16.92469 0.02181472 0
97.75961 -17.22469 -0.02818528 0
97.75961 -17.17469 -0.02818528 0
97.75961 -17.12469 -0.02818528 0
97.75961 -16.92469 -0.02818528 0
97.75961 -16.87469 -0.02818528 0
97.75961 -16.82469 -0.02818528 0
97.75961 -16.72469 -0.02818528 0
97.75961 -16.62469 -0.02818528 0
97.75961 -16.57469 -0.02818528 0
97.75961 -16.52469 -0.02818528 0
97.75961 -16.32469 -0.02818528 0
97.75961 -16.32469 0.02181472 0
97.75961 -16.27469 -0.02818528 0
97.75961 -16.22469 -0.02818528 0
97.80962 -16.07469 -0.02818528 0
97.75961 -15.97469 -0.02818528 0
97.75961 -15.92469 0.02181472 0
97.80962 -15.82469 0.02181472 0
97.80962 -15.77469 -0.02818528 0
97.80962 -15.72469 -0.02818528 0
106.1096 -17.77469 0.02181472 0
106.1096 -17.72469 -0.07818528 0
106.1096 -17.67469 0.02181472 0
106.2096 -17.77469 -0.1281853 0
106.2596 -17.77469 0.02181472 0
106.3096 -17.77469 0.02181472 0
106.3596 -17.77469 -0.07818528 0
106.5096 -17.77469 -0.1281853 0
106.4596 -17.77469 0.02181472 0
106.6596 -17.77469 -0.07818528 0
106.6596 -17.77469 0.02181472 0
102.9596 -15.72469 0.02181472 0
103.1596 -15.72469 0.02181472 0
103.2096 -15.72469 0.02181472 0
103.3096 -15.77469 0.02181472 0
103.4096 -15.77469 -0.1281853 0
103.3596 -15.77469 -0.02818528 0
103.4096 -15.82469 0.02181472 0
103.4096 -15.72469 -0.02818528 0
103.4096 -15.72469 0.02181472 0
103.4596 -15.77469 0.02181472 0
103.6096 -15.77469 -0.02818528 0
103.6096 -15.77469 0.02181472 0
103.6596 -15.77469 -0.02818528 0
103.7596 -15.77469 -0.07818528 0
103.7596 -15.77469 0.02181472 0
103.8096 -15.77469 -0.02818528 0
103.8596 -15.77469 0.02181472 0
103.9596 -15.77469 -0.02818528 0
103.9596 -15.77469 0.02181472 0
104.0096 -15.77469 -0.02818528 0
104.1096 -15.77469 -0.07818528 0
104.0596 -15.77469 0.02181472 0
104.1096 -15.77469 0.02181472 0
104.2096 -15.77469 -0.02818528 0
104.2596 -15.82469 0.02181472 0
104.3096 -15.77469 0.02181472 0
104.3596 -15.77469 -0.1781853 0
104.4596 -15.77469 -0.07818528 0
104.4596 -15.82469 0.02181472 0
104.5096 -15.77469 0.02181472 0
104.6096 -15.82469 0.02181472 0
104.7096 -15.82469 0.02181472 0
104.7596 -15.82469 -0.1781853 0
104.7596 -15.82469 -0.07818528 0
104.7596 -15.82469 0.02181472 0
104.9096 -15.82469 0.02181472 0
104.9596 -15.82469 0.02181472 0
105.0096 -15.82469 0.02181472 0
105.0596 -15.82469 -0.07818528 0
105.1096 -15.82469 -0.1281853 0
105.1096 -15.82469 0.02181472 0
106.1096 -17.57469 -0.1281853 0
106.0596 -17.57469 0.02181472 0
106.1096 -17.52469 -0.07818528 0
106.1096 -17.42469 0.02181472 0
106.1096 -17.32469 -0.1281853 0
106.1096 -17.27469 -0.07818528 0
106.1096 -17.32469 0.02181472 0
106.1096 -17.17469 0.02181472 0
106.1096 -17.07469 -0.1281853 0
106.1096 -17.07469 -0.07818528 0
106.1096 -17.07469 0.02181472 0
106.1096 -17.02469 0.02181472 0
106.1096 -16.97469 0.02181472 0
106.1096 -16.72469 0.02181472 0
106.1096 -16.52469 0.02181472 0
106.1596 -16.82469 -0.1281853 0
106.1596 -16.82469 -0.07818528 0
106.1596 -16.77469 0.02181472 0
106.1596 -16.57469 -0.1281853 0
106.1596 -16.57469 -0.02818528 0
106.1596 -16.52469 0.02181472 0
106.1596 -16.37469 -0.02818528 0
106.1596 -16.32469 -0.1281853 0
106.1596 -16.27469 0.02181472 0
106.1596 -16.07469 -0.1281853 0
106.1596 -16.12469 -0.02818528 0
106.1596 -16.07469 0.02181472 0
105.2596 -15.82469 0.02181472 0
105.3096 -15.82469 0.02181472 0
105.4596 -15.87469 0.02181472 0
105.4096 -15.82469 -0.07818528 0
105.4096 -15.82469 0.02181472 0
105.4596 -15.82469 -0.1281853 0
105.5096 -15.82469 0.02181472 0
105.6596 -15.87469 0.02181472 0
105.5596 -15.82469 0.02181472 0
105.7096 -15.82469 -0.07818528 0
105.7096 -15.82469 0.02181472 0
105.8096 -15.87469 0.02181472 0
105.8596 -15.87469 0.02181472 0
105.8096 -15.82469 -0.1281853 0
105.9096 -15.82469 0.02181472 0
105.9596 -15.87469 -0.02818528 0
106.0096 -15.87469 0.02181472 0
105.9596 -15.82469 0.02181472 0
106.1096 -15.82469 0.02181472 0
106.1596 -16.02469 0.02181472 0
106.1596 -15.87469 -0.1281853 0
106.1596 -15.92469 -0.02818528 0
106.1596 -15.87469 0.02181472 0
106.2096 -15.87469 0.02181472 0
106.8096 -17.77469 -0.1281853 0
106.8096 -17.77469 0.02181472 0
106.8596 -17.77469 0.02181472 0
106.9096 -17.77469 -0.02818528 0
106.9596 -17.77469 0.02181472 0
107.0096 -17.77469 0.02181472 0
107.0596 -17.77469 0.02181472 0
107.1096 -17.77469 0.02181472 0
107.1596 -17.77469 -0.1281853 0
107.1596 -17.77469 -0.02818528 0
107.1596 -17.77469 0.02181472 0
107.2596 -17.82469 0.02181472 0
107.2596 -17.77469 0.02181472 0
107.3096 -17.82469 0.02181472 0
107.4096 -17.77469 -0.1281853 0
107.4096 -17.82469 -0.02818528 0
107.4096 -17.82469 0.02181472 0
107.4596 -17.82469 0.02181472 0
107.5096 -17.82469 0.02181472 0
107.5596 -17.82469 -0.07818528 0
107.5596 -17.82469 0.02181472 0
107.6596 -17.82469 -0.02818528 0
107.6596 -17.82469 0.02181472 0
107.7096 -17.82469 0.02181472 0
107.8096 -17.82469 -0.07818528 0
107.7596 -17.82469 -0.02818528 0
107.8596 -17.82469 -0.02818528 0
107.8596 -17.82469 0.02181472 0
107.9096 -17.82469 0.02181472 0
108.0096 -17.82469 -0.07818528 0
107.9596 -17.82469 -0.02818528 0
108.0096 -17.82469 0.02181472 0
108.0596 -17.82469 0.02181472 0
108.1096 -17.82469 -0.02818528 0
108.1596 -17.82469 -0.02818528 0
108.1596 -17.82469 0.02181472 0
108.2096 -17.82469 0.02181472 0
108.2596 -17.82469 -0.07818528 0
108.2596 -17.82469 0.02181472 0
108.3096 -17.82469 -0.02818528 0
108.5096 -17.87469 0.02181472 0
108.3596 -17.82469 -0.02818528 0
108.3596 -17.82469 0.02181472 0
108.4596 -17.82469 -0.07818528 0
108.5596 -17.87469 -0.02818528 0
108.5596 -17.87469 0.02181472 0
108.7096 -17.87469 -0.07818528 0
108.7096 -17.87469 0.02181472 0
108.5596 -17.82469 -0.02818528 0
108.7596 -17.87469 -0.02818528 0
108.8596 -17.87469 0.02181472 0
108.9096 -17.87469 0.02181472 0
108.9596 -17.87469 -0.07818528 0
108.9596 -17.87469 -0.02818528 0
109.0096 -17.87469 0.02181472 0
109.0596 -17.87469 0.02181472 0
109.0096 -17.82469 -0.02818528 0
109.2096 -17.87469 -0.07818528 0
109.1596 -17.87469 -0.02818528 0
109.1596 -17.87469 0.02181472 0
109.2596 -17.87469 0.02181472 0
109.3596 -17.87469 -0.02818528 0
109.3596 -17.87469 0.02181472 0
109.4096 -17.87469 0.02181472 0
109.4596 -17.87469 -0.07818528 0
109.4596 -17.87469 0.02181472 0
109.5096 -17.87469 0.02181472 0
109.6096 -17.87469 -0.02818528 0
109.6096 -17.87469 0.02181472 0
109.7096 -17.87469 -0.07818528 0
109.6596 -17.87469 0.02181472 0
109.7096 -17.92469 0.02181472 0
109.8096 -17.87469 -0.02818528 0
109.8096 -17.87469 0.02181472 0
78.70961 -15.87469 0.6218147 0
78.70961 -15.77469 0.6718147 0
78.75961 -15.77469 0.6218147 0
90.85961 -23.47469 0.6218147 0
90.85961 -23.47469 1.321815 0
90.85961 -22.97469 0.6218147 0
90.85961 -22.52469 0.6218147 0
90.90961 -22.52469 0.6218147 0
90.85961 -22.97469 1.271815 0
90.85961 -22.57469 1.321815 0
90.85961 -22.52469 1.271815 0
90.85961 -23.47469 1.971815 0
90.85961 -23.47469 2.671815 0
90.85961 -22.97469 1.971815 0
90.85961 -22.52469 1.921815 0
90.85961 -22.52469 2.021815 0
90.85961 -22.97469 2.621815 0
90.85961 -22.52469 2.571815 0
90.85961 -22.52469 2.671815 0
90.85961 -22.52469 3.221815 0
90.85961 -22.12469 0.6218147 0
90.90961 -22.07469 0.6218147 0
90.90961 -21.77469 0.6218147 0
90.85961 -22.12469 1.321815 0
90.90961 -22.07469 1.271815 0
90.90961 -21.77469 1.271815 0
90.90961 -21.62469 0.6218147 0
90.90961 -21.42469 0.6218147 0
90.90961 -21.07469 0.6218147 0
90.95961 -21.22469 0.6218147 0
90.90961 -21.62469 1.221815 0
90.90961 -21.42469 1.271815 0
90.95961 -21.22469 1.221815 0
90.90961 -21.02469 1.271815 0
90.90961 -22.17469 1.971815 0
90.90961 -22.02469 1.871815 0
90.90961 -21.77469 1.921815 0
90.85961 -22.17469 2.621815 0
90.90961 -22.07469 3.171815 0
90.90961 -22.02469 2.521815 0
90.90961 -21.77469 2.621815 0
90.90961 -21.62469 1.871815 0
90.90961 -21.37469 1.921815 0
90.90961 -21.22469 1.821815 0
90.90961 -21.02469 1.871815 0
90.95961 -21.22469 2.421815 0
90.90961 -21.62469 2.471815 0
90.90961 -21.42469 2.571815 0
90.90961 -21.62469 3.121815 0
90.90961 -21.42469 3.221815 0
90.90961 -21.07469 2.521815 0
90.90961 -21.22469 3.071815 0
90.95961 -21.07469 3.171815 0
90.85961 -22.97469 3.971815 0
90.85961 -22.52469 3.921815 0
90.85961 -22.97469 4.671815 0
90.85961 -22.52469 5.271815 0
90.85961 -22.17469 3.321815 0
90.90961 -22.07469 3.821815 0
90.85961 -22.17469 4.021815 0
90.90961 -21.77469 3.271815 0
90.90961 -21.77469 3.971815 0
90.85961 -22.17469 4.721815 0
90.90961 -21.77469 4.621815 0
90.90961 -21.62469 3.771815 0
90.90961 -21.42469 3.871815 0
90.90961 -21.22469 3.671815 0
90.90961 -21.07469 3.821815 0
90.90961 -21.42469 4.571815 0
90.90961 -21.07469 4.521815 0
90.90961 -22.07469 5.171815 0
90.90961 -21.77469 5.321815 0
90.90961 -21.62469 5.071815 0
90.90961 -21.42469 5.271815 0
90.90961 -21.07469 5.171815 0
90.95961 -20.82469 0.5718147 0
90.95961 -20.82469 0.6218147 0
90.95961 -20.72469 0.6218147 0
90.95961 -20.47469 0.5718147 0
91.00961 -20.32469 0.07181472 0
90.95961 -20.37469 0.6218147 0
91.00961 -20.32469 0.6218147 0
91.00961 -20.12469 0.5718147 0
91.10961 -20.12469 0.6218147 0
90.95961 -20.82469 1.171815 0
90.95961 -20.67469 1.221815 0
90.95961 -20.47469 1.171815 0
90.95961 -20.37469 1.221815 0
91.00961 -20.32469 1.171815 0
90.95961 -20.07469 1.171815 0
91.10961 -20.12469 1.271815 0
91.00961 -19.92469 0.07181472 0
90.95961 -20.02469 0.6218147 0
91.00961 -19.87469 0.6218147 0
91.10961 -19.97469 0.6218147 0
90.95961 -19.72469 0.6218147 0
91.00961 -19.72469 0.5718147 0
91.10961 -19.67469 0.6218147 0
91.00961 -19.47469 0.07181472 0
91.00961 -19.47469 0.5718147 0
91.10961 -19.57469 0.6218147 0
91.00961 -19.42469 0.5718147 0
91.00961 -19.42469 0.6218147 0
90.95961 -20.02469 1.221815 0
91.00961 -19.87469 1.121815 0
91.00961 -19.72469 1.121815 0
91.00961 -19.72469 1.221815 0
91.10961 -20.02469 1.321815 0
91.10961 -19.67469 1.271815 0
91.00961 -19.47469 1.121815 0
91.00961 -19.42469 1.121815 0
91.00961 -19.42469 1.171815 0
91.10961 -19.57469 1.271815 0
90.95961 -20.82469 1.771815 0
90.95961 -20.72469 1.871815 0
90.95961 -20.82469 2.321815 0
90.95961 -20.82469 2.371815 0
90.95961 -20.42469 1.771815 0
90.95961 -20.37469 1.821815 0
91.00961 -20.32469 1.721815 0
90.95961 -20.07469 1.721815 0
91.10961 -20.12469 1.921815 0
90.95961 -20.42469 2.371815 0
91.00961 -20.32469 2.271815 0
90.95961 -20.07469 2.321815 0
90.95961 -20.07469 2.421815 0
90.95961 -20.67469 2.521815 0
90.95961 -20.82469 2.921815 0
90.95961 -20.82469 3.021815 0
90.95961 -20.72469 3.121815 0
90.95961 -20.47469 2.971815 0
90.95961 -20.37469 2.471815 0
91.00961 -20.37469 2.821815 0
90.95961 -20.37469 3.071815 0
90.95961 -20.07469 2.921815 0
90.95961 -20.02469 1.821815 0
91.00961 -19.87469 1.671815 0
91.00961 -19.72469 1.721815 0
90.95961 -19.72469 1.821815 0
91.10961 -19.67469 1.871815 0
91.00961 -19.92469 2.221815 0
91.00961 -19.72469 2.271815 0
91.00961 -19.72469 2.421815 0
91.00961 -19.52469 1.671815 0
91.00961 -19.42469 1.671815 0
91.00961 -19.42469 1.771815 0
91.00961 -19.47469 2.171815 0
91.00961 -19.42469 2.221815 0
91.00961 -19.42469 2.371815 0
91.15961 -19.62469 1.971815 0
91.00961 -19.92469 2.771815 0
90.95961 -20.02469 3.071815 0
91.00961 -19.72469 2.871815 0
91.00961 -19.72469 3.021815 0
91.10961 -19.62469 2.521815 0
91.00961 -19.47469 2.721815 0
91.10961 -19.62469 2.671815 0
91.00961 -19.42469 2.821815 0
91.00961 -19.42469 2.971815 0
91.05962 -19.07469 0.07181472 0
91.00961 -19.12469 0.6218147 0
91.00961 -19.07469 0.5718147 0
91.10961 -19.17469 0.6218147 0
91.05962 -19.07469 0.5718147 0
91.05962 -18.72469 0.07181472 0
91.00961 -18.82469 0.5718147 0
91.05962 -18.77469 0.5718147 0
91.05962 -18.67469 0.5718147 0
91.00961 -18.52469 0.5718147 0
91.05962 -18.47469 0.5718147 0
91.15961 -19.22469 0.6218147 0
91.15961 -18.82469 0.6218147 0
91.15961 -18.77469 0.6218147 0
91.15961 -18.52469 0.6218147 0
91.00961 -19.07469 1.121815 0
91.00961 -19.12469 1.171815 0
91.10961 -19.22469 1.221815 0
91.05962 -19.07469 1.121815 0
91.00961 -19.07469 1.621815 0
91.00961 -18.82469 1.171815 0
91.05962 -18.77469 1.121815 0
91.05962 -18.67469 1.071815 0
91.05962 -18.57469 1.171815 0
91.05962 -18.47469 1.071815 0
91.00961 -18.77469 1.621815 0
91.05962 -18.72469 1.571815 0
91.05962 -18.47469 1.621815 0
91.15961 -19.22469 1.271815 0
91.15961 -18.77469 1.221815 0
91.15961 -18.82469 1.271815 0
91.15961 -18.47469 1.321815 0
91.05962 -18.32469 0.07181472 0
91.05962 -18.32469 0.5718147 0
91.05962 -18.27469 0.5718147 0
91.05962 -18.17469 0.5718147 0
91.05962 -17.97469 0.07181472 0
91.05962 -17.87469 0.07181472 0
91.10961 -17.67469 0.07181472 0
91.05962 -18.02469 0.5718147 0
91.10961 -18.02469 0.5718147 0
91.05962 -17.87469 0.5718147 0
91.05962 -17.77469 0.5718147 0
91.10961 -17.67469 0.5718147 0
91.15961 -18.42469 0.5718147 0
91.15961 -18.42469 0.6218147 0
91.15961 -18.37469 0.5718147 0
91.20961 -18.17469 0.6218147 0
91.20961 -18.07469 0.6218147 0
91.15961 -17.97469 0.5718147 0
91.20961 -17.82469 0.6218147 0
91.05962 -18.32469 1.071815 0
91.05962 -18.27469 1.121815 0
91.05962 -18.17469 1.071815 0
91.05962 -18.32469 1.571815 0
91.05962 -18.17469 1.571815 0
91.05962 -18.02469 1.121815 0
91.10961 -17.97469 1.071815 0
91.05962 -17.87469 1.071815 0
91.05962 -17.72469 1.121815 0
91.05962 -17.97469 1.521815 0
91.05962 -17.87469 1.571815 0
91.10961 -17.67469 1.521815 0
91.15961 -18.42469 1.221815 0
91.15961 -18.37469 1.171815 0
91.20961 -18.07469 1.221815 0
91.20961 -18.17469 1.321815 0
91.15961 -17.97469 1.171815 0
91.20961 -17.77469 1.221815 0
91.20961 -17.82469 1.321815 0
91.00961 -19.07469 1.671815 0
91.00961 -19.12469 1.771815 0
91.10961 -19.22469 1.871815 0
91.00961 -19.07469 2.221815 0
91.05962 -19.07469 2.121815 0
91.00961 -19.12469 2.371815 0
91.00961 -18.87469 2.321815 0
91.00961 -18.82469 1.721815 0
91.05962 -18.57469 1.721815 0
91.05962 -18.77469 2.171815 0
91.05962 -18.67469 2.071815 0
91.05962 -18.47469 2.171815 0
91.00961 -18.57469 2.271815 0
91.15961 -19.22469 1.921815 0
91.15961 -18.77469 1.821815 0
91.15961 -18.82469 1.921815 0
91.15961 -18.47469 1.871815 0
91.15961 -18.52469 2.021815 0
91.15961 -18.77469 2.421815 0
91.10961 -19.22469 2.471815 0
91.00961 -19.07469 2.771815 0
91.05962 -19.07469 2.671815 0
91.00961 -19.12469 2.921815 0
91.05962 -19.07469 3.171815 0
91.05962 -18.72469 2.621815 0
91.00961 -18.77469 2.721815 0
91.05962 -18.47469 2.671815 0
91.00961 -18.82469 2.921815 0
91.05962 -18.72469 3.121815 0
91.05962 -18.57469 2.871815 0
91.05962 -18.47469 3.221815 0
91.15961 -19.22469 2.621815 0
91.15961 -18.82469 2.571815 0
91.15961 -18.47469 2.521815 0
91.15961 -18.52469 2.671815 0
91.05962 -18.27469 1.721815 0
91.05962 -18.32469 2.071815 0
91.05962 -18.32469 2.271815 0
91.05962 -18.17469 2.121815 0
91.05962 -18.02469 1.671815 0
91.05962 -17.97469 2.021815 0
91.05962 -17.77469 1.671815 0
91.10961 -17.67469 1.971815 0
91.05962 -18.02469 2.221815 0
91.05962 -17.87469 2.071815 0
91.05962 -17.77469 2.221815 0
91.15961 -18.37469 1.771815 0
91.20961 -18.17469 1.971815 0
91.20961 -18.12469 1.871815 0
91.15961 -18.37469 2.421815 0
91.15961 -17.97469 1.771815 0
91.20961 -17.72469 1.821815 0
91.20961 -17.82469 1.971815 0
91.20961 -17.97469 2.371815 0
91.05962 -18.32469 2.571815 0
91.05962 -18.27469 2.821815 0
91.05962 -18.17469 2.621815 0
91.05962 -18.32469 3.071815 0
91.05962 -18.17469 3.171815 0
91.05962 -17.97469 2.521815 0
91.05962 -17.87469 2.621815 0
91.05962 -18.02469 2.821815 0
91.10961 -17.67469 2.471815 0
91.05962 -17.77469 2.771815 0
91.05962 -17.97469 2.971815 0
91.05962 -17.87469 3.121815 0
91.10961 -17.67469 2.921815 0
91.20961 -18.07469 2.471815 0
91.20961 -18.17469 2.671815 0
91.20961 -17.77469 2.471815 0
91.20961 -17.82469 2.621815 0
90.95961 -20.82469 3.621815 0
90.95961 -20.72469 3.771815 0
91.00961 -20.32469 3.421815 0
90.95961 -20.42469 3.571815 0
90.95961 -20.07469 3.471815 0
90.95961 -20.37469 3.721815 0
90.95961 -20.07469 3.671815 0
90.95961 -20.72469 4.421815 0
90.95961 -20.37469 4.371815 0
90.95961 -20.07469 4.321815 0
91.00961 -19.92469 3.321815 0
91.00961 -19.72469 3.421815 0
91.00961 -19.72469 3.621815 0
91.00961 -19.47469 3.271815 0
91.00961 -19.42469 3.371815 0
91.00961 -19.42469 3.571815 0
91.00961 -19.77469 4.271815 0
91.00961 -19.42469 4.221815 0
91.00961 -19.42469 4.821815 0
90.95961 -20.72469 5.121815 0
90.95961 -20.37469 5.021815 0
90.95961 -20.07469 4.971815 0
91.00961 -19.72469 4.871815 0
91.00961 -19.07469 3.321815 0
91.00961 -19.12469 3.521815 0
91.05962 -18.77469 3.271815 0
91.00961 -18.82469 3.471815 0
91.05962 -18.57469 3.471815 0
91.00961 -18.57469 4.021815 0
91.15961 -18.52469 3.371815 0
91.00961 -19.12469 4.121815 0
91.00961 -19.12469 4.771815 0
91.00961 -18.82469 4.071815 0
91.00961 -18.82469 4.721815 0
91.05962 -18.57469 4.621815 0
91.05962 -18.27469 3.421815 0
91.05962 -18.27469 3.971815 0
91.05962 -18.02469 3.921815 0
91.05962 -17.77469 3.921815 0
91.20961 -18.17469 3.371815 0
91.20961 -18.17469 4.021815 0
91.05962 -18.27469 4.571815 0
90.25961 -15.72469 3.221815 0
90.55962 -15.87469 3.221815 0
90.30962 -15.87469 3.271815 0
91.05962 -17.57469 0.07181472 0
91.10961 -17.62469 0.5718147 0
91.00961 -17.37469 0.5718147 0
91.10961 -17.32469 0.5218147 0
91.10961 -17.27469 0.5718147 0
91.00961 -17.17469 0.07181472 0
91.00961 -17.12469 0.1218147 0
91.10961 -17.12469 0.07181472 0
91.00961 -17.17469 0.5718147 0
91.00961 -17.12469 0.5718147 0
91.10961 -17.12469 0.5718147 0
91.10961 -17.12469 0.6218147 0
91.20961 -17.57469 0.5718147 0
91.20961 -17.52469 0.6218147 0
91.15961 -17.17469 0.07181472 0
91.15961 -17.12469 0.07181472 0
91.15961 -17.12469 0.1218147 0
91.30962 -17.17469 0.1218147 0
91.30962 -17.12469 0.07181472 0
91.30962 -17.12469 0.1218147 0
91.40961 -17.22469 0.07181472 0
91.45961 -17.22469 0.1218147 0
91.45961 -17.17469 0.07181472 0
91.45961 -17.17469 0.1218147 0
91.50961 -17.17469 0.07181472 0
91.15961 -17.17469 0.5718147 0
91.20961 -17.17469 0.5718147 0
91.20961 -17.12469 0.5218147 0
91.15961 -17.12469 0.5718147 0
91.15961 -17.12469 0.6218147 0
91.30962 -17.17469 0.5718147 0
91.25961 -17.12469 0.5218147 0
91.25961 -17.12469 0.5718147 0
91.25961 -17.12469 0.6218147 0
91.30962 -17.12469 0.5718147 0
91.30962 -17.12469 0.6218147 0
91.40961 -17.22469 0.5218147 0
91.35961 -17.22469 0.5718147 0
91.40961 -17.17469 0.5718147 0
91.35961 -17.12469 0.5218147 0
91.35961 -17.12469 0.5718147 0
91.50961 -17.22469 0.5218147 0
91.45961 -17.17469 0.5718147 0
91.45961 -17.17469 0.6218147 0
91.50961 -17.22469 0.5718147 0
91.50961 -17.17469 0.6218147 0
91.10961 -17.62469 1.021815 0
91.10961 -17.62469 1.071815 0
91.00961 -17.37469 1.021815 0
91.10961 -17.32469 1.021815 0
90.95961 -17.37469 1.121815 0
91.10961 -17.27469 1.171815 0
91.10961 -17.62469 1.571815 0
90.95961 -17.37469 1.621815 0
91.00961 -17.32469 1.471815 0
91.10961 -17.37469 1.521815 0
91.00961 -17.17469 1.021815 0
91.00961 -17.12469 1.021815 0
91.00961 -17.17469 1.121815 0
91.10961 -17.17469 1.071815 0
91.10961 -17.12469 1.071815 0
91.10961 -17.12469 1.171815 0
91.00961 -17.17469 1.521815 0
91.00961 -17.17469 1.621815 0
91.00961 -17.12469 1.471815 0
91.10961 -17.17469 1.621815 0
91.10961 -17.12469 1.521815 0
91.20961 -17.57469 1.171815 0
91.20961 -17.52469 1.271815 0
91.15961 -17.17469 1.021815 0
91.15961 -17.12469 1.021815 0
91.20961 -17.12469 1.021815 0
91.30962 -17.17469 1.021815 0
91.25961 -17.12469 1.021815 0
91.30962 -17.12469 1.021815 0
91.15961 -17.12469 1.121815 0
91.25961 -17.17469 1.121815 0
91.25961 -17.12469 1.071815 0
91.30962 -17.12469 1.121815 0
91.25961 -17.12469 1.171815 0
91.35961 -17.22469 1.021815 0
91.40961 -17.22469 1.021815 0
91.40961 -17.17469 1.021815 0
91.35961 -17.12469 1.021815 0
91.45961 -17.22469 1.021815 0
91.45961 -17.17469 1.021815 0
91.50961 -17.22469 1.021815 0
91.50961 -17.17469 1.021815 0
91.40961 -17.22469 1.071815 0
91.35961 -17.12469 1.121815 0
91.45961 -17.17469 1.071815 0
91.45961 -17.17469 1.121815 0
91.50961 -17.22469 1.121815 0
91.45961 -17.17469 1.171815 0
91.50961 -17.17469 1.221815 0
91.15961 -17.12469 1.271815 0
91.15961 -17.17469 1.471815 0
91.15961 -17.17469 1.521815 0
91.20961 -17.17469 1.621815 0
91.15961 -17.12469 1.471815 0
91.20961 -17.12469 1.521815 0
91.30962 -17.22469 1.471815 0
91.25961 -17.12469 1.521815 0
91.30962 -17.12469 1.471815 0
91.25961 -17.12469 1.621815 0
91.45961 -17.17469 1.271815 0
91.35961 -17.22469 1.471815 0
91.35961 -17.17469 1.521815 0
91.40961 -17.22469 1.521815 0
91.45961 -17.22469 1.471815 0
91.50961 -17.22469 1.471815 0
91.50961 -17.22469 1.521815 0
91.45961 -17.17469 1.621815 0
91.55962 -17.22469 0.1218147 0
91.55962 -17.17469 0.1218147 0
91.60961 -17.22469 0.07181472 0
91.60961 -17.22469 0.1218147 0
91.70961 -17.22469 0.07181472 0
91.70961 -17.22469 0.1218147 0
91.75961 -17.22469 0.07181472 0
91.80962 -17.22469 0.07181472 0
91.85961 -17.22469 0.1218147 0
91.90961 -17.22469 0.07181472 0
91.90961 -17.22469 0.1218147 0
91.55962 -17.17469 0.5218147 0
91.55962 -17.22469 0.5718147 0
91.55962 -17.17469 0.6218147 0
91.60961 -17.22469 0.5718147 0
91.60961 -17.17469 0.5718147 0
91.65961 -17.22469 0.5218147 0
91.65961 -17.17469 0.5218147 0
91.70961 -17.22469 0.5218147 0
91.70961 -17.22469 0.5718147 0
91.70961 -17.22469 0.6218147 0
91.70961 -17.17469 0.5718147 0
91.70961 -17.17469 0.6218147 0
91.80962 -17.22469 0.5218147 0
91.75961 -17.22469 0.5718147 0
91.75961 -17.22469 0.6218147 0
91.80962 -17.22469 0.5718147 0
91.85961 -17.22469 0.5218147 0
91.85961 -17.22469 0.5718147 0
91.85961 -17.17469 0.5718147 0
91.85961 -17.17469 0.6218147 0
91.90961 -17.22469 0.6218147 0
92.15961 -17.27469 0.07181472 0
91.95961 -17.27469 0.5718147 0
92.15961 -17.27469 0.5718147 0
92.20961 -17.27469 0.5718147 0
91.95961 -17.22469 0.07181472 0
92.00961 -17.22469 0.1218147 0
92.05962 -17.22469 0.1218147 0
92.10961 -17.22469 0.07181472 0
92.10961 -17.22469 0.1218147 0
92.15961 -17.22469 0.1218147 0
92.20961 -17.22469 0.1218147 0
92.25961 -17.22469 0.07181472 0
92.25961 -17.22469 0.1218147 0
92.30962 -17.22469 0.07181472 0
92.30962 -17.22469 0.1218147 0
91.95961 -17.22469 0.5218147 0
92.00961 -17.22469 0.5218147 0
91.95961 -17.22469 0.6218147 0
92.00961 -17.22469 0.5718147 0
92.00961 -17.22469 0.6218147 0
92.10961 -17.22469 0.5218147 0
92.05962 -17.22469 0.5718147 0
92.10961 -17.22469 0.6218147 0
92.15961 -17.22469 0.5218147 0
92.15961 -17.22469 0.5718147 0
92.15961 -17.17469 0.6218147 0
92.20961 -17.22469 0.5718147 0
92.20961 -17.22469 0.6218147 0
92.20961 -17.17469 0.5718147 0
92.25961 -17.22469 0.5218147 0
92.30962 -17.22469 0.5218147 0
92.25961 -17.22469 0.5718147 0
92.25961 -17.22469 0.6218147 0
92.30962 -17.22469 0.5718147 0
92.30962 -17.22469 0.6218147 0
91.75961 -17.27469 1.121815 0
91.75961 -17.27469 1.571815 0
91.55962 -17.22469 1.021815 0
91.55962 -17.17469 1.021815 0
91.60961 -17.17469 1.021815 0
91.65961 -17.22469 1.021815 0
91.70961 -17.22469 1.021815 0
91.70961 -17.17469 1.021815 0
91.55962 -17.22469 1.071815 0
91.55962 -17.17469 1.221815 0
91.60961 -17.22469 1.171815 0
91.70961 -17.22469 1.071815 0
91.70961 -17.17469 1.121815 0
91.70961 -17.17469 1.171815 0
91.80962 -17.22469 1.021815 0
91.85961 -17.22469 1.021815 0
91.75961 -17.22469 1.071815 0
91.75961 -17.17469 1.221815 0
91.80962 -17.22469 1.171815 0
91.85961 -17.22469 1.071815 0
91.90961 -17.22469 1.121815 0
91.85961 -17.22469 1.221815 0
91.85961 -17.17469 1.221815 0
91.70961 -17.17469 1.271815 0
91.55962 -17.22469 1.521815 0
91.55962 -17.17469 1.471815 0
91.60961 -17.22469 1.471815 0
91.55962 -17.22469 1.571815 0
91.65961 -17.22469 1.471815 0
91.65961 -17.22469 1.521815 0
91.70961 -17.22469 1.471815 0
91.70961 -17.22469 1.521815 0
91.80962 -17.22469 1.521815 0
91.85961 -17.22469 1.471815 0
91.85961 -17.22469 1.521815 0
91.85961 -17.22469 1.571815 0
91.90961 -17.22469 1.621815 0
91.95961 -17.27469 1.071815 0
91.95961 -17.27469 1.121815 0
92.15961 -17.27469 1.071815 0
92.20961 -17.27469 1.121815 0
91.95961 -17.27469 1.571815 0
92.25961 -17.27469 1.521815 0
91.95961 -17.22469 1.021815 0
92.00961 -17.22469 1.021815 0
92.10961 -17.22469 1.021815 0
92.00961 -17.22469 1.071815 0
91.95961 -17.22469 1.171815 0
92.00961 -17.22469 1.171815 0
92.00961 -17.22469 1.221815 0
92.10961 -17.22469 1.121815 0
92.15961 -17.22469 1.021815 0
92.25961 -17.22469 1.021815 0
92.30962 -17.22469 1.021815 0
92.20961 -17.22469 1.071815 0
92.15961 -17.22469 1.221815 0
92.20961 -17.22469 1.171815 0
92.20961 -17.22469 1.221815 0
92.20961 -17.17469 1.221815 0
92.25961 -17.22469 1.071815 0
92.30962 -17.22469 1.121815 0
92.00961 -17.22469 1.321815 0
91.95961 -17.22469 1.521815 0
92.00961 -17.22469 1.471815 0
92.00961 -17.22469 1.521815 0
92.00961 -17.22469 1.571815 0
92.10961 -17.22469 1.471815 0
92.10961 -17.22469 1.521815 0
92.10961 -17.22469 1.621815 0
92.25961 -17.22469 1.321815 0
92.15961 -17.22469 1.471815 0
92.15961 -17.22469 1.521815 0
92.15961 -17.22469 1.571815 0
92.20961 -17.22469 1.571815 0
92.25961 -17.22469 1.471815 0
92.25961 -17.22469 1.521815 0
92.30962 -17.22469 1.471815 0
92.30962 -17.22469 1.621815 0
91.10961 -17.27469 1.821815 0
91.00961 -17.32469 1.921815 0
91.10961 -17.32469 2.021815 0
91.10961 -17.62469 2.071815 0
90.95961 -17.37469 2.171815 0
91.00961 -17.32469 2.421815 0
91.10961 -17.27469 2.421815 0
91.10961 -17.12469 1.671815 0
91.00961 -17.17469 1.921815 0
91.00961 -17.17469 2.021815 0
91.00961 -17.12469 1.921815 0
91.10961 -17.12469 2.021815 0
91.00961 -17.17469 2.171815 0
91.10961 -17.12469 2.221815 0
91.00961 -17.12469 2.371815 0
91.20961 -17.57469 1.721815 0
91.20961 -17.52469 1.921815 0
91.50961 -17.27469 1.671815 0
91.20961 -17.57469 2.321815 0
91.15961 -17.12469 1.721815 0
91.30962 -17.12469 1.671815 0
91.25961 -17.12469 1.771815 0
91.15961 -17.17469 1.921815 0
91.15961 -17.17469 2.021815 0
91.15961 -17.12469 1.921815 0
91.20961 -17.12469 2.021815 0
91.30962 -17.17469 1.921815 0
91.30962 -17.12469 1.921815 0
91.25961 -17.12469 2.021815 0
91.35961 -17.12469 1.721815 0
91.50961 -17.17469 1.671815 0
91.45961 -17.22469 1.771815 0
91.50961 -17.17469 1.821815 0
91.35961 -17.22469 1.921815 0
91.35961 -17.17469 1.971815 0
91.40961 -17.22469 2.021815 0
91.40961 -17.17469 2.021815 0
91.45961 -17.22469 1.921815 0
91.45961 -17.17469 1.921815 0
91.50961 -17.22469 1.971815 0
91.50961 -17.22469 2.021815 0
91.25961 -17.17469 2.171815 0
91.30962 -17.12469 2.221815 0
91.15961 -17.17469 2.371815 0
91.15961 -17.12469 2.271815 0
91.15961 -17.12469 2.371815 0
91.30962 -17.17469 2.371815 0
91.25961 -17.12469 2.371815 0
91.25961 -17.12469 2.421815 0
91.30962 -17.12469 2.371815 0
91.50961 -17.22469 2.071815 0
91.45961 -17.22469 2.221815 0
91.50961 -17.22469 2.221815 0
91.35961 -17.22469 2.421815 0
91.35961 -17.12469 2.271815 0
91.45961 -17.22469 2.321815 0
91.45961 -17.17469 2.371815 0
91.50961 -17.22469 2.421815 0
91.50961 -17.17469 2.421815 0
91.10961 -17.62469 2.571815 0
91.10961 -17.32469 2.521815 0
91.00961 -17.37469 2.721815 0
91.10961 -17.62469 3.071815 0
91.00961 -17.17469 2.521815 0
91.10961 -17.12469 2.471815 0
91.00961 -17.17469 2.721815 0
91.00961 -17.17469 2.821815 0
91.10961 -17.12469 2.771815 0
91.00961 -17.17469 3.021815 0
91.20961 -17.52469 2.621815 0
91.50961 -17.27469 2.771815 0
91.15961 -17.17469 2.521815 0
91.20961 -17.17469 2.521815 0
91.15961 -17.12469 2.571815 0
91.25961 -17.12469 2.471815 0
91.25961 -17.12469 2.521815 0
91.20961 -17.17469 2.721815 0
91.30962 -17.12469 2.721815 0
91.35961 -17.17469 2.521815 0
91.40961 -17.22469 2.521815 0
91.40961 -17.22469 2.571815 0
91.50961 -17.22469 2.521815 0
91.45961 -17.17469 2.571815 0
91.45961 -17.22469 2.721815 0
91.15961 -17.17469 2.871815 0
91.15961 -17.17469 3.021815 0
91.25961 -17.12469 2.921815 0
91.35961 -17.22469 2.871815 0
91.45961 -17.17469 2.921815 0
91.50961 -17.22469 2.871815 0
91.35961 -17.22469 3.071815 0
91.70961 -17.27469 1.671815 0
91.70961 -17.27469 2.221815 0
91.60961 -17.22469 1.721815 0
91.70961 -17.22469 1.671815 0
91.70961 -17.22469 1.721815 0
91.55962 -17.17469 1.871815 0
91.55962 -17.17469 1.921815 0
91.55962 -17.22469 2.021815 0
91.55962 -17.17469 2.021815 0
91.70961 -17.17469 1.921815 0
91.65961 -17.22469 1.971815 0
91.65961 -17.22469 2.021815 0
91.70961 -17.22469 2.021815 0
91.80962 -17.22469 1.721815 0
91.75961 -17.22469 1.821815 0
91.85961 -17.17469 1.821815 0
91.75961 -17.22469 1.971815 0
91.80962 -17.22469 2.021815 0
91.85961 -17.22469 1.921815 0
91.85961 -17.17469 1.921815 0
91.85961 -17.22469 1.971815 0
91.85961 -17.22469 2.021815 0
91.55962 -17.22469 2.071815 0
91.65961 -17.22469 2.071815 0
91.70961 -17.22469 2.171815 0
91.60961 -17.22469 2.321815 0
91.55962 -17.22469 2.371815 0
91.55962 -17.17469 2.371815 0
91.70961 -17.17469 2.321815 0
91.70961 -17.22469 2.371815 0
91.70961 -17.22469 2.421815 0
91.75961 -17.22469 2.071815 0
91.85961 -17.22469 2.071815 0
91.85961 -17.22469 2.171815 0
91.80962 -17.22469 2.321815 0
91.75961 -17.22469 2.421815 0
91.85961 -17.22469 2.421815 0
91.85961 -17.17469 2.371815 0
91.95961 -17.27469 1.671815 0
92.20961 -17.27469 1.721815 0
91.95961 -17.27469 2.071815 0
91.95961 -17.27469 2.221815 0
92.15961 -17.27469 2.121815 0
92.20961 -17.27469 2.271815 0
91.95961 -17.22469 1.721815 0
92.00961 -17.22469 1.721815 0
91.95961 -17.22469 1.821815 0
92.00961 -17.22469 1.921815 0
91.95961 -17.22469 2.021815 0
92.00961 -17.22469 1.971815 0
92.00961 -17.22469 2.021815 0
92.10961 -17.22469 1.921815 0
92.10961 -17.22469 2.021815 0
92.20961 -17.22469 1.721815 0
92.15961 -17.22469 1.821815 0
92.20961 -17.22469 1.771815 0
92.15961 -17.22469 1.921815 0
92.20961 -17.22469 1.871815 0
92.20961 -17.17469 1.871815 0
92.15961 -17.22469 1.971815 0
92.15961 -17.22469 2.021815 0
92.25961 -17.22469 1.921815 0
92.30962 -17.22469 1.921815 0
92.25961 -17.22469 1.971815 0
92.25961 -17.22469 2.021815 0
92.30962 -17.22469 2.021815 0
92.00961 -17.22469 2.071815 0
92.10961 -17.22469 2.121815 0
91.95961 -17.22469 2.321815 0
92.00961 -17.22469 2.321815 0
92.00961 -17.22469 2.371815 0
92.00961 -17.22469 2.421815 0
92.10961 -17.22469 2.371815 0
92.15961 -17.22469 2.071815 0
92.30962 -17.22469 2.121815 0
92.20961 -17.22469 2.271815 0
92.20961 -17.22469 2.321815 0
92.15961 -17.22469 2.421815 0
92.25961 -17.22469 2.371815 0
92.30962 -17.22469 2.421815 0
91.55962 -17.22469 2.521815 0
91.55962 -17.17469 2.521815 0
91.55962 -17.22469 2.571815 0
91.65961 -17.22469 2.521815 0
91.70961 -17.22469 2.521815 0
91.70961 -17.22469 2.621815 0
91.70961 -17.22469 2.721815 0
91.70961 -17.22469 2.771815 0
91.80962 -17.22469 2.521815 0
91.75961 -17.22469 2.571815 0
91.80962 -17.17469 2.621815 0
91.85961 -17.22469 2.471815 0
91.85961 -17.22469 2.521815 0
91.85961 -17.17469 2.471815 0
91.90961 -17.22469 2.671815 0
91.65961 -17.22469 2.921815 0
91.70961 -17.22469 2.921815 0
91.55962 -17.22469 3.071815 0
91.55962 -17.17469 3.121815 0
91.75961 -17.22469 3.121815 0
91.85961 -17.22469 3.121815 0
91.90961 -17.22469 3.221815 0
91.95961 -17.27469 2.621815 0
91.95961 -17.27469 2.821815 0
92.15961 -17.27469 2.621815 0
92.20961 -17.27469 2.821815 0
91.95961 -17.22469 2.471815 0
91.95961 -17.22469 2.521815 0
92.00961 -17.22469 2.471815 0
92.00961 -17.22469 2.521815 0
92.00961 -17.22469 2.621815 0
92.10961 -17.22469 2.521815 0
92.10961 -17.22469 2.671815 0
92.15961 -17.22469 2.471815 0
92.15961 -17.22469 2.521815 0
92.20961 -17.22469 2.471815 0
92.15961 -17.22469 2.571815 0
92.15961 -17.22469 2.621815 0
92.30962 -17.22469 2.521815 0
92.20961 -17.22469 2.821815 0
92.25961 -17.22469 2.671815 0
92.30962 -17.22469 2.671815 0
91.95961 -17.22469 2.871815 0
92.10961 -17.22469 3.221815 0
92.15961 -17.22469 3.071815 0
92.30962 -17.22469 3.171815 0
92.55962 -17.27469 0.1218147 0
92.60961 -17.27469 0.1218147 0
92.65961 -17.27469 0.1218147 0
92.70961 -17.27469 0.1218147 0
92.35961 -17.27469 0.5718147 0
92.45961 -17.27469 0.5718147 0
92.60961 -17.27469 0.5218147 0
92.55962 -17.27469 0.5718147 0
92.60961 -17.27469 0.5718147 0
92.65961 -17.27469 0.5718147 0
92.70961 -17.27469 0.5718147 0
92.35961 -17.22469 0.1218147 0
92.40961 -17.22469 0.1218147 0
92.45961 -17.22469 0.07181472 0
92.50961 -17.22469 0.07181472 0
92.50961 -17.22469 0.1218147 0
92.55962 -17.22469 0.1218147 0
92.60961 -17.22469 0.07181472 0
92.65961 -17.22469 0.1218147 0
92.35961 -17.22469 0.5218147 0
92.40961 -17.22469 0.5218147 0
92.35961 -17.22469 0.5718147 0
92.40961 -17.22469 0.5718147 0
92.45961 -17.22469 0.5218147 0
92.50961 -17.22469 0.5218147 0
92.45961 -17.22469 0.5718147 0
92.45961 -17.22469 0.6218147 0
92.50961 -17.22469 0.5718147 0
92.50961 -17.22469 0.6218147 0
92.55962 -17.22469 0.5218147 0
92.55962 -17.22469 0.5718147 0
92.55962 -17.22469 0.6218147 0
92.65961 -17.22469 0.5218147 0
92.70961 -17.22469 0.5218147 0
92.65961 -17.22469 0.5718147 0
92.65961 -17.22469 0.6218147 0
92.70961 -17.22469 0.5718147 0
92.70961 -17.22469 0.6218147 0
92.75961 -17.27469 0.07181472 0
92.80962 -17.27469 0.1218147 0
92.90961 -17.27469 0.07181472 0
92.95961 -17.27469 0.1218147 0
93.00961 -17.27469 0.1218147 0
93.05962 -17.27469 0.07181472 0
93.05962 -17.27469 0.1218147 0
93.10961 -17.27469 0.07181472 0
93.10961 -17.27469 0.1218147 0
92.75961 -17.27469 0.5218147 0
92.80962 -17.27469 0.5218147 0
92.75961 -17.27469 0.5718147 0
92.80962 -17.27469 0.5718147 0
92.90961 -17.27469 0.5218147 0
92.85961 -17.27469 0.5718147 0
92.90961 -17.27469 0.5718147 0
92.95961 -17.27469 0.5218147 0
93.00961 -17.27469 0.5218147 0
92.95961 -17.32469 0.6218147 0
92.95961 -17.27469 0.5718147 0
92.95961 -17.27469 0.6218147 0
93.00961 -17.27469 0.5718147 0
93.05962 -17.27469 0.5218147 0
93.10961 -17.27469 0.5218147 0
93.05962 -17.27469 0.5718147 0
93.10961 -17.27469 0.5718147 0
92.75961 -17.22469 0.07181472 0
92.80962 -17.22469 0.1218147 0
92.85961 -17.22469 0.1218147 0
92.90961 -17.22469 0.07181472 0
93.10961 -17.22469 0.07181472 0
92.80962 -17.22469 0.5718147 0
92.85961 -17.22469 0.5218147 0
92.85961 -17.22469 0.5718147 0
92.90961 -17.22469 0.5718147 0
92.85961 -17.22469 0.6718147 0
93.00961 -17.22469 0.5718147 0
93.10961 -17.22469 0.5718147 0
93.10961 -17.22469 0.6718147 0
