# .PCD v0.7 - Point Cloud Data file format
VERSION 0.7
FIELDS x y z intensity
SIZE 4 4 4 4
TYPE F F F F
COUNT 1 1 1 1
WIDTH 1594
HEIGHT 1
VIEWPOINT 0 0 0 1 0 0 0
POINTS 1594
DATA ascii
73.85961 60.37531 -0.02818528 0
74.00961 59.17531 -0.1281853 0
74.20961 59.27531 -0.07818528 0
74.35961 59.37531 -0.07818528 0
74.70961 59.22531 0.02181472 0
74.55962 59.47531 -0.07818528 0
74.70961 59.62531 -0.07818528 0
74.50961 60.17531 -0.07818528 0
74.70961 60.27531 -0.07818528 0
73.80962 61.47531 -0.07818528 0
73.20961 61.72531 -0.07818528 0
73.40961 61.62531 -0.07818528 0
73.45961 62.32531 -0.02818528 0
73.60961 61.57531 -0.07818528 0
73.70961 62.32531 -0.02818528 0
73.80962 62.32531 -0.07818528 0
73.95961 61.37531 -0.07818528 0
74.15961 61.27531 -0.07818528 0
74.55962 61.07531 -0.07818528 0
74.35961 61.17531 -0.07818528 0
74.00961 62.27531 -0.07818528 0
74.20961 62.17531 -0.07818528 0
74.40961 62.07531 -0.07818528 0
74.60961 62.02531 -0.07818528 0
71.60961 62.77531 0.02181472 0
71.55962 62.92531 -0.02818528 0
71.80962 62.82531 0.02181472 0
71.75961 62.92531 -0.02818528 0
71.95961 62.87531 -0.02818528 0
72.05962 62.77531 0.02181472 0
72.15961 62.82531 -0.02818528 0
72.60961 62.72531 -0.07818528 0
72.40961 62.77531 -0.02818528 0
72.80962 62.62531 -0.07818528 0
73.00961 62.37531 -0.2281853 0
73.00961 62.57531 -0.07818528 0
73.20961 62.47531 -0.2781853 0
73.20961 62.52531 -0.07818528 0
73.25961 62.37531 -0.1281853 0
73.40961 62.52531 -0.2781853 0
73.40961 62.47531 -0.1281853 0
73.40961 62.47531 -0.07818528 0
73.60961 62.37531 -0.07818528 0
73.60961 62.52531 -0.1281853 0
73.65961 62.62531 -0.2781853 0
73.90961 62.37531 -0.02818528 0
73.85961 62.67531 -0.2781853 0
73.80962 62.57531 -0.07818528 0
74.10961 62.42531 -0.02818528 0
74.00961 62.62531 -0.07818528 0
74.30962 62.42531 -0.02818528 0
74.20961 62.67531 -0.07818528 0
74.10961 62.77531 -0.3281853 0
74.30962 62.82531 -0.3281853 0
74.50961 62.42531 -0.02818528 0
74.70961 62.47531 -0.02818528 0
74.40961 62.77531 -0.07818528 0
74.55962 62.92531 -0.3281853 0
74.60961 62.82531 -0.07818528 0
75.15961 53.32531 -0.2281853 0
75.25961 53.27531 -0.2281853 0
75.15961 53.52531 -0.2281853 0
75.35961 53.22531 -0.2281853 0
75.50961 53.22531 -0.2281853 0
75.70961 53.12531 -0.2281853 0
75.60961 53.17531 -0.2281853 0
76.20961 53.97531 -0.07818528 0
74.80962 55.12531 0.02181472 0
75.65961 55.12531 -0.2781853 0
75.80962 55.12531 -0.2781853 0
75.95961 55.07531 -0.2781853 0
75.60961 55.22531 -0.2781853 0
76.35961 54.12531 -0.07818528 0
76.50961 54.27531 -0.07818528 0
76.60961 54.42531 -0.07818528 0
76.75961 54.57531 -0.07818528 0
76.90961 54.77531 -0.07818528 0
77.00961 54.92531 -0.07818528 0
77.15961 55.07531 -0.07818528 0
75.30962 56.27531 -0.07818528 0
75.45961 56.42531 -0.07818528 0
75.40961 56.92531 0.02181472 0
75.60961 56.57531 -0.07818528 0
75.75961 56.72531 -0.07818528 0
75.55962 57.07531 0.02181472 0
75.90961 56.87531 -0.07818528 0
75.70961 57.22531 0.02181472 0
76.40961 57.32531 -0.07818528 0
76.55962 57.47531 -0.07818528 0
76.35961 57.72531 0.02181472 0
76.70961 57.62531 -0.07818528 0
76.55962 57.82531 0.02181472 0
76.70961 57.97531 0.02181472 0
76.85961 57.72531 -0.07818528 0
76.85961 58.07531 0.02181472 0
77.05962 58.22531 0.02181472 0
77.90961 58.87531 -0.07818528 0
78.25961 58.62531 -0.07818528 0
78.10961 58.77531 -0.07818528 0
78.20961 58.77531 -0.07818528 0
78.40961 58.52531 -0.07818528 0
78.35961 58.92531 -0.02818528 0
74.90961 59.27531 0.02181472 0
75.05962 59.42531 0.02181472 0
74.90961 59.72531 -0.07818528 0
75.25961 59.47531 0.02181472 0
75.40961 59.62531 0.02181472 0
74.90961 60.37531 -0.07818528 0
75.05962 60.42531 -0.07818528 0
75.25961 60.52531 -0.07818528 0
75.45961 60.62531 -0.07818528 0
75.60961 59.67531 0.02181472 0
75.80962 59.77531 0.02181472 0
76.00961 59.87531 0.02181472 0
75.65961 60.67531 -0.07818528 0
75.65961 60.72531 0.02181472 0
75.85961 60.72531 -0.07818528 0
75.85961 60.72531 0.02181472 0
75.90961 60.67531 0.02181472 0
76.00961 60.72531 0.02181472 0
76.05962 60.67531 0.02181472 0
76.10961 60.67531 0.02181472 0
76.25961 60.67531 0.02181472 0
76.30962 60.67531 0.02181472 0
74.90961 60.87531 -0.07818528 0
75.60961 60.77531 0.02181472 0
75.65961 60.82531 -0.02818528 0
75.65961 60.87531 -0.02818528 0
75.80962 60.77531 0.02181472 0
75.85961 60.77531 -0.02818528 0
75.90961 60.87531 -0.02818528 0
76.00961 60.82531 -0.07818528 0
76.05962 60.77531 -0.02818528 0
76.20961 60.77531 0.02181472 0
76.20961 60.92531 -0.07818528 0
76.15961 60.87531 -0.02818528 0
76.25961 60.77531 -0.02818528 0
76.40961 60.72531 0.02181472 0
76.45961 60.62531 0.02181472 0
76.45961 60.67531 0.02181472 0
76.55962 60.72531 0.02181472 0
76.65961 60.62531 0.02181472 0
76.65961 60.67531 0.02181472 0
76.65961 60.72531 -0.02818528 0
76.75961 60.72531 0.02181472 0
76.85961 60.62531 0.02181472 0
76.85961 60.67531 0.02181472 0
76.85961 60.72531 -0.02818528 0
76.95961 60.57531 0.02181472 0
76.95961 60.67531 0.02181472 0
77.00961 60.67531 0.02181472 0
77.05962 60.57531 0.02181472 0
77.05962 60.72531 -0.02818528 0
77.65961 59.77531 0.02181472 0
77.80962 59.87531 0.02181472 0
77.15961 60.57531 -0.02818528 0
77.20961 60.62531 0.02181472 0
77.15961 60.67531 0.02181472 0
77.25961 60.57531 0.02181472 0
77.25961 60.72531 -0.02818528 0
77.35961 60.57531 -0.02818528 0
77.40961 60.62531 0.02181472 0
77.35961 60.67531 0.02181472 0
77.45961 60.57531 0.02181472 0
77.45961 60.72531 -0.02818528 0
77.50961 60.67531 0.02181472 0
77.55962 60.52531 -0.02818528 0
77.60961 60.62531 0.02181472 0
77.55962 60.72531 -0.02818528 0
77.60961 60.72531 -0.02818528 0
77.65961 60.57531 0.02181472 0
77.65961 60.72531 -0.02818528 0
77.70961 60.67531 0.02181472 0
77.80962 60.52531 -0.02818528 0
77.80962 60.57531 0.02181472 0
77.75961 60.72531 -0.02818528 0
77.75961 60.72531 0.02181472 0
77.80962 60.67531 -0.02818528 0
77.85961 60.57531 0.02181472 0
77.90961 60.62531 0.02181472 0
76.35961 60.87531 -0.02818528 0
76.45961 60.77531 -0.02818528 0
76.40961 60.97531 -0.07818528 0
76.55962 60.82531 -0.02818528 0
76.55962 61.02531 -0.02818528 0
76.75961 60.82531 -0.02818528 0
76.80962 60.82531 -0.02818528 0
76.75961 60.97531 -0.02818528 0
76.95961 60.77531 -0.02818528 0
77.00961 60.82531 -0.02818528 0
77.10961 60.92531 0.02181472 0
76.95961 60.97531 -0.02818528 0
77.15961 60.77531 -0.02818528 0
77.30962 60.87531 0.02181472 0
77.35961 60.77531 -0.02818528 0
77.50961 60.87531 0.02181472 0
77.35961 60.97531 -0.07818528 0
77.60961 60.92531 -0.07818528 0
77.65961 60.87531 0.02181472 0
77.80962 60.92531 -0.07818528 0
77.85961 60.82531 0.02181472 0
77.90961 60.87531 -0.02818528 0
74.95961 62.47531 -0.02818528 0
74.80962 63.02531 -0.3781853 0
75.05962 63.07531 -0.3781853 0
74.80962 62.87531 -0.07818528 0
75.00961 62.92531 -0.07818528 0
75.15961 62.47531 -0.02818528 0
75.35961 62.47531 -0.02818528 0
75.20961 62.97531 -0.07818528 0
75.40961 63.02531 -0.07818528 0
75.25961 63.17531 -0.3781853 0
75.50961 63.27531 -0.3781853 0
75.60961 63.07531 -0.07818528 0
75.80962 63.12531 -0.07818528 0
76.00961 63.17531 -0.07818528 0
78.00961 59.97531 0.02181472 0
78.00961 60.32531 -0.07818528 0
78.20961 60.02531 0.02181472 0
78.15961 60.22531 -0.07818528 0
78.00961 60.52531 -0.02818528 0
78.10961 60.52531 0.02181472 0
78.00961 60.57531 0.02181472 0
77.95961 60.72531 -0.02818528 0
77.95961 60.72531 0.02181472 0
78.00961 60.67531 -0.02818528 0
78.10961 60.62531 0.02181472 0
78.20961 60.47531 -0.02818528 0
78.30962 60.52531 0.02181472 0
78.20961 60.57531 0.02181472 0
78.15961 60.67531 0.02181472 0
78.15961 60.72531 -0.02818528 0
78.20961 60.67531 -0.02818528 0
78.30962 60.62531 0.02181472 0
78.35961 60.07531 -0.07818528 0
78.40961 60.57531 0.02181472 0
78.35961 60.72531 -0.02818528 0
78.05962 60.92531 -0.07818528 0
78.10961 60.87531 -0.02818528 0
78.30962 60.87531 -0.02818528 0
78.35961 60.82531 -0.02818528 0
68.35961 47.12531 0.2218147 0
68.45961 47.07531 0.07181472 0
68.50961 47.07531 0.1218147 0
68.45961 47.12531 0.2218147 0
68.50961 47.12531 0.2218147 0
68.55962 47.12531 0.07181472 0
68.55962 47.12531 0.2218147 0
68.60961 47.12531 0.2218147 0
68.75961 47.12531 0.2218147 0
68.85961 47.12531 0.1218147 0
68.90961 47.07531 0.1218147 0
68.80962 47.12531 0.2718147 0
68.85961 47.12531 0.2718147 0
68.90961 47.12531 0.2718147 0
68.95961 47.12531 0.1218147 0
69.00961 47.07531 0.1218147 0
69.05962 47.07531 0.1218147 0
69.10961 47.07531 0.1218147 0
69.10961 47.12531 0.1218147 0
69.00961 47.12531 0.2718147 0
68.35961 47.22531 0.1218147 0
68.40961 47.17531 0.1218147 0
68.40961 47.32531 0.07181472 0
68.45961 47.22531 0.1218147 0
68.50961 47.32531 0.07181472 0
68.40961 47.37531 0.2718147 0
68.55962 47.22531 0.1218147 0
68.60961 47.17531 0.07181472 0
68.65961 47.17531 0.1218147 0
68.70961 47.17531 0.07181472 0
68.60961 47.37531 0.07181472 0
68.65961 47.42531 0.07181472 0
68.55962 47.37531 0.2718147 0
68.65961 47.37531 0.2718147 0
68.35961 47.67531 0.3218147 0
68.50961 47.67531 0.3218147 0
68.55962 47.67531 0.3218147 0
68.65961 47.62531 0.3218147 0
68.70961 47.62531 0.3218147 0
68.70961 47.92531 0.3718147 0
68.75961 47.17531 0.1218147 0
68.75961 47.22531 0.1218147 0
68.80962 47.27531 0.1218147 0
68.90961 47.32531 0.1218147 0
68.75961 47.37531 0.2718147 0
68.85961 47.37531 0.2718147 0
68.90961 47.37531 0.2718147 0
68.95961 47.17531 0.1218147 0
69.00961 47.22531 0.1218147 0
69.05962 47.22531 0.1218147 0
69.10961 47.27531 0.1218147 0
68.95961 47.37531 0.1218147 0
69.05962 47.37531 0.3218147 0
68.80962 47.62531 0.3218147 0
68.85961 47.62531 0.3218147 0
68.80962 47.92531 0.3718147 0
68.85961 47.87531 0.3718147 0
68.90961 47.87531 0.3718147 0
68.95961 47.57531 0.3218147 0
69.05962 47.57531 0.3218147 0
69.00961 47.87531 0.3718147 0
69.05962 47.87531 0.3718147 0
69.15961 47.07531 0.1218147 0
69.20961 47.07531 0.1218147 0
69.20961 47.12531 0.1218147 0
69.15961 47.12531 0.2718147 0
69.35961 47.12531 0.1218147 0
69.45961 47.12531 0.1218147 0
69.50961 47.12531 0.1218147 0
69.60961 47.12531 0.1218147 0
69.65961 47.07531 0.1218147 0
69.70961 47.07531 0.1718147 0
69.20961 47.17531 0.1218147 0
69.20961 47.22531 0.1218147 0
69.25961 47.17531 0.1218147 0
69.30962 47.17531 0.1218147 0
69.30962 47.22531 0.1218147 0
69.20961 47.32531 0.3218147 0
69.30962 47.17531 0.2718147 0
69.15961 47.37531 0.3218147 0
69.25961 47.37531 0.3218147 0
69.35961 47.17531 0.1218147 0
69.40961 47.17531 0.1218147 0
69.45961 47.17531 0.1218147 0
69.35961 47.17531 0.2718147 0
69.40961 47.17531 0.2718147 0
69.40961 47.32531 0.3218147 0
69.50961 47.17531 0.3218147 0
69.35961 47.52531 0.3718147 0
69.40961 47.52531 0.3718147 0
69.50961 47.52531 0.3718147 0
69.15961 47.57531 0.3218147 0
69.20961 47.57531 0.3218147 0
69.30962 47.57531 0.3718147 0
69.15961 47.82531 0.3718147 0
69.20961 47.82531 0.3718147 0
69.25961 47.82531 0.3718147 0
69.35961 47.77531 0.3718147 0
69.45961 47.77531 0.3718147 0
69.55962 47.22531 0.1218147 0
69.65961 47.22531 0.1218147 0
69.55962 47.17531 0.3218147 0
69.55962 47.32531 0.3218147 0
69.65961 47.17531 0.3218147 0
69.70961 47.17531 0.3218147 0
69.65961 47.32531 0.3218147 0
69.70961 47.32531 0.3218147 0
69.60961 47.52531 0.3718147 0
69.65961 47.52531 0.3718147 0
69.75961 47.22531 0.1218147 0
69.80962 47.22531 0.1218147 0
69.85961 47.27531 0.1218147 0
69.80962 47.17531 0.3218147 0
69.75961 47.32531 0.3218147 0
69.90961 47.17531 0.3218147 0
69.85961 47.32531 0.3218147 0
69.90961 47.32531 0.3218147 0
69.75961 47.52531 0.3718147 0
69.80962 47.52531 0.3718147 0
69.90961 47.47531 0.3718147 0
69.70961 47.72531 0.4218147 0
69.55962 47.77531 0.3718147 0
69.80962 47.72531 0.4218147 0
69.85961 47.72531 0.4218147 0
69.90961 47.72531 0.4218147 0
68.35961 48.02531 0.3718147 0
68.45961 47.97531 0.3718147 0
68.50961 47.97531 0.3718147 0
68.50961 48.32531 0.4218147 0
68.55962 47.97531 0.3718147 0
68.60961 47.97531 0.3718147 0
68.60961 48.32531 0.4218147 0
68.70961 48.27531 0.4218147 0
68.40961 48.37531 0.4218147 0
68.65961 48.72531 0.5218147 0
68.80962 48.27531 0.4218147 0
68.90961 48.22531 0.4218147 0
68.95961 48.22531 0.4218147 0
69.00961 48.17531 0.4218147 0
69.10961 48.17531 0.4218147 0
68.80962 48.67531 0.4718147 0
68.85961 48.62531 0.4718147 0
68.95961 48.62531 0.4718147 0
69.05962 48.57531 0.4718147 0
68.45961 48.82531 0.5218147 0
68.55962 48.77531 0.5218147 0
69.05962 48.92531 0.1218147 0
69.00961 48.97531 0.1218147 0
68.95961 49.12531 0.5718147 0
69.00961 49.12531 0.5718147 0
69.10961 49.07531 0.5718147 0
68.85961 49.17531 0.5718147 0
69.15961 48.12531 0.4218147 0
69.25961 48.12531 0.4218147 0
69.35961 48.07531 0.4218147 0
69.45961 48.07531 0.4218147 0
69.25961 48.72531 0.1218147 0
69.35961 48.67531 0.1218147 0
69.45961 48.57531 0.1218147 0
69.15961 48.52531 0.4718147 0
69.20961 48.52531 0.4718147 0
69.25961 48.47531 0.4718147 0
69.35961 48.47531 0.4718147 0
69.45961 48.42531 0.4718147 0
69.55962 48.02531 0.4218147 0
69.60961 48.02531 0.4218147 0
69.65961 48.02531 0.4218147 0
69.70961 48.27531 0.1218147 0
69.85961 48.12531 0.1218147 0
69.75961 47.97531 0.4218147 0
69.80962 47.97531 0.4218147 0
69.90961 47.97531 0.4218147 0
69.80962 48.17531 0.1218147 0
69.70961 48.32531 0.5218147 0
69.75961 48.32531 0.5218147 0
69.85961 48.27531 0.5218147 0
69.60961 48.37531 0.1218147 0
69.55962 48.47531 0.1218147 0
69.55962 48.37531 0.4718147 0
69.65961 48.37531 0.4718147 0
69.80962 48.72531 0.5718147 0
69.90961 48.72531 0.5718147 0
69.15961 48.82531 0.1218147 0
69.15961 49.02531 0.5718147 0
69.20961 49.02531 0.5718147 0
69.35961 48.92531 0.5718147 0
69.40961 48.92531 0.5718147 0
69.50961 48.87531 0.5718147 0
69.50961 49.52531 0.6718147 0
69.60961 48.82531 0.5718147 0
69.65961 48.82531 0.5718147 0
69.70961 48.77531 0.5718147 0
69.80962 48.77531 0.5718147 0
69.60961 49.47531 0.6718147 0
69.65961 49.42531 0.6718147 0
69.70961 49.42531 0.6718147 0
69.90961 49.32531 0.6718147 0
69.80962 49.37531 0.6718147 0
70.00961 47.12531 0.3218147 0
70.10961 47.07531 0.3218147 0
70.20961 47.07531 0.3218147 0
70.30962 47.07531 0.3218147 0
70.45961 47.07531 0.1718147 0
70.35961 47.07531 0.3218147 0
70.50961 47.07531 0.3218147 0
70.55962 47.07531 0.1718147 0
70.65961 47.07531 0.1218147 0
70.65961 47.07531 0.1718147 0
70.65961 47.12531 0.1718147 0
70.60961 47.07531 0.3218147 0
70.65961 47.12531 0.3718147 0
70.70961 47.07531 0.3718147 0
69.95961 47.22531 0.1218147 0
70.05962 47.27531 0.1218147 0
70.00961 47.32531 0.3718147 0
70.05962 47.17531 0.3218147 0
70.05962 47.32531 0.3718147 0
70.10961 47.32531 0.3718147 0
70.00961 47.47531 0.3718147 0
70.10961 47.47531 0.3718147 0
70.15961 47.27531 0.1218147 0
70.25961 47.22531 0.1218147 0
70.15961 47.17531 0.3218147 0
70.20961 47.17531 0.3218147 0
70.15961 47.32531 0.3718147 0
70.30962 47.17531 0.3218147 0
70.25961 47.32531 0.3718147 0
70.15961 47.47531 0.3718147 0
70.25961 47.47531 0.3718147 0
70.00961 47.67531 0.4218147 0
70.05962 47.67531 0.4218147 0
70.10961 47.82531 0.1218147 0
70.20961 47.72531 0.1218147 0
70.25961 47.62531 0.1218147 0
70.15961 47.67531 0.4218147 0
70.20961 47.67531 0.4218147 0
70.25961 47.62531 0.4218147 0
70.00961 47.92531 0.4718147 0
70.05962 47.92531 0.4718147 0
70.10961 47.92531 0.4718147 0
70.20961 47.87531 0.4718147 0
70.30962 47.87531 0.4718147 0
70.35961 47.22531 0.1218147 0
70.45961 47.22531 0.1218147 0
70.50961 47.32531 0.1218147 0
70.35961 47.17531 0.3218147 0
70.40961 47.17531 0.3718147 0
70.35961 47.32531 0.3718147 0
70.40961 47.27531 0.3718147 0
70.50961 47.17531 0.3718147 0
70.50961 47.27531 0.3718147 0
70.40961 47.42531 0.1218147 0
70.35961 47.52531 0.1218147 0
70.35961 47.42531 0.3718147 0
70.45961 47.42531 0.3718147 0
70.50961 47.42531 0.4218147 0
70.55962 47.22531 0.1218147 0
70.60961 47.22531 0.1218147 0
70.70961 47.22531 0.1218147 0
70.55962 47.17531 0.3718147 0
70.55962 47.27531 0.3718147 0
70.70961 47.17531 0.3718147 0
70.65961 47.27531 0.3718147 0
70.70961 47.27531 0.3718147 0
70.60961 47.42531 0.4218147 0
70.65961 47.42531 0.4218147 0
70.35961 47.62531 0.4218147 0
70.50961 47.62531 0.4218147 0
70.55962 47.62531 0.4218147 0
70.65961 47.62531 0.4218147 0
70.40961 47.87531 0.4718147 0
70.55962 47.82531 0.4718147 0
70.65961 47.82531 0.4718147 0
70.70961 47.82531 0.4718147 0
70.80962 47.07531 0.07181472 0
70.80962 47.12531 0.2218147 0
70.85961 47.12531 0.07181472 0
70.90961 47.12531 0.07181472 0
70.85961 47.07531 0.3718147 0
70.90961 47.07531 0.3718147 0
70.90961 47.12531 0.3718147 0
70.95961 47.07531 0.2218147 0
70.95961 47.12531 0.2218147 0
71.00961 47.07531 0.2218147 0
71.05962 47.12531 0.1218147 0
71.10961 47.12531 0.2218147 0
70.95961 47.07531 0.3218147 0
71.00961 47.12531 0.3718147 0
71.15961 47.12531 0.1218147 0
71.15961 47.07531 0.2218147 0
71.20961 47.07531 0.2218147 0
71.20961 47.12531 0.2218147 0
71.25961 47.07531 0.1218147 0
71.30962 47.12531 0.2218147 0
71.35961 47.07531 0.1218147 0
71.40961 47.12531 0.2218147 0
71.50961 47.07531 0.2218147 0
71.50961 47.07531 0.2718147 0
70.75961 47.17531 0.1218147 0
70.85961 47.17531 0.1218147 0
70.90961 47.17531 0.2218147 0
70.75961 47.17531 0.3718147 0
70.75961 47.27531 0.3718147 0
70.85961 47.17531 0.3718147 0
70.85961 47.27531 0.3718147 0
70.90961 47.27531 0.3718147 0
70.75961 47.42531 0.4218147 0
70.85961 47.42531 0.4218147 0
70.90961 47.42531 0.4218147 0
70.95961 47.17531 0.1218147 0
71.00961 47.17531 0.07181472 0
71.00961 47.17531 0.2218147 0
71.05962 47.17531 0.07181472 0
71.10961 47.22531 0.07181472 0
71.05962 47.17531 0.2218147 0
71.00961 47.27531 0.4218147 0
71.05962 47.17531 0.3218147 0
71.10961 47.22531 0.4218147 0
71.10961 47.27531 0.3218147 0
71.05962 47.27531 0.3718147 0
70.95961 47.37531 0.4218147 0
71.05962 47.42531 0.4218147 0
71.10961 47.37531 0.4218147 0
70.75961 47.57531 0.4218147 0
70.80962 47.57531 0.4218147 0
70.85961 47.57531 0.4218147 0
70.95961 47.57531 0.4218147 0
70.75961 47.82531 0.4718147 0
70.85961 47.77531 0.4718147 0
70.85961 47.82531 0.4718147 0
70.90961 47.77531 0.4718147 0
70.90961 47.82531 0.4718147 0
71.00961 47.57531 0.4718147 0
71.10961 47.57531 0.4718147 0
71.00961 47.77531 0.4718147 0
71.05962 47.82531 0.4718147 0
71.10961 47.77531 0.4718147 0
71.15961 47.22531 0.07181472 0
71.30962 47.22531 0.2218147 0
71.25961 47.27531 0.07181472 0
71.30962 47.32531 0.07181472 0
71.15961 47.22531 0.2718147 0
71.20961 47.27531 0.2718147 0
71.20961 47.32531 0.3218147 0
71.25961 47.22531 0.2718147 0
71.20961 47.37531 0.4218147 0
71.25961 47.37531 0.2718147 0
71.25961 47.37531 0.4218147 0
71.30962 47.42531 0.3718147 0
71.30962 47.42531 0.4218147 0
71.40961 47.17531 0.2218147 0
71.40961 47.32531 0.07181472 0
71.45961 47.32531 0.07181472 0
71.35961 47.22531 0.2718147 0
71.40961 47.22531 0.2718147 0
71.35961 47.32531 0.2718147 0
71.40961 47.32531 0.2718147 0
71.50961 47.17531 0.2718147 0
71.45961 47.32531 0.2718147 0
71.50961 47.32531 0.2718147 0
71.50961 47.37531 0.07181472 0
71.35961 47.47531 0.3218147 0
71.35961 47.47531 0.4218147 0
71.45961 47.47531 0.3218147 0
71.45961 47.52531 0.3718147 0
71.50961 47.62531 0.3718147 0
71.15961 47.57531 0.4718147 0
71.20961 47.57531 0.4718147 0
71.30962 47.57531 0.4718147 0
71.20961 47.77531 0.4718147 0
71.25961 47.77531 0.5218147 0
71.35961 47.57531 0.4718147 0
71.45961 47.57531 0.4718147 0
71.50961 47.62531 0.4718147 0
71.35961 47.77531 0.5218147 0
71.40961 47.77531 0.5218147 0
71.50961 47.77531 0.5218147 0
70.00961 47.97531 0.1218147 0
69.95961 48.27531 0.5218147 0
70.00961 48.27531 0.5218147 0
70.05962 48.22531 0.5218147 0
70.15961 48.22531 0.5218147 0
70.25961 48.17531 0.5218147 0
70.30962 48.17531 0.5218147 0
69.95961 48.72531 0.5718147 0
70.00961 48.67531 0.5718147 0
70.10961 48.62531 0.5718147 0
70.15961 48.62531 0.5718147 0
70.25961 48.62531 0.5718147 0
70.30962 48.57531 0.5718147 0
70.70961 48.22531 0.07181472 0
70.45961 48.12531 0.5218147 0
70.50961 48.12531 0.5218147 0
70.40961 48.17531 0.5218147 0
70.60961 48.12531 0.5218147 0
70.65961 48.12531 0.5218147 0
70.45961 48.52531 0.5718147 0
70.40961 48.57531 0.5718147 0
70.55962 48.52531 0.5718147 0
70.60961 48.52531 0.5718147 0
70.70961 48.52531 0.5718147 0
69.95961 49.32531 0.6718147 0
70.05962 49.27531 0.6718147 0
70.10961 49.27531 0.6718147 0
70.15961 49.22531 0.6718147 0
70.25961 49.17531 0.6718147 0
70.40961 49.12531 0.6718147 0
70.45961 49.12531 0.6718147 0
70.55962 49.07531 0.6718147 0
70.60961 49.07531 0.6718147 0
70.65961 49.07531 0.6718147 0
70.35961 49.17531 0.6718147 0
70.75961 48.27531 0.07181472 0
70.85961 48.27531 0.07181472 0
70.95961 48.32531 0.07181472 0
71.00961 48.32531 0.07181472 0
71.10961 48.32531 0.07181472 0
70.75961 48.12531 0.5218147 0
70.80962 48.07531 0.5218147 0
70.80962 48.12531 0.5218147 0
70.85961 48.07531 0.5218147 0
70.85961 48.12531 0.5218147 0
70.95961 48.07531 0.5218147 0
71.00961 48.07531 0.5218147 0
71.10961 48.07531 0.5218147 0
70.75961 48.47531 0.5718147 0
70.80962 48.47531 0.5718147 0
70.90961 48.47531 0.5718147 0
71.00961 48.47531 0.5718147 0
71.05962 48.47531 0.5718147 0
71.10961 48.47531 0.6218147 0
71.20961 48.32531 0.07181472 0
71.50961 48.27531 0.1718147 0
71.15961 48.07531 0.5218147 0
71.25961 48.07531 0.5218147 0
71.30962 48.07531 0.5718147 0
71.40961 48.07531 0.5718147 0
71.45961 48.07531 0.5718147 0
71.50961 48.07531 0.5718147 0
71.25961 48.37531 0.07181472 0
71.30962 48.37531 0.07181472 0
71.30962 48.57531 0.1718147 0
71.25961 48.67531 0.1718147 0
71.40961 48.42531 0.07181472 0
71.40961 48.47531 0.1718147 0
71.45961 48.42531 0.07181472 0
71.45961 48.37531 0.1718147 0
71.25961 48.47531 0.6218147 0
71.35961 48.47531 0.6218147 0
71.40961 48.47531 0.6218147 0
71.45961 48.47531 0.6218147 0
70.75961 49.02531 0.6718147 0
70.90961 49.02531 0.6718147 0
70.85961 49.07531 0.6718147 0
71.05962 49.02531 0.6718147 0
71.15961 48.77531 0.1718147 0
71.15961 49.02531 0.6718147 0
71.20961 49.02531 0.6718147 0
71.25961 49.02531 0.6718147 0
71.35961 49.02531 0.7218148 0
71.40961 49.02531 0.7218148 0
71.45961 49.02531 0.7218148 0
71.15961 49.37531 3.221815 0
71.20961 49.52531 3.221815 0
71.45961 49.32531 3.221815 0
71.50961 49.52531 3.221815 0
69.85961 49.37531 3.721815 0
70.25961 49.12531 3.671815 0
70.05962 49.37531 3.771815 0
70.45961 49.17531 3.671815 0
70.70961 49.17531 3.721815 0
71.05962 48.72531 3.471815 0
71.45961 48.72531 3.921815 0
71.10961 48.82531 3.371815 0
71.05962 48.92531 3.521815 0
70.95961 49.07531 3.321815 0
71.05962 49.07531 3.321815 0
71.10961 49.07531 3.521815 0
71.00961 49.22531 3.321815 0
71.10961 49.17531 3.321815 0
71.00961 49.22531 3.571815 0
71.05962 49.37531 3.321815 0
71.10961 49.47531 3.321815 0
70.85961 49.47531 3.971815 0
71.05962 49.42531 3.971815 0
71.05962 49.52531 3.971815 0
71.15961 49.02531 3.421815 0
71.45961 48.92531 3.971815 0
71.50961 49.12531 4.021815 0
71.15961 49.32531 3.321815 0
71.20961 49.27531 3.471815 0
71.15961 49.27531 3.571815 0
71.20961 49.42531 3.321815 0
71.20961 49.52531 3.321815 0
71.20961 49.47531 3.621815 0
71.25961 49.52531 3.521815 0
71.40961 49.47531 3.321815 0
71.15961 49.42531 3.971815 0
71.25961 49.37531 4.021815 0
71.30962 49.37531 4.021815 0
71.50961 49.17531 3.721815 0
71.45961 49.27531 4.021815 0
68.35961 51.07531 0.7218148 0
68.45961 51.02531 0.7218148 0
68.60961 50.92531 0.6718147 0
68.70961 50.87531 0.6718147 0
68.55962 50.97531 0.7218148 0
68.80962 50.82531 0.6718147 0
69.35961 49.62531 0.6718147 0
69.40961 49.57531 0.6718147 0
68.55962 52.32531 0.9218147 0
68.65961 52.27531 0.9218147 0
68.35961 52.47531 0.9218147 0
68.45961 52.42531 0.9218147 0
68.85961 52.12531 0.9218147 0
68.75961 52.17531 0.9218147 0
68.95961 52.07531 0.8718147 0
69.05962 51.97531 0.8718147 0
69.20961 51.87531 0.8718147 0
69.25961 51.82531 0.8718147 0
69.50961 51.67531 0.8718147 0
69.35961 51.77531 0.8718147 0
69.40961 51.77531 0.8718147 0
69.55962 51.67531 0.8718147 0
69.65961 51.62531 0.8718147 0
68.35961 52.12531 2.371815 0
68.45961 52.12531 2.371815 0
68.50961 52.17531 2.371815 0
68.60961 52.22531 2.421815 0
68.70961 52.22531 2.421815 0
68.35961 52.72531 2.271815 0
68.75961 52.27531 2.421815 0
68.80962 52.67531 2.521815 0
68.90961 52.62531 2.471815 0
69.00961 52.62531 2.471815 0
69.10961 52.67531 2.471815 0
69.20961 52.27531 2.371815 0
69.45961 52.57531 2.421815 0
69.55962 52.32531 2.371815 0
69.70961 52.32531 2.371815 0
69.75961 52.32531 2.371815 0
69.85961 52.27531 2.321815 0
69.70961 52.52531 2.121815 0
69.75961 52.52531 2.121815 0
69.25961 52.62531 2.471815 0
69.35961 52.62531 2.471815 0
70.00961 50.22531 0.8218147 0
70.05962 50.22531 0.8218147 0
70.20961 50.12531 0.8218147 0
70.25961 50.07531 0.8218147 0
70.15961 50.17531 0.8218147 0
70.35961 50.02531 0.8218147 0
70.45961 50.02531 0.8218147 0
70.50961 50.02531 0.8218147 0
70.60961 49.97531 0.8218147 0
70.70961 49.97531 0.8218147 0
70.80962 49.92531 0.8218147 0
70.95961 49.92531 0.8218147 0
71.05962 49.87531 0.8218147 0
71.10961 49.92531 0.8218147 0
71.20961 49.87531 0.8218147 0
71.30962 49.87531 0.8218147 0
71.45961 49.87531 0.8218147 0
71.50961 49.92531 0.8718147 0
70.50961 50.87531 3.221815 0
70.50961 51.12531 3.171815 0
70.55962 51.07531 3.121815 0
71.25961 49.67531 3.221815 0
71.35961 49.82531 3.221815 0
71.30962 50.67531 2.421815 0
71.35961 50.52531 2.421815 0
71.50961 50.52531 2.421815 0
71.40961 50.67531 2.421815 0
71.35961 51.12531 2.021815 0
71.45961 51.12531 2.021815 0
71.30962 51.02531 2.371815 0
71.40961 50.92531 2.421815 0
71.45961 50.77531 2.421815 0
71.45961 51.07531 2.421815 0
70.90961 50.87531 2.821815 0
70.90961 51.02531 2.771815 0
70.95961 51.02531 2.821815 0
71.05962 51.07531 2.821815 0
70.95961 51.12531 3.171815 0
71.00961 51.07531 3.221815 0
71.15961 51.12531 2.821815 0
71.40961 50.82531 2.471815 0
71.50961 51.07531 2.521815 0
71.30962 50.87531 3.221815 0
71.20961 51.12531 2.871815 0
71.25961 51.02531 2.921815 0
71.25961 50.97531 3.171815 0
71.30962 51.47531 1.071815 0
71.40961 51.47531 1.071815 0
71.45961 51.47531 1.121815 0
70.05962 51.37531 3.121815 0
70.20961 51.17531 3.221815 0
70.20961 51.37531 3.171815 0
70.20961 51.47531 3.121815 0
70.25961 51.42531 3.171815 0
70.00961 51.82531 3.021815 0
70.10961 51.87531 3.021815 0
70.15961 51.72531 2.921815 0
70.15961 51.57531 3.171815 0
70.25961 51.67531 3.171815 0
70.20961 51.87531 3.021815 0
70.25961 51.77531 2.871815 0
70.40961 51.42531 3.171815 0
70.45961 51.52531 3.171815 0
70.60961 51.42531 3.171815 0
70.55962 51.47531 3.221815 0
70.55962 51.52531 3.221815 0
70.65961 51.47531 3.171815 0
70.70961 51.52531 3.171815 0
70.35961 51.72531 2.921815 0
70.35961 51.72531 3.171815 0
70.40961 51.77531 2.871815 0
70.40961 51.82531 2.871815 0
70.35961 51.87531 2.971815 0
70.50961 51.77531 2.921815 0
70.45961 51.92531 2.971815 0
70.45961 51.77531 3.171815 0
70.60961 51.72531 2.921815 0
70.55962 51.72531 2.971815 0
70.60961 51.72531 3.121815 0
70.55962 51.77531 2.871815 0
70.60961 51.77531 2.921815 0
70.55962 51.92531 2.971815 0
70.70961 51.77531 2.921815 0
70.70961 51.77531 3.121815 0
69.95961 52.27531 2.321815 0
70.00961 52.27531 2.321815 0
70.10961 52.27531 2.321815 0
70.20961 52.22531 2.321815 0
70.30962 52.22531 2.321815 0
70.05962 52.72531 2.121815 0
70.10961 52.67531 2.121815 0
70.70961 51.97531 1.971815 0
70.65961 52.17531 1.971815 0
70.45961 52.17531 2.271815 0
70.50961 52.17531 2.271815 0
70.60961 52.37531 2.021815 0
70.55962 52.52531 2.071815 0
70.30962 52.32531 2.771815 0
70.50961 52.07531 2.821815 0
70.40961 52.32531 2.771815 0
70.50961 52.27531 2.721815 0
70.50961 52.32531 2.771815 0
70.65961 52.02531 2.771815 0
70.65961 52.12531 2.821815 0
70.60961 52.32531 2.821815 0
70.70961 52.27531 2.771815 0
70.40961 52.02531 2.921815 0
70.45961 52.02531 2.921815 0
70.40961 52.27531 2.871815 0
70.50961 52.32531 2.871815 0
70.40961 52.42531 2.671815 0
70.35961 52.47531 2.771815 0
70.40961 52.47531 2.771815 0
70.45961 52.52531 2.771815 0
70.50961 52.47531 2.771815 0
70.55962 52.37531 2.671815 0
70.55962 52.47531 2.721815 0
70.60961 52.47531 2.771815 0
70.65961 52.42531 2.671815 0
70.70961 52.37531 2.671815 0
70.65961 52.52531 2.721815 0
70.70961 52.47531 2.771815 0
70.90961 51.52531 1.821815 0
70.85961 51.67531 1.871815 0
70.80962 51.82531 1.921815 0
71.10961 51.77531 2.171815 0
71.05962 51.92531 2.221815 0
71.30962 51.22531 2.021815 0
71.50961 51.17531 2.021815 0
71.30962 51.22531 2.221815 0
71.25961 51.32531 2.071815 0
71.30962 51.22531 2.371815 0
71.20961 51.47531 2.121815 0
71.30962 51.42531 2.221815 0
71.35961 51.17531 2.371815 0
71.40961 51.27531 2.421815 0
71.45961 51.47531 2.421815 0
71.15961 51.62531 2.121815 0
71.30962 51.62531 2.221815 0
71.40961 51.62531 2.421815 0
71.45961 51.72531 2.421815 0
71.35961 51.82531 2.221815 0
71.40961 51.82531 2.221815 0
71.45961 51.92531 2.421815 0
70.90961 51.27531 2.771815 0
71.05962 51.22531 2.671815 0
71.00961 51.37531 2.771815 0
71.05962 51.37531 2.721815 0
71.05962 51.42531 2.821815 0
70.80962 51.42531 3.171815 0
71.00961 51.17531 3.221815 0
71.10961 51.52531 2.971815 0
71.05962 51.47531 3.221815 0
70.80962 51.92531 2.721815 0
71.00961 51.92531 2.721815 0
70.75961 51.72531 2.921815 0
70.80962 51.72531 2.971815 0
70.80962 51.57531 3.171815 0
70.85961 51.77531 2.921815 0
70.80962 51.82531 3.121815 0
71.00961 51.62531 2.921815 0
70.95961 51.72531 2.971815 0
71.00961 51.67531 3.021815 0
71.05962 51.57531 2.921815 0
71.05962 51.62531 3.021815 0
71.10961 51.62531 2.971815 0
71.05962 51.72531 2.971815 0
70.95961 51.62531 3.171815 0
71.05962 51.67531 3.171815 0
70.95961 51.77531 2.921815 0
71.15961 51.52531 2.721815 0
71.15961 51.47531 2.821815 0
71.25961 51.52531 2.821815 0
71.45961 51.17531 2.471815 0
71.50961 51.42531 2.521815 0
71.30962 51.17531 2.871815 0
71.20961 51.17531 3.221815 0
71.25961 51.52531 3.021815 0
71.40961 51.17531 2.921815 0
71.45961 51.17531 2.871815 0
71.45961 51.17531 2.921815 0
71.40961 51.32531 3.121815 0
71.45961 51.37531 2.921815 0
71.50961 51.47531 2.921815 0
71.50961 51.37531 3.071815 0
71.15961 51.72531 2.721815 0
71.25961 51.62531 2.721815 0
71.30962 51.57531 2.821815 0
71.25961 51.67531 2.721815 0
71.30962 51.72531 2.721815 0
71.30962 51.72531 2.771815 0
71.15961 51.87531 2.721815 0
71.20961 51.87531 2.771815 0
71.25961 51.77531 2.721815 0
71.25961 51.92531 2.721815 0
71.50961 51.57531 2.471815 0
71.40961 51.67531 2.821815 0
71.50961 51.72531 2.821815 0
71.35961 51.77531 2.721815 0
71.35961 51.82531 2.671815 0
71.40961 51.82531 2.771815 0
71.45961 51.82531 2.721815 0
71.45961 51.92531 2.671815 0
71.50961 51.92531 2.721815 0
71.50961 51.87531 2.771815 0
71.25961 51.72531 2.971815 0
71.35961 51.57531 3.021815 0
71.35961 51.67531 3.021815 0
71.40961 51.72531 3.021815 0
71.50961 51.77531 3.021815 0
71.05962 52.07531 1.971815 0
71.00961 52.12531 2.271815 0
70.95961 52.27531 2.321815 0
70.90961 52.47531 2.371815 0
70.85961 52.67531 2.421815 0
71.15961 51.97531 1.921815 0
71.40961 51.97531 2.271815 0
71.45961 51.97531 2.271815 0
71.45961 52.12531 2.271815 0
71.50961 52.07531 2.421815 0
71.40961 52.17531 2.271815 0
71.50961 52.27531 2.271815 0
71.45961 52.37531 2.271815 0
71.45961 52.52531 2.421815 0
71.35961 52.67531 2.421815 0
71.50961 52.57531 2.271815 0
71.50961 52.62531 2.421815 0
70.75961 51.97531 2.721815 0
70.75961 52.07531 2.771815 0
70.75961 52.12531 2.771815 0
70.85961 51.97531 2.721815 0
70.90961 52.07531 2.671815 0
70.85961 52.07531 2.771815 0
70.75961 52.32531 2.821815 0
70.90961 52.27531 2.771815 0
71.00961 52.02531 2.671815 0
70.95961 51.97531 2.771815 0
71.00961 52.12531 2.721815 0
70.95961 52.07531 2.771815 0
71.00961 52.07531 2.771815 0
71.10961 52.02531 2.671815 0
71.05962 51.97531 2.771815 0
71.10961 52.07531 2.671815 0
71.10961 52.17531 2.721815 0
70.75961 52.42531 2.621815 0
70.90961 52.42531 2.621815 0
70.80962 52.37531 2.721815 0
70.80962 52.47531 2.771815 0
70.85961 52.42531 2.671815 0
70.90961 52.47531 2.771815 0
70.95961 52.47531 2.521815 0
71.05962 52.42531 2.621815 0
71.10961 52.47531 2.571815 0
70.95961 52.37531 2.721815 0
71.05962 52.37531 2.721815 0
71.00961 52.57531 2.521815 0
70.95961 52.67531 2.571815 0
71.05962 52.67531 2.571815 0
71.25961 52.07531 2.621815 0
71.15961 51.97531 2.771815 0
71.15961 52.12531 2.721815 0
71.25961 51.97531 2.671815 0
71.25961 52.07531 2.671815 0
71.40961 52.02531 2.621815 0
71.35961 52.07531 2.571815 0
71.35961 51.97531 2.671815 0
71.35961 52.07531 2.671815 0
71.35961 52.12531 2.721815 0
71.45961 51.97531 2.721815 0
71.45961 52.12531 2.721815 0
71.20961 52.42531 2.671815 0
71.15961 52.57531 2.471815 0
71.15961 52.57531 2.571815 0
71.15961 52.72531 2.521815 0
71.15961 52.67531 2.571815 0
71.25961 52.57531 2.571815 0
71.25961 52.72531 2.521815 0
71.25961 52.67531 2.571815 0
71.35961 52.47531 2.571815 0
71.35961 52.42531 2.671815 0
71.40961 52.57531 2.521815 0
71.35961 52.57531 2.571815 0
71.35961 52.72531 2.521815 0
71.45961 52.57531 2.571815 0
71.45961 52.72531 2.521815 0
69.70961 49.77531 3.771815 0
69.90961 49.82531 3.821815 0
69.85961 49.92531 3.721815 0
69.75961 50.32531 3.771815 0
69.80962 51.07531 3.771815 0
69.65961 51.17531 3.721815 0
70.10961 49.82531 3.821815 0
70.05962 49.92531 3.771815 0
70.20961 50.32531 3.521815 0
70.00961 50.32531 3.821815 0
70.30962 49.97531 3.821815 0
70.20961 50.27531 3.671815 0
70.45961 49.57531 3.871815 0
70.40961 49.77531 3.771815 0
70.60961 50.32531 3.621815 0
70.70961 50.22531 3.621815 0
70.45961 50.32531 3.671815 0
70.70961 49.97531 3.871815 0
70.10961 50.42531 3.471815 0
70.00961 51.02531 3.771815 0
70.20961 50.97531 3.771815 0
70.15961 51.12531 3.671815 0
70.25961 51.07531 3.671815 0
70.35961 50.47531 3.521815 0
70.45961 50.37531 3.571815 0
70.45961 50.67531 3.371815 0
70.55962 50.47531 3.521815 0
70.70961 50.72531 3.421815 0
70.70961 50.42531 3.721815 0
70.50961 51.12531 3.621815 0
70.70961 50.92531 3.271815 0
70.50961 50.92531 3.721815 0
70.40961 51.02531 3.721815 0
70.65961 50.87531 3.721815 0
70.95961 49.57531 3.571815 0
71.10961 49.57531 3.471815 0
71.05962 49.82531 3.621815 0
70.75961 49.67531 3.921815 0
70.90961 49.57531 3.971815 0
71.10961 49.62531 3.671815 0
70.80962 50.17531 3.721815 0
70.90961 50.22531 3.671815 0
71.10961 50.02531 3.671815 0
71.10961 50.17531 3.721815 0
71.20961 49.62531 3.321815 0
71.25961 49.67531 3.321815 0
71.20961 49.77531 3.371815 0
71.30962 49.77531 3.371815 0
71.25961 49.92531 3.571815 0
71.45961 49.77531 3.371815 0
71.25961 49.62531 3.671815 0
71.40961 49.67531 3.921815 0
71.40961 49.97531 3.421815 0
71.40961 50.27531 3.621815 0
71.20961 50.12531 3.721815 0
70.75961 50.47531 3.571815 0
70.85961 50.37531 3.571815 0
70.85961 50.62531 3.421815 0
71.10961 50.42531 3.621815 0
71.10961 50.67531 3.471815 0
70.85961 50.87531 3.271815 0
71.10961 50.87531 3.321815 0
71.20961 50.52531 3.471815 0
71.30962 50.37531 3.471815 0
71.45961 50.62531 3.371815 0
71.30962 50.37531 3.671815 0
71.25961 50.82531 3.371815 0
71.15961 51.07531 3.271815 0
71.45961 50.77531 3.371815 0
71.50961 50.92531 3.271815 0
71.35961 51.12531 3.271815 0
71.40961 51.07531 3.271815 0
70.20961 51.22531 3.621815 0
70.40961 51.22531 3.271815 0
70.35961 51.17531 3.621815 0
70.65961 51.27531 3.321815 0
70.70961 51.47531 3.271815 0
70.90961 51.32531 3.271815 0
71.05962 51.32531 3.271815 0
70.95961 51.47531 3.271815 0
71.30962 51.22531 3.271815 0
71.25961 51.87531 4.121815 0
71.25961 52.02531 3.871815 0
71.45961 52.17531 3.821815 0
71.00961 52.17531 4.471815 0
70.80962 52.72531 4.371815 0
71.05962 52.62531 4.121815 0
70.90961 52.57531 4.521815 0
70.95961 52.37531 4.521815 0
71.35961 52.02531 4.071815 0
71.35961 52.02531 4.121815 0
71.40961 52.17531 4.171815 0
71.45961 52.17531 4.071815 0
71.50961 52.32531 4.071815 0
71.50961 52.32531 4.171815 0
71.20961 52.57531 4.421815 0
71.35961 52.47531 4.121815 0
70.90961 52.22531 5.321815 0
70.95961 52.42531 5.371815 0
71.00961 52.62531 5.371815 0
71.20961 52.32531 5.021815 0
71.40961 52.22531 5.021815 0
71.15961 52.52531 5.071815 0
71.80962 47.12531 0.2718147 0
71.85961 47.12531 0.2718147 0
71.90961 47.12531 0.2718147 0
72.05962 47.12531 0.1718147 0
72.00961 47.07531 0.2718147 0
71.70961 47.27531 0.2218147 0
71.60961 47.17531 0.2718147 0
71.55962 47.32531 0.2718147 0
71.70961 47.17531 0.2718147 0
71.70961 47.27531 0.2718147 0
71.60961 47.37531 0.07181472 0
71.65961 47.42531 0.07181472 0
71.70961 47.42531 0.07181472 0
71.55962 47.47531 0.3218147 0
71.60961 47.47531 0.3218147 0
71.65961 47.42531 0.3218147 0
71.75961 47.27531 0.2718147 0
71.80962 47.27531 0.2718147 0
71.85961 47.22531 0.2718147 0
71.90961 47.22531 0.2718147 0
71.75961 47.42531 0.07181472 0
71.85961 47.47531 0.07181472 0
71.90961 47.47531 0.07181472 0
71.90961 47.47531 0.1718147 0
71.75961 47.42531 0.3218147 0
71.80962 47.42531 0.3218147 0
71.90961 47.42531 0.3218147 0
71.55962 47.62531 0.3718147 0
71.65961 47.62531 0.3218147 0
71.65961 47.72531 0.3718147 0
71.70961 47.82531 0.1718147 0
71.65961 47.92531 0.1718147 0
71.80962 47.67531 0.1718147 0
71.85961 47.57531 0.1718147 0
71.80962 47.62531 0.3218147 0
71.90961 47.57531 0.3718147 0
71.75961 47.82531 0.3718147 0
71.80962 47.82531 0.3718147 0
71.80962 47.87531 0.4218147 0
71.85961 47.82531 0.3718147 0
71.90961 47.77531 0.3718147 0
71.60961 47.67531 0.4718147 0
71.55962 47.77531 0.5218147 0
71.60961 47.77531 0.5218147 0
71.65961 47.77531 0.4718147 0
71.70961 47.82531 0.5218147 0
71.75961 47.82531 0.4718147 0
71.75961 47.82531 0.5218147 0
71.80962 47.87531 0.5218147 0
71.85961 47.92531 0.5218147 0
72.00961 47.22531 0.1718147 0
71.95961 47.32531 0.1718147 0
71.95961 47.17531 0.2718147 0
72.00961 47.22531 0.3218147 0
72.05962 47.22531 0.3218147 0
72.10961 47.22531 0.3218147 0
72.00961 47.47531 0.07181472 0
72.05962 47.47531 0.07181472 0
71.95961 47.37531 0.3218147 0
72.00961 47.37531 0.3218147 0
72.10961 47.37531 0.3218147 0
72.20961 47.17531 0.3218147 0
72.25961 47.17531 0.3218147 0
72.30962 47.17531 0.3218147 0
72.15961 47.52531 0.07181472 0
72.25961 47.52531 0.1218147 0
72.30962 47.52531 0.1218147 0
72.25961 47.37531 0.3218147 0
71.95961 47.57531 0.3718147 0
72.00961 47.57531 0.3718147 0
72.05962 47.57531 0.3718147 0
72.00961 47.82531 0.3718147 0
72.05962 47.77531 0.3718147 0
72.10961 47.77531 0.4218147 0
72.15961 47.57531 0.3718147 0
72.20961 47.57531 0.3718147 0
72.25961 47.57531 0.3718147 0
72.30962 47.57531 0.3718147 0
72.20961 47.77531 0.4218147 0
72.25961 47.77531 0.4218147 0
72.35961 47.32531 0.3218147 0
72.40961 47.32531 0.3218147 0
72.45961 47.32531 0.3218147 0
72.35961 47.52531 0.1218147 0
72.40961 47.52531 0.1218147 0
72.35961 47.47531 0.2718147 0
72.35961 47.52531 0.3718147 0
72.40961 47.52531 0.3718147 0
72.50961 47.42531 0.2718147 0
72.50961 47.52531 0.3718147 0
72.55962 47.32531 0.3218147 0
72.70961 47.32531 0.2718147 0
72.60961 47.52531 0.1218147 0
72.65961 47.52531 0.1218147 0
72.60961 47.52531 0.3718147 0
72.65961 47.52531 0.3718147 0
72.70961 47.52531 0.3718147 0
72.50961 47.57531 0.1218147 0
72.35961 47.77531 0.4218147 0
72.40961 47.77531 0.4218147 0
72.70961 47.57531 0.1218147 0
72.55962 47.77531 0.4218147 0
72.65961 47.77531 0.4218147 0
72.70961 47.77531 0.4218147 0
72.80962 47.52531 0.1218147 0
72.80962 47.47531 0.3718147 0
73.00961 47.52531 0.1218147 0
73.10961 47.52531 0.1218147 0
72.85961 47.57531 0.1218147 0
72.90961 47.57531 0.1218147 0
72.80962 47.77531 0.4218147 0
72.90961 47.77531 0.4218147 0
73.00961 47.77531 0.4218147 0
73.05962 47.77531 0.4218147 0
73.10961 47.77531 0.4218147 0
71.60961 48.02531 0.1718147 0
71.55962 48.17531 0.1718147 0
71.90961 47.97531 0.4218147 0
71.60961 48.07531 0.5718147 0
71.65961 48.12531 0.5718147 0
71.70961 48.07531 0.5718147 0
71.80962 48.12531 0.5718147 0
71.85961 48.12531 0.5718147 0
71.55962 48.42531 0.07181472 0
71.60961 48.42531 0.07181472 0
71.65961 48.42531 0.07181472 0
71.75961 48.47531 0.07181472 0
71.80962 48.47531 0.07181472 0
71.85961 48.47531 0.07181472 0
71.55962 48.47531 0.6218147 0
71.60961 48.47531 0.6218147 0
71.70961 48.47531 0.6218147 0
71.75961 48.52531 0.6218147 0
71.80962 48.52531 0.6718147 0
71.90961 48.52531 0.6718147 0
71.95961 48.02531 0.4218147 0
72.00961 48.07531 0.4218147 0
72.10961 48.02531 0.4218147 0
72.15961 48.07531 0.4218147 0
72.25961 48.07531 0.4218147 0
71.95961 47.97531 0.5218147 0
72.00961 48.07531 0.5218147 0
71.95961 48.12531 0.5718147 0
72.00961 48.12531 0.6218147 0
72.05962 48.12531 0.5218147 0
72.10961 48.17531 0.6218147 0
72.15961 48.22531 0.5218147 0
72.15961 48.22531 0.6218147 0
72.25961 48.27531 0.5218147 0
72.25961 48.32531 0.6218147 0
71.95961 48.47531 0.07181472 0
72.00961 48.47531 0.07181472 0
72.10961 48.52531 0.07181472 0
72.15961 48.52531 0.1218147 0
72.20961 48.52531 0.1218147 0
72.30962 48.52531 0.1218147 0
72.00961 48.57531 0.6718147 0
72.05962 48.57531 0.6718147 0
72.10961 48.57531 0.6718147 0
72.15961 48.57531 0.6718147 0
72.20961 48.62531 0.6718147 0
72.30962 48.62531 0.6718147 0
71.55962 49.02531 0.7218148 0
71.70961 49.07531 0.7218148 0
71.75961 49.07531 0.7218148 0
71.80962 49.07531 0.7218148 0
71.90961 49.12531 0.7718147 0
71.95961 49.12531 0.7718147 0
72.00961 49.12531 0.7718147 0
72.10961 49.17531 0.7718147 0
72.20961 49.17531 0.7718147 0
72.30962 49.22531 0.7718147 0
72.55962 48.17531 0.07181472 0
72.65961 48.22531 0.07181472 0
72.70961 48.27531 0.07181472 0
72.35961 48.07531 0.4718147 0
72.45961 48.07531 0.4718147 0
72.50961 48.07531 0.4718147 0
72.60961 48.07531 0.4718147 0
72.70961 48.07531 0.4718147 0
72.40961 48.52531 0.1218147 0
72.45961 48.57531 0.1218147 0
72.50961 48.57531 0.1218147 0
72.60961 48.57531 0.1218147 0
72.65961 48.57531 0.1218147 0
72.35961 48.37531 0.5218147 0
72.40961 48.37531 0.5218147 0
72.35961 48.37531 0.6218147 0
72.50961 48.42531 0.5218147 0
72.45961 48.47531 0.6218147 0
72.35961 48.62531 0.7218148 0
72.45961 48.67531 0.7218148 0
72.50961 48.67531 0.7218148 0
72.55962 48.42531 0.5218147 0
72.60961 48.42531 0.5218147 0
72.55962 48.57531 0.6218147 0
72.70961 48.67531 0.6218147 0
72.60961 48.72531 0.7218148 0
72.70961 48.72531 0.7218148 0
72.75961 48.32531 0.07181472 0
72.80962 48.32531 0.07181472 0
72.75961 48.07531 0.4718147 0
72.80962 48.07531 0.4718147 0
72.85961 48.07531 0.4718147 0
73.00961 48.07531 0.4718147 0
73.05962 48.07531 0.4718147 0
72.85961 48.37531 0.07181472 0
72.90961 48.42531 0.07181472 0
72.75961 48.57531 0.1218147 0
72.80962 48.57531 0.1218147 0
72.90961 48.57531 0.1218147 0
73.00961 48.42531 0.07181472 0
73.05962 48.52531 0.07181472 0
73.00961 48.57531 0.1218147 0
73.10961 48.62531 0.1218147 0
72.75961 48.42531 0.5218147 0
72.90961 48.42531 0.5218147 0
72.95961 48.47531 0.5718147 0
73.05962 48.47531 0.5718147 0
72.35961 49.22531 0.8218147 0
72.40961 49.27531 0.8218147 0
72.50961 49.27531 0.8218147 0
72.65961 49.32531 0.8218147 0
72.70961 49.37531 0.8218147 0
72.80962 48.82531 0.6218147 0
72.90961 48.92531 0.6218147 0
72.85961 48.87531 0.7218148 0
73.00961 48.92531 0.6218147 0
73.10961 48.92531 0.6218147 0
73.05962 49.02531 0.7718147 0
72.75961 49.37531 0.8218147 0
72.85961 49.42531 0.8718147 0
72.95961 49.47531 0.8718147 0
73.05962 49.52531 0.8718147 0
73.10961 49.52531 0.8718147 0
71.70961 49.12531 3.221815 0
71.60961 49.52531 3.071815 0
72.00961 49.12531 3.071815 0
72.00961 49.22531 3.121815 0
72.05962 49.42531 3.121815 0
72.10961 49.47531 3.121815 0
72.30962 49.22531 3.121815 0
72.30962 49.22531 3.171815 0
72.25961 49.32531 3.121815 0
72.30962 49.32531 3.171815 0
72.20961 49.42531 3.171815 0
72.15961 49.47531 3.121815 0
72.30962 49.37531 3.071815 0
72.40961 48.82531 3.121815 0
72.45961 48.92531 3.121815 0
72.40961 48.97531 3.171815 0
72.35961 49.12531 3.121815 0
72.40961 49.07531 3.121815 0
72.40961 49.12531 3.171815 0
72.40961 49.22531 3.021815 0
72.45961 49.37531 3.021815 0
72.45961 49.47531 3.021815 0
72.35961 49.47531 3.121815 0
72.40961 49.52531 3.071815 0
72.65961 49.52531 2.921815 0
72.70961 49.47531 2.871815 0
72.85961 49.52531 2.821815 0
73.70961 47.07531 0.07181472 0
73.75961 47.12531 0.07181472 0
73.80962 47.12531 0.07181472 0
73.15961 47.52531 0.1218147 0
73.20961 47.52531 0.1218147 0
73.25961 47.52531 0.1218147 0
73.35961 47.52531 0.1218147 0
73.45961 47.47531 0.1218147 0
73.50961 47.47531 0.1218147 0
73.55962 47.47531 0.1218147 0
73.65961 47.47531 0.1218147 0
73.90961 47.17531 0.07181472 0
73.75961 47.42531 0.1718147 0
73.85961 47.42531 0.1718147 0
73.90961 47.37531 0.1718147 0
74.10961 47.07531 0.07181472 0
74.20961 47.12531 0.07181472 0
73.95961 47.22531 0.07181472 0
74.00961 47.22531 0.07181472 0
74.10961 47.27531 0.07181472 0
73.95961 47.37531 0.1718147 0
74.20961 47.17531 0.07181472 0
74.15961 47.27531 0.1218147 0
74.20961 47.32531 0.1218147 0
74.30962 47.22531 0.07181472 0
74.30962 47.32531 0.1218147 0
74.35961 47.27531 0.07181472 0
74.35961 47.32531 0.07181472 0
74.35961 47.32531 0.1218147 0
74.40961 47.37531 0.07181472 0
74.40961 47.37531 0.1218147 0
74.50961 47.37531 0.1218147 0
74.50961 47.47531 0.07181472 0
74.55962 47.37531 0.1218147 0
74.60961 47.37531 0.1218147 0
74.55962 47.47531 0.07181472 0
74.70961 47.37531 0.1218147 0
74.60961 47.57531 0.07181472 0
74.70961 47.62531 0.07181472 0
74.70961 47.72531 0.1218147 0
74.65961 47.87531 0.1218147 0
73.15961 48.07531 0.5218147 0
73.30962 48.07531 0.5218147 0
73.40961 48.07531 0.5218147 0
73.45961 48.12531 0.5218147 0
73.50961 48.12531 0.5218147 0
73.15961 48.52531 0.07181472 0
73.20961 48.57531 0.07181472 0
73.20961 48.62531 0.1218147 0
73.25961 48.57531 0.07181472 0
73.25961 48.57531 0.1218147 0
73.30962 48.62531 0.07181472 0
73.35961 48.62531 0.1218147 0
73.40961 48.62531 0.1218147 0
73.50961 48.62531 0.1218147 0
73.45961 48.67531 0.07181472 0
73.20961 48.47531 0.5718147 0
73.35961 48.47531 0.5718147 0
73.45961 48.52531 0.5718147 0
73.55962 48.62531 0.1218147 0
73.55962 48.72531 0.07181472 0
73.65961 48.62531 0.1718147 0
73.70961 48.62531 0.1718147 0
73.75961 48.62531 0.1718147 0
73.85961 48.62531 0.1718147 0
73.60961 48.52531 0.6218147 0
73.75961 48.57531 0.6218147 0
73.85961 48.57531 0.6218147 0
73.15961 48.92531 0.6218147 0
73.25961 48.97531 0.6718147 0
73.35961 48.97531 0.6718147 0
73.40961 49.02531 0.6718147 0
73.50961 49.02531 0.6718147 0
73.20961 49.17531 0.7718147 0
73.40961 49.37531 0.7718147 0
73.65961 48.77531 0.07181472 0
73.75961 48.77531 0.07181472 0
73.80962 48.82531 0.07181472 0
73.90961 48.82531 0.07181472 0
73.55962 49.02531 0.6718147 0
73.65961 49.07531 0.6718147 0
73.75961 49.07531 0.7218148 0
73.85961 49.12531 0.7218148 0
74.00961 48.62531 0.1718147 0
74.10961 48.62531 0.1718147 0
74.20961 48.62531 0.1718147 0
74.30962 48.67531 0.1218147 0
73.95961 48.57531 0.6218147 0
74.00961 48.57531 0.6218147 0
74.10961 48.62531 0.6218147 0
74.50961 48.22531 0.1218147 0
74.45961 48.32531 0.1218147 0
74.60961 47.97531 0.1218147 0
74.55962 48.07531 0.1218147 0
74.40961 48.47531 0.1218147 0
74.35961 48.57531 0.1218147 0
74.35961 48.62531 0.1718147 0
74.45961 48.62531 0.1718147 0
74.00961 48.87531 0.07181472 0
74.05962 48.87531 0.07181472 0
74.15961 48.87531 0.07181472 0
74.25961 48.92531 0.1218147 0
74.30962 48.92531 0.1218147 0
73.95961 49.12531 0.7218148 0
74.05962 49.17531 0.7218148 0
74.15961 49.17531 0.7218148 0
74.25961 49.22531 0.7218148 0
74.40961 48.92531 0.1218147 0
74.50961 48.92531 0.1218147 0
74.60961 48.97531 0.1218147 0
74.70961 48.97531 0.1218147 0
74.35961 49.22531 0.7718147 0
74.45961 49.27531 0.7718147 0
74.55962 49.27531 0.7718147 0
74.70961 49.32531 0.7718147 0
71.90961 48.72531 3.521815 0
71.80962 48.72531 3.671815 0
71.60961 48.97531 3.871815 0
71.80962 48.92531 3.671815 0
71.85961 49.07531 3.721815 0
71.75961 49.22531 3.521815 0
71.80962 49.37531 3.271815 0
71.85961 49.37531 3.521815 0
71.55962 49.17531 3.721815 0
71.55962 49.27531 3.721815 0
71.65961 49.27531 3.921815 0
71.55962 49.37531 3.721815 0
71.60961 49.42531 3.721815 0
71.65961 49.52531 3.721815 0
71.70961 49.52531 3.971815 0
71.80962 49.37531 3.721815 0
71.95961 48.92531 3.521815 0
72.00961 49.12531 3.571815 0
72.25961 48.82531 3.321815 0
72.15961 49.07531 3.371815 0
72.25961 48.97531 3.321815 0
72.10961 49.47531 3.421815 0
72.00961 49.37531 3.621815 0
72.20961 49.27531 3.371815 0
72.20961 49.32531 3.421815 0
72.25961 49.17531 3.321815 0
71.60961 49.92531 0.8718147 0
71.65961 49.92531 0.8718147 0
71.75961 49.92531 0.8718147 0
71.85961 49.97531 0.8718147 0
71.95961 50.02531 0.8718147 0
72.05962 50.02531 0.9218147 0
72.15961 50.07531 0.9218147 0
72.20961 50.07531 0.9218147 0
72.25961 50.12531 0.9218147 0
72.35961 50.12531 0.9218147 0
72.40961 50.17531 0.9718148 0
72.50961 50.22531 0.9718148 0
72.60961 50.27531 0.9718148 0
72.65961 50.27531 0.9718148 0
72.75961 50.32531 0.9718148 0
72.85961 50.37531 1.021815 0
