# .PCD v0.7 - Point Cloud Data file format
VERSION 0.7
FIELDS x y z intensity
SIZE 4 4 4 4
TYPE F F F F
COUNT 1 1 1 1
WIDTH 1610
HEIGHT 1
VIEWPOINT 0 0 0 1 0 0 0
POINTS 1610
DATA ascii
39.15961 7.025311 2.121815 0
39.15961 7.075312 2.071815 0
39.25961 7.075312 2.071815 0
39.15961 7.025311 2.371815 0
39.15961 7.075312 2.271815 0
39.20961 7.075312 2.321815 0
39.15961 7.075312 2.421815 0
39.25961 7.025311 2.421815 0
39.25961 7.075312 2.271815 0
39.25961 7.075312 2.321815 0
39.30961 7.075312 2.321815 0
39.35961 7.025311 2.121815 0
39.40961 7.025311 2.121815 0
39.45961 7.025311 2.121815 0
39.50961 7.025311 2.171815 0
39.35961 7.025311 2.371815 0
39.35961 7.025311 2.421815 0
39.35961 7.075312 2.321815 0
39.40961 7.075312 2.321815 0
39.45961 7.025311 2.371815 0
39.45961 7.025311 2.421815 0
39.50961 7.075312 2.321815 0
39.10961 6.625311 3.071815 0
38.75961 7.075312 2.521815 0
38.75961 7.075312 2.571815 0
38.75961 7.075312 2.621815 0
38.75961 7.125311 2.621815 0
38.80961 7.075312 2.571815 0
38.85961 7.025311 2.571815 0
38.85961 7.075312 2.471815 0
38.85961 7.075312 2.621815 0
38.90961 7.075312 2.571815 0
38.90961 7.075312 2.621815 0
38.75961 7.025311 2.721815 0
38.75961 7.025311 2.771815 0
38.85961 7.075312 2.821815 0
39.00961 7.025311 2.521815 0
38.95961 7.075312 2.471815 0
39.00961 7.075312 2.571815 0
39.00961 7.075312 2.621815 0
39.05961 7.075312 2.471815 0
39.10961 7.075312 2.571815 0
38.95961 7.025311 2.771815 0
39.00961 7.075312 2.721815 0
39.00961 7.125311 2.671815 0
38.95961 7.075312 2.821815 0
39.10961 7.025311 2.821815 0
39.10961 7.075312 2.671815 0
38.90961 6.875311 3.071815 0
38.75961 7.075312 2.921815 0
38.75961 7.125311 2.871815 0
38.85961 7.025311 2.871815 0
38.85961 7.075312 2.971815 0
39.00961 6.775311 3.071815 0
39.00961 7.025311 2.921815 0
39.10961 7.025311 2.871815 0
39.15961 6.525311 3.071815 0
39.15961 6.625311 2.921815 0
39.25961 6.675312 2.921815 0
39.35961 6.725312 2.921815 0
39.20961 7.025311 2.521815 0
39.15961 7.025311 2.621815 0
39.15961 7.075312 2.621815 0
39.30961 7.025311 2.571815 0
39.25961 7.075312 2.621815 0
39.15961 7.075312 2.721815 0
39.20961 7.075312 2.671815 0
39.25961 7.025311 2.771815 0
39.25961 7.075312 2.671815 0
39.30961 7.075312 2.671815 0
39.35961 7.025311 2.571815 0
39.40961 7.075312 2.621815 0
39.50961 7.025311 2.571815 0
39.40961 7.025311 2.671815 0
39.35961 7.025311 2.771815 0
39.35961 7.025311 2.821815 0
39.35961 7.075312 2.671815 0
39.40961 7.075312 2.671815 0
39.45961 7.025311 2.771815 0
39.50961 7.075312 2.671815 0
39.20961 7.025311 2.921815 0
39.40961 6.875311 2.971815 0
39.35961 7.025311 2.971815 0
39.40961 7.075312 2.971815 0
39.45961 7.025311 2.921815 0
38.80961 7.225312 1.771815 0
38.90961 7.225312 1.771815 0
38.75961 7.425312 1.671815 0
38.75961 7.425312 2.021815 0
38.90961 7.425312 2.021815 0
39.00961 7.225312 1.771815 0
39.10961 7.175312 1.771815 0
39.05961 7.425312 1.971815 0
38.80961 7.225312 2.121815 0
38.90961 7.225312 2.121815 0
38.80961 7.225312 2.421815 0
38.90961 7.225312 2.421815 0
38.75961 7.425312 2.421815 0
38.90961 7.425312 2.371815 0
39.00961 7.225312 2.121815 0
39.10961 7.225312 2.071815 0
39.00961 7.225312 2.421815 0
39.10961 7.225312 2.421815 0
39.05961 7.425312 2.371815 0
39.20961 7.225312 1.771815 0
39.30961 7.175312 1.771815 0
39.20961 7.375311 1.971815 0
39.40961 7.175312 1.771815 0
39.50961 7.175312 1.771815 0
39.35961 7.375311 1.971815 0
39.45961 7.375311 1.971815 0
39.20961 7.175312 2.071815 0
39.30961 7.175312 2.071815 0
39.20961 7.175312 2.421815 0
39.20961 7.325312 2.321815 0
39.30961 7.175312 2.421815 0
39.40961 7.175312 2.071815 0
39.50961 7.175312 2.071815 0
39.40961 7.175312 2.371815 0
39.35961 7.325312 2.321815 0
39.50961 7.175312 2.371815 0
39.45961 7.375311 2.321815 0
38.80961 7.225312 2.771815 0
38.90961 7.225312 2.771815 0
38.75961 7.425312 2.771815 0
38.90961 7.425312 2.771815 0
39.00961 7.225312 2.771815 0
39.10961 7.225312 2.721815 0
39.20961 7.175312 2.671815 0
39.20961 7.175312 2.721815 0
39.30961 7.175312 2.671815 0
39.30961 7.225312 2.721815 0
39.40961 7.175312 2.721815 0
39.40961 7.225312 2.671815 0
39.50961 7.175312 2.721815 0
39.45961 7.375311 2.671815 0
39.40961 7.225312 3.021815 0
39.45961 7.375311 3.071815 0
37.10961 4.775311 3.371815 0
37.10961 4.825312 3.371815 0
37.10961 4.825312 3.571815 0
37.10961 5.025311 3.571815 0
37.10961 5.425312 3.621815 0
37.10961 5.625311 3.621815 0
37.10961 5.825312 3.621815 0
37.15961 4.875311 3.371815 0
37.20961 4.875311 3.421815 0
37.15961 4.975312 3.371815 0
37.15961 5.025311 3.421815 0
37.20961 4.975312 3.421815 0
37.20961 5.025311 3.421815 0
37.15961 5.075312 3.421815 0
37.20961 5.125311 3.421815 0
37.50961 4.775311 3.621815 0
37.45961 4.875311 3.921815 0
37.20961 5.275311 3.421815 0
37.25961 5.275311 3.421815 0
37.20961 5.175312 3.471815 0
37.15961 5.225312 3.621815 0
37.20961 5.325312 3.471815 0
37.20961 5.475312 3.471815 0
37.20961 5.475312 3.521815 0
37.40961 5.325312 3.421815 0
37.65961 4.925312 3.571815 0
37.80961 5.125311 3.321815 0
37.90961 5.125311 3.621815 0
37.65961 5.125311 3.971815 0
37.85961 4.875311 3.671815 0
37.90961 5.025311 3.671815 0
37.60961 5.325312 3.421815 0
37.80961 5.225312 3.471815 0
37.80961 5.375311 4.071815 0
37.20961 5.575312 3.521815 0
37.20961 5.625311 3.471815 0
37.20961 5.775311 3.521815 0
37.20961 5.775311 3.571815 0
37.20961 5.925312 3.571815 0
37.20961 5.975312 3.521815 0
37.20961 6.075312 3.571815 0
37.20961 6.125311 3.571815 0
37.20961 6.225312 3.621815 0
37.20961 6.325312 3.571815 0
37.15961 6.025311 3.671815 0
37.60961 5.875311 3.471815 0
37.85961 5.725312 3.271815 0
37.80961 5.575312 3.471815 0
37.85961 5.875311 3.271815 0
37.90961 5.875311 3.271815 0
37.80961 5.775311 3.521815 0
37.85961 6.025311 3.271815 0
37.90961 6.025311 3.321815 0
37.90961 6.175312 3.271815 0
37.90961 6.175312 3.321815 0
37.85961 6.175312 3.521815 0
37.00961 6.725312 3.671815 0
36.85961 6.775311 3.621815 0
37.20961 6.475312 3.571815 0
37.20961 6.675312 3.621815 0
37.35961 6.675312 3.271815 0
37.20961 6.375311 3.671815 0
37.20961 6.525311 3.671815 0
37.20961 6.675312 3.671815 0
37.30961 7.125311 3.321815 0
37.30961 7.125311 3.371815 0
37.40961 7.125311 3.321815 0
37.45961 7.125311 3.421815 0
37.50961 7.075312 3.371815 0
37.85961 6.375311 3.321815 0
37.90961 6.375311 3.371815 0
37.90961 6.525311 3.321815 0
37.90961 6.525311 3.371815 0
37.90961 6.675312 3.421815 0
37.90961 6.725312 3.371815 0
37.60961 7.075312 3.271815 0
37.70961 7.075312 3.371815 0
37.65961 7.075312 3.471815 0
37.85961 7.075312 3.471815 0
38.00961 4.875311 3.521815 0
37.95961 5.125311 3.271815 0
38.10961 5.125311 3.521815 0
38.20961 5.025311 3.621815 0
38.20961 5.125311 3.621815 0
38.15961 5.075312 3.671815 0
38.15961 5.125311 3.671815 0
38.35961 4.925312 3.471815 0
38.40961 5.125311 3.271815 0
38.40961 5.075312 3.621815 0
38.50961 4.975312 3.571815 0
38.70961 4.875311 3.421815 0
38.60961 5.125311 3.321815 0
38.70961 5.075312 3.321815 0
38.55961 5.125311 3.571815 0
38.60961 5.075312 3.571815 0
38.45961 4.775311 3.821815 0
38.45961 5.125311 3.721815 0
38.60961 4.775311 3.971815 0
38.70961 4.875311 3.971815 0
38.55961 5.125311 3.721815 0
38.70961 5.075312 3.821815 0
38.05961 4.875311 4.121815 0
38.40961 5.225312 4.221815 0
38.00961 5.625311 4.121815 0
38.20961 5.925312 4.171815 0
38.40961 6.225312 4.271815 0
38.80961 5.075312 3.371815 0
38.75961 4.975312 3.521815 0
38.85961 5.025311 3.521815 0
39.00961 4.875311 3.371815 0
39.00961 5.075312 3.371815 0
39.05961 5.075312 3.421815 0
39.00961 4.975312 3.471815 0
39.05961 5.025311 3.521815 0
38.85961 4.775311 3.721815 0
38.75961 4.775311 4.021815 0
38.90961 5.075312 3.771815 0
38.80961 4.975312 4.021815 0
39.00961 4.875311 3.921815 0
39.00961 5.075312 3.871815 0
39.05961 4.975312 3.971815 0
39.30961 4.975312 3.421815 0
39.30961 5.075312 3.321815 0
39.30961 5.075312 3.421815 0
39.25961 5.025311 3.471815 0
39.25961 5.075312 3.471815 0
39.35961 4.875311 3.321815 0
39.45961 5.025311 3.421815 0
39.50961 5.075312 3.521815 0
39.25961 4.775311 3.671815 0
39.30961 4.975312 3.921815 0
39.25961 5.075312 3.871815 0
39.30961 5.075312 3.921815 0
39.35961 4.875311 3.871815 0
38.60961 6.475312 4.321815 0
38.85961 6.825312 4.421815 0
39.75961 1.725312 0.1218147 0
39.80961 1.925311 0.1218147 0
39.85961 1.825312 0.1218147 0
39.85961 1.925311 0.07181472 0
39.90961 1.875311 0.07181472 0
39.90961 1.875311 0.1218147 0
39.90961 1.925311 0.1218147 0
39.85961 1.925311 0.1718147 0
39.90961 1.925311 0.2218147 0
39.80961 1.925311 0.2718147 0
39.80961 1.925311 0.3718147 0
39.80961 1.925311 0.4218147 0
39.85961 1.925311 0.2718147 0
39.90961 1.875311 0.2718147 0
39.90961 1.925311 0.2718147 0
39.85961 1.925311 0.3718147 0
39.85961 1.925311 0.4218147 0
39.90961 1.925311 0.4218147 0
39.75961 1.725312 0.5718147 0
39.80961 1.925311 0.5718147 0
39.80961 1.925311 0.6218147 0
39.85961 1.825312 0.5218147 0
39.85961 1.875311 0.4718147 0
39.85961 1.925311 0.4718147 0
39.85961 1.925311 0.5218147 0
39.90961 1.925311 0.4718147 0
39.90961 1.925311 0.5218147 0
39.85961 1.875311 0.5718147 0
39.85961 1.925311 0.6218147 0
39.80961 1.925311 0.7218148 0
39.80961 1.925311 0.7718147 0
39.85961 1.875311 0.7218148 0
39.85961 1.925311 0.7218148 0
39.85961 1.875311 0.8218147 0
39.85961 1.925311 0.8218147 0
39.90961 1.925311 0.8218147 0
39.55961 1.975312 0.07181472 0
39.60961 2.025311 0.07181472 0
39.60961 2.025311 0.1218147 0
39.55961 2.125312 0.1718147 0
39.65961 1.975312 0.07181472 0
39.65961 1.975312 0.1218147 0
39.65961 2.025311 0.07181472 0
39.70961 2.025311 0.07181472 0
39.70961 2.025311 0.1218147 0
39.65961 2.125312 0.1718147 0
39.70961 2.125312 0.1718147 0
39.60961 2.175312 0.1218147 0
39.60961 2.175312 0.1718147 0
39.70961 2.175312 0.1218147 0
39.65961 2.175312 0.1718147 0
39.55961 2.325311 0.2718147 0
39.70961 2.325311 0.2718147 0
39.70961 2.325311 0.4218147 0
39.75961 1.975312 0.07181472 0
39.80961 1.975312 0.1218147 0
39.80961 2.025311 0.07181472 0
39.75961 2.075311 0.1718147 0
39.75961 2.125312 0.1718147 0
39.80961 2.125312 0.1718147 0
39.85961 1.975312 0.07181472 0
39.90961 1.975312 0.1218147 0
39.90961 2.025311 0.07181472 0
39.85961 1.975312 0.1718147 0
39.85961 1.975312 0.2218147 0
39.85961 2.025311 0.1718147 0
39.90961 1.975312 0.1718147 0
39.85961 1.975312 0.2718147 0
39.90961 1.975312 0.2718147 0
39.85961 1.975312 0.4218147 0
39.90961 1.975312 0.3718147 0
39.90961 1.975312 0.4218147 0
39.75961 2.175312 0.1218147 0
39.90961 2.175312 0.1718147 0
39.80961 2.325311 0.4218147 0
39.55961 2.325311 0.6218147 0
39.70961 2.325311 0.5718147 0
39.55961 2.325311 0.7218148 0
39.55961 2.325311 0.8218147 0
39.65961 2.325311 0.7218148 0
39.70961 2.325311 0.6718147 0
39.80961 1.975312 0.4718147 0
39.80961 1.975312 0.5218147 0
39.85961 1.975312 0.6218147 0
39.85961 2.025311 0.5718147 0
39.90961 1.975312 0.5718147 0
39.90961 1.975312 0.6218147 0
39.85961 1.975312 0.7218148 0
39.90961 1.975312 0.6718147 0
39.90961 1.975312 0.7218148 0
39.85961 1.975312 0.8218147 0
39.90961 1.975312 0.7718147 0
39.90961 1.975312 0.8218147 0
39.80961 2.325311 0.5218147 0
39.80961 2.325311 0.7718147 0
40.00961 1.775311 0.1218147 0
39.95961 1.925311 0.1718147 0
40.00961 1.875311 0.1718147 0
40.05961 1.925311 0.07181472 0
40.10961 1.875311 0.1218147 0
40.10961 1.925311 0.07181472 0
40.10961 1.925311 0.1718147 0
40.10961 1.925311 0.2218147 0
39.95961 1.925311 0.2718147 0
40.00961 1.925311 0.2718147 0
39.95961 1.925311 0.4218147 0
40.00961 1.925311 0.4218147 0
40.10961 1.925311 0.3218147 0
40.10961 1.925311 0.4218147 0
40.20961 1.625311 0.07181472 0
40.25961 1.925311 0.1218147 0
39.95961 1.875311 0.5718147 0
39.95961 1.925311 0.6218147 0
40.00961 1.925311 0.5718147 0
40.10961 1.925311 0.5218147 0
40.10961 1.925311 0.6218147 0
39.95961 1.875311 0.6718147 0
40.00961 1.925311 0.6718147 0
39.95961 1.925311 0.8218147 0
40.00961 1.875311 0.8218147 0
40.10961 1.925311 0.7218148 0
39.95961 1.975312 0.07181472 0
39.95961 1.975312 0.1218147 0
40.00961 2.025311 0.07181472 0
40.00961 2.025311 0.1218147 0
40.05961 1.975312 0.07181472 0
40.10961 1.975312 0.1218147 0
40.05961 1.975312 0.1718147 0
40.05961 1.975312 0.3218147 0
40.05961 1.975312 0.4218147 0
40.00961 2.225312 0.1218147 0
40.00961 2.225312 0.1718147 0
40.10961 2.225312 0.1218147 0
40.05961 2.275311 0.1718147 0
40.10961 2.325311 0.1718147 0
40.15961 1.975312 0.07181472 0
40.15961 1.975312 0.1218147 0
40.20961 1.975312 0.07181472 0
40.15961 1.975312 0.1718147 0
40.25961 1.975312 0.07181472 0
40.25961 1.975312 0.1218147 0
40.30961 1.975312 0.07181472 0
40.30961 1.975312 0.1218147 0
40.30961 2.025311 0.1218147 0
40.15961 1.975312 0.3218147 0
40.15961 2.025311 0.4218147 0
40.20961 2.175312 0.1218147 0
40.15961 2.325311 0.1718147 0
40.30961 2.225312 0.1218147 0
40.05961 1.975312 0.5218147 0
40.05961 1.975312 0.6218147 0
40.05961 1.975312 0.7218148 0
40.15961 1.975312 0.5218147 0
40.15961 1.975312 0.6218147 0
40.15961 1.975312 0.7718147 0
39.75961 1.725312 1.071815 0
39.80961 1.925311 0.8718147 0
39.80961 1.875311 0.9718148 0
39.80961 1.925311 1.021815 0
39.85961 1.825312 0.9218147 0
39.85961 1.925311 0.9218147 0
39.85961 1.875311 0.9718148 0
39.85961 1.925311 1.021815 0
39.90961 1.875311 1.021815 0
39.90961 1.925311 0.9718148 0
39.90961 1.925311 1.021815 0
39.80961 1.925311 1.171815 0
39.85961 1.875311 1.121815 0
39.85961 1.925311 1.121815 0
39.85961 1.925311 1.171815 0
39.85961 1.925311 1.221815 0
39.90961 1.875311 1.221815 0
39.90961 1.925311 1.171815 0
39.90961 1.925311 1.221815 0
39.75961 1.725312 1.521815 0
39.80961 1.875311 1.321815 0
39.80961 1.925311 1.271815 0
39.80961 1.925311 1.321815 0
39.85961 1.925311 1.271815 0
39.85961 1.925311 1.321815 0
39.85961 1.925311 1.421815 0
39.80961 1.875311 1.471815 0
39.80961 1.875311 1.521815 0
39.80961 1.925311 1.471815 0
39.85961 1.925311 1.471815 0
39.90961 1.875311 1.471815 0
39.90961 1.925311 1.521815 0
39.85961 1.925311 1.621815 0
39.55961 2.325311 0.9718148 0
39.55961 2.325311 1.021815 0
39.60961 2.325311 0.9718148 0
39.65961 2.325311 0.8718147 0
39.70961 2.325311 0.8718147 0
39.65961 2.325311 0.9718148 0
39.70961 2.325311 0.9718148 0
39.55961 2.325311 1.121815 0
39.55961 2.325311 1.171815 0
39.65961 2.325311 1.121815 0
39.80961 1.975312 0.9218147 0
39.90961 1.975312 0.8718147 0
39.90961 1.975312 0.9218147 0
39.85961 1.975312 0.9718148 0
39.85961 1.975312 1.021815 0
39.85961 2.025311 1.021815 0
39.90961 1.975312 0.9718148 0
39.90961 1.975312 1.021815 0
39.90961 1.975312 1.121815 0
39.85961 1.975312 1.171815 0
39.85961 1.975312 1.221815 0
39.90961 1.975312 1.171815 0
39.90961 1.975312 1.221815 0
39.55961 2.325311 1.271815 0
39.55961 2.325311 1.421815 0
39.65961 2.325311 1.271815 0
39.65961 2.325311 1.421815 0
39.55961 2.325311 1.471815 0
39.90961 1.975312 1.321815 0
39.85961 1.975312 1.371815 0
39.90961 1.975312 1.421815 0
39.85961 1.975312 1.471815 0
39.85961 2.025311 1.471815 0
39.90961 1.975312 1.471815 0
39.85961 1.975312 1.571815 0
39.90961 1.975312 1.621815 0
39.80961 2.325311 1.271815 0
39.95961 1.875311 0.9718148 0
40.00961 1.925311 0.9718148 0
40.10961 1.925311 0.8718147 0
40.10961 1.925311 0.9718148 0
39.95961 1.875311 1.121815 0
40.00961 1.875311 1.121815 0
40.10961 1.925311 1.071815 0
40.10961 1.925311 1.171815 0
39.95961 1.925311 1.271815 0
40.00961 1.875311 1.271815 0
39.95961 1.925311 1.371815 0
39.95961 1.925311 1.421815 0
40.00961 1.875311 1.421815 0
39.95961 1.925311 1.621815 0
40.05961 1.975312 0.8718147 0
40.05961 1.975312 0.9718148 0
40.05961 1.975312 1.071815 0
40.05961 1.975312 1.221815 0
40.15961 1.975312 0.8718147 0
40.15961 1.975312 0.9718148 0
40.15961 1.975312 1.071815 0
40.15961 1.975312 1.221815 0
39.95961 1.975312 1.271815 0
39.60961 2.375312 0.1718147 0
39.55961 2.375312 0.4218147 0
39.55961 2.475312 0.2718147 0
39.55961 2.475312 0.4218147 0
39.80961 2.375312 0.1718147 0
39.80961 2.375312 0.3218147 0
39.55961 2.375312 0.4718147 0
39.55961 2.375312 0.5218147 0
39.60961 2.375312 0.5218147 0
39.55961 2.425312 0.5718147 0
39.60961 2.425312 0.5718147 0
39.55961 2.475312 0.6218147 0
39.55961 2.525311 0.5718147 0
39.65961 2.475312 0.5718147 0
39.70961 2.475312 0.5718147 0
39.55961 2.375312 0.6718147 0
39.55961 2.425312 0.7218148 0
39.60961 2.375312 0.6718147 0
39.60961 2.425312 0.7218148 0
39.60961 2.375312 0.7718147 0
39.70961 2.375312 0.6718147 0
39.70961 2.375312 0.7718147 0
39.70961 2.475312 0.7218148 0
39.55961 2.675312 0.6218147 0
39.55961 2.725312 0.5718147 0
39.55961 2.725312 0.6218147 0
39.55961 2.625312 0.6718147 0
39.55961 2.725312 0.6718147 0
39.55961 2.725312 0.7218148 0
39.55961 2.675312 0.7718147 0
39.80961 2.425312 0.5718147 0
39.90961 2.475312 0.5718147 0
39.75961 2.425312 0.7218148 0
39.80961 2.375312 0.6718147 0
39.90961 2.425312 0.7218148 0
39.60961 2.775311 0.1718147 0
39.70961 2.875312 0.4218147 0
39.75961 2.775311 0.1718147 0
39.85961 2.775311 0.1718147 0
39.90961 2.775311 0.1718147 0
39.55961 2.775311 0.6218147 0
39.55961 2.925312 0.4718147 0
39.55961 2.875312 0.6218147 0
39.55961 2.925312 0.6218147 0
39.55961 2.825311 0.6718147 0
39.55961 2.775311 0.7718147 0
39.55961 2.925312 0.6718147 0
39.55961 2.925312 0.7718147 0
40.05961 2.425312 0.2718147 0
40.05961 2.425312 0.4218147 0
40.10961 2.725312 0.1718147 0
39.95961 2.475312 0.5718147 0
40.05961 2.425312 0.5718147 0
40.05961 2.525311 0.5718147 0
40.00961 2.425312 0.7218148 0
40.05961 2.475312 0.7218148 0
40.00961 2.775311 0.1718147 0
40.10961 2.975312 0.2718147 0
40.10961 2.975312 0.4218147 0
40.10961 2.975312 0.6218147 0
40.10961 2.975312 0.7718147 0
39.60961 2.375312 0.9218147 0
39.55961 2.375312 0.9718148 0
39.60961 2.375312 1.021815 0
39.60961 2.425312 1.021815 0
39.55961 2.475312 0.8718147 0
39.55961 2.525311 0.8718147 0
39.60961 2.475312 0.8718147 0
39.55961 2.475312 1.021815 0
39.70961 2.375312 0.9218147 0
39.70961 2.425312 0.8718147 0
39.70961 2.375312 1.021815 0
39.70961 2.425312 1.021815 0
39.55961 2.375312 1.121815 0
39.55961 2.425312 1.171815 0
39.60961 2.375312 1.171815 0
39.60961 2.425312 1.171815 0
39.70961 2.375312 1.171815 0
39.70961 2.425312 1.171815 0
39.55961 2.725312 0.8718147 0
39.55961 2.725312 0.9218147 0
39.55961 2.675312 0.9718148 0
39.55961 2.675312 1.021815 0
39.55961 2.725312 1.121815 0
39.55961 2.725312 1.171815 0
39.80961 2.375312 0.9218147 0
39.80961 2.425312 0.8718147 0
39.80961 2.375312 1.021815 0
39.80961 2.425312 1.021815 0
39.90961 2.425312 0.8718147 0
39.90961 2.425312 1.021815 0
39.75961 2.425312 1.171815 0
39.80961 2.375312 1.171815 0
39.90961 2.425312 1.171815 0
39.55961 2.375312 1.271815 0
39.60961 2.375312 1.321815 0
39.60961 2.425312 1.321815 0
39.55961 2.375312 1.421815 0
39.55961 2.425312 1.371815 0
39.70961 2.375312 1.321815 0
39.70961 2.425312 1.321815 0
39.55961 2.425312 1.621815 0
39.60961 2.475312 1.521815 0
39.70961 2.475312 1.521815 0
39.55961 2.625312 1.371815 0
39.55961 2.675312 1.321815 0
39.55961 2.725312 1.321815 0
39.55961 2.675312 1.521815 0
39.55961 2.725312 1.521815 0
39.55961 2.725312 1.571815 0
39.80961 2.425312 1.321815 0
39.90961 2.425312 1.321815 0
39.80961 2.475312 1.471815 0
39.90961 2.425312 1.471815 0
39.55961 2.825311 0.9218147 0
39.55961 2.775311 0.9718148 0
39.55961 2.925312 0.9218147 0
39.55961 2.875312 0.9718148 0
39.55961 2.825311 1.121815 0
39.55961 2.925312 1.121815 0
39.55961 2.875312 1.171815 0
39.55961 2.775311 1.321815 0
39.55961 2.825311 1.371815 0
39.60961 2.825311 1.371815 0
39.55961 2.925312 1.321815 0
39.55961 2.925312 1.371815 0
39.55961 2.775311 1.521815 0
39.55961 2.825311 1.571815 0
39.55961 2.875312 1.521815 0
40.00961 2.425312 0.8718147 0
40.00961 2.425312 1.021815 0
40.05961 2.475312 0.8718147 0
40.05961 2.475312 1.021815 0
40.00961 2.425312 1.171815 0
40.05961 2.475312 1.171815 0
40.00961 2.425312 1.321815 0
40.05961 2.475312 1.321815 0
40.00961 2.425312 1.471815 0
40.05961 2.475312 1.471815 0
40.10961 2.975312 0.9218147 0
40.10961 2.975312 1.071815 0
40.10961 2.975312 1.221815 0
40.10961 2.975312 1.421815 0
40.35961 1.725312 0.1218147 0
40.45961 1.925311 0.1218147 0
40.65961 1.675311 0.07181472 0
40.55961 1.925311 0.1218147 0
40.70961 1.775311 0.1218147 0
40.65961 1.925311 0.1218147 0
40.40961 1.975312 0.07181472 0
40.40961 1.975312 0.1218147 0
40.40961 2.025311 0.07181472 0
40.40961 2.025311 0.1718147 0
40.35961 2.125312 0.1218147 0
40.50961 1.975312 0.07181472 0
40.50961 1.975312 0.1218147 0
40.45961 2.075311 0.07181472 0
40.45961 2.075311 0.1718147 0
40.40961 2.025311 0.3218147 0
40.40961 2.025311 0.4218147 0
40.45961 2.075311 0.3218147 0
40.45961 2.075311 0.4218147 0
40.40961 2.175312 0.1218147 0
40.40961 2.225312 0.1218147 0
40.50961 2.175312 0.1218147 0
40.50961 2.325311 0.1218147 0
40.60961 1.975312 0.07181472 0
40.60961 1.975312 0.1218147 0
40.55961 2.075311 0.07181472 0
40.65961 1.975312 0.07181472 0
40.70961 1.975312 0.07181472 0
40.70961 1.975312 0.1218147 0
40.65961 2.075311 0.07181472 0
40.70961 2.125312 0.1218147 0
40.60961 2.175312 0.1218147 0
40.40961 2.025311 0.5218147 0
40.45961 2.075311 0.5718147 0
40.35961 1.975312 0.6718147 0
40.40961 2.025311 0.6718147 0
40.35961 1.975312 0.7718147 0
40.45961 2.025311 0.7718147 0
40.45961 2.075311 0.6718147 0
40.75961 1.925311 0.1218147 0
40.85961 1.925311 0.1218147 0
41.05961 1.625311 0.07181472 0
41.05961 1.725312 0.1218147 0
40.95961 1.925311 0.1218147 0
41.05961 1.925311 0.07181472 0
41.05961 1.925311 0.1218147 0
40.75961 2.025311 0.07181472 0
40.80961 1.975312 0.07181472 0
40.80961 1.975312 0.1218147 0
40.80961 2.125312 0.1218147 0
40.85961 1.975312 0.1218147 0
40.85961 2.025311 0.07181472 0
40.90961 1.975312 0.07181472 0
40.90961 1.975312 0.1218147 0
40.85961 2.075311 0.1218147 0
40.90961 2.125312 0.1218147 0
40.80961 2.325311 0.1218147 0
40.95961 1.975312 0.1218147 0
40.95961 2.025311 0.07181472 0
41.00961 1.975312 0.07181472 0
41.00961 2.025311 0.1218147 0
41.00961 2.075311 0.1218147 0
41.05961 1.975312 0.1218147 0
41.10961 2.025311 0.07181472 0
41.10961 2.025311 0.1218147 0
41.05961 2.075311 0.1218147 0
40.35961 1.975312 0.9218147 0
40.40961 2.025311 1.021815 0
40.45961 2.025311 0.9218147 0
40.40961 2.025311 1.171815 0
40.45961 2.075311 1.071815 0
40.45961 2.075311 1.171815 0
40.35961 1.975312 1.321815 0
40.45961 2.025311 1.321815 0
40.40961 2.425312 0.1718147 0
40.50961 2.475312 0.1718147 0
40.35961 2.675312 0.1718147 0
40.40961 2.675312 0.1718147 0
40.50961 2.675312 0.1718147 0
40.55961 2.425312 0.1218147 0
40.60961 2.525311 0.1218147 0
40.55961 2.475312 0.1718147 0
40.60961 2.475312 0.1718147 0
40.70961 2.525311 0.1718147 0
40.60961 2.625312 0.1718147 0
40.70961 2.625312 0.1718147 0
40.70961 2.675312 0.1718147 0
40.65961 2.825311 0.1718147 0
40.60961 3.075311 0.1718147 0
40.65961 2.975312 0.1718147 0
40.75961 2.475312 0.1218147 0
40.90961 2.525311 0.1718147 0
40.75961 2.575311 0.1218147 0
40.80961 2.575311 0.1718147 0
40.90961 2.575311 0.1718147 0
41.00961 2.475312 0.1718147 0
41.05961 2.475312 0.1718147 0
41.00961 2.625312 0.1718147 0
41.10961 2.625312 0.1718147 0
40.80961 2.825311 0.1218147 0
40.85961 2.925312 0.1218147 0
40.90961 3.025311 0.1218147 0
41.00961 3.125312 0.1218147 0
39.75961 1.725312 1.971815 0
39.80961 1.875311 1.721815 0
39.80961 1.875311 1.821815 0
39.85961 1.925311 1.671815 0
39.90961 1.925311 1.721815 0
39.85961 1.875311 1.821815 0
39.85961 1.925311 1.771815 0
39.85961 1.925311 1.821815 0
39.90961 1.875311 1.771815 0
39.90961 1.925311 1.771815 0
39.90961 1.875311 1.921815 0
39.90961 1.925311 1.971815 0
39.80961 1.875311 2.121815 0
39.85961 1.925311 2.071815 0
39.85961 1.875311 2.171815 0
39.90961 1.875311 2.271815 0
39.85961 1.925311 2.421815 0
39.90961 1.875311 2.371815 0
39.85961 1.975312 1.721815 0
39.90961 1.975312 1.821815 0
39.85961 2.025311 1.921815 0
39.85961 1.975312 1.971815 0
39.85961 1.975312 2.221815 0
39.85961 2.025311 2.371815 0
39.75961 1.725312 2.471815 0
39.80961 1.875311 2.521815 0
39.85961 1.875311 2.521815 0
39.85961 1.925311 2.471815 0
39.90961 1.875311 2.821815 0
39.75961 1.725312 2.971815 0
39.80961 1.875311 2.971815 0
39.85961 1.925311 2.871815 0
39.85961 2.025311 2.821815 0
40.30961 3.925312 0.1718147 0
39.70961 4.475312 0.1218147 0
39.70961 4.575312 0.2218147 0
39.70961 4.625311 0.2218147 0
39.65961 4.675312 0.2218147 0
39.65961 4.725312 0.2218147 0
39.70961 4.675312 0.1718147 0
39.80961 4.525311 0.1718147 0
39.90961 4.475312 0.1218147 0
39.85961 4.525311 0.1718147 0
39.85961 4.525311 0.2218147 0
39.90961 4.525311 0.2218147 0
39.75961 4.575312 0.2218147 0
39.75961 4.625311 0.1718147 0
39.75961 4.625311 0.2218147 0
39.80961 4.575312 0.2218147 0
39.75961 4.675312 0.2218147 0
39.75961 4.725312 0.2218147 0
39.85961 4.575312 0.2218147 0
39.90961 4.575312 0.2218147 0
39.90961 4.575312 0.2718147 0
39.85961 4.725312 0.2718147 0
39.90961 4.675312 0.4218147 0
39.80961 4.675312 0.4718147 0
39.90961 4.675312 0.4718147 0
40.30961 4.025311 0.1718147 0
40.20961 4.175312 0.1718147 0
40.20961 4.275311 0.1718147 0
39.95961 4.525311 0.2218147 0
40.00961 4.475312 0.1718147 0
40.00961 4.525311 0.1718147 0
40.00961 4.525311 0.2218147 0
40.05961 4.475312 0.1718147 0
40.05961 4.525311 0.2218147 0
40.10961 4.525311 0.2218147 0
40.05961 4.525311 0.2718147 0
39.95961 4.575312 0.2218147 0
40.00961 4.575312 0.2718147 0
39.95961 4.675312 0.4218147 0
40.05961 4.625311 0.2718147 0
40.05961 4.625311 0.4218147 0
40.15961 4.425312 0.1218147 0
40.15961 4.425312 0.1718147 0
40.15961 4.475312 0.2218147 0
40.15961 4.525311 0.2218147 0
40.20961 4.475312 0.1718147 0
40.30961 4.425312 0.1718147 0
40.25961 4.475312 0.2218147 0
40.25961 4.525311 0.2218147 0
40.30961 4.475312 0.2218147 0
40.25961 4.475312 0.2718147 0
40.30961 4.475312 0.2718147 0
40.15961 4.575312 0.2718147 0
40.15961 4.625311 0.4218147 0
40.25961 4.575312 0.2718147 0
40.25961 4.625311 0.4218147 0
40.30961 4.575312 0.4218147 0
39.95961 4.675312 0.4718147 0
40.00961 4.675312 0.4718147 0
40.05961 4.625311 0.4718147 0
40.10961 4.625311 0.4718147 0
40.05961 4.675312 0.4718147 0
40.10961 4.675312 0.4718147 0
40.15961 4.625311 0.4718147 0
40.20961 4.625311 0.4718147 0
40.20961 4.625311 0.6218147 0
40.15961 4.675312 0.4718147 0
40.20961 4.675312 0.4718147 0
40.25961 4.625311 0.4718147 0
40.30961 4.575312 0.4718147 0
40.15961 4.625311 1.271815 0
40.55961 3.325311 0.1718147 0
40.40961 3.675312 0.1718147 0
40.45961 3.575311 0.1718147 0
40.35961 3.825311 0.1718147 0
41.05961 3.225312 0.1218147 0
40.35961 4.375311 0.1218147 0
40.40961 4.425312 0.2218147 0
40.35961 4.475312 0.1718147 0
40.35961 4.475312 0.2218147 0
40.45961 4.425312 0.1718147 0
40.50961 4.425312 0.1718147 0
40.45961 4.475312 0.2218147 0
40.35961 4.525311 0.2718147 0
40.40961 4.475312 0.2718147 0
40.45961 4.475312 0.2718147 0
40.50961 4.475312 0.2718147 0
40.35961 4.575312 0.4218147 0
40.40961 4.575312 0.4218147 0
40.35961 4.675312 0.2718147 0
40.45961 4.625311 0.2718147 0
40.45961 4.575312 0.4218147 0
40.50961 4.575312 0.4218147 0
40.55961 4.375311 0.1218147 0
40.55961 4.425312 0.1718147 0
40.55961 4.425312 0.2218147 0
40.60961 4.425312 0.1718147 0
40.60961 4.425312 0.2218147 0
40.55961 4.475312 0.2218147 0
40.65961 4.425312 0.2218147 0
40.70961 4.425312 0.2218147 0
40.60961 4.525311 0.4218147 0
40.65961 4.425312 0.2718147 0
40.70961 4.475312 0.2718147 0
40.65961 4.525311 0.4218147 0
40.70961 4.525311 0.4218147 0
40.55961 4.625311 0.2718147 0
40.55961 4.575312 0.4218147 0
40.65961 4.575312 0.2718147 0
40.35961 4.575312 0.4718147 0
40.35961 4.625311 0.4718147 0
40.35961 4.725312 0.6218147 0
40.45961 4.575312 0.4718147 0
40.50961 4.575312 0.5218147 0
40.45961 4.675312 0.5218147 0
40.45961 4.725312 0.4718147 0
40.55961 4.525311 0.5218147 0
40.60961 4.525311 0.4718147 0
40.65961 4.525311 0.4718147 0
40.70961 4.525311 0.4718147 0
40.55961 4.575312 0.4718147 0
40.60961 4.575312 0.4718147 0
40.60961 4.625311 0.6218147 0
40.55961 4.725312 0.4718147 0
40.65961 4.575312 0.5218147 0
40.65961 4.675312 0.4718147 0
40.70961 4.725312 0.6218147 0
40.75961 4.325312 0.1218147 0
40.90961 4.325312 0.1218147 0
41.05961 4.325312 0.1218147 0
41.10961 4.325312 0.1718147 0
41.10961 4.325312 0.2218147 0
40.75961 4.375311 0.1718147 0
40.75961 4.425312 0.2218147 0
40.80961 4.375311 0.2218147 0
40.85961 4.425312 0.2218147 0
40.90961 4.375311 0.1718147 0
40.90961 4.375311 0.2218147 0
40.75961 4.425312 0.2718147 0
40.80961 4.425312 0.2718147 0
40.75961 4.525311 0.4218147 0
40.85961 4.425312 0.2718147 0
40.90961 4.525311 0.2718147 0
40.85961 4.475312 0.4218147 0
40.85961 4.525311 0.4218147 0
40.75961 4.575312 0.2718147 0
40.80961 4.575312 0.2718147 0
40.95961 4.375311 0.2218147 0
40.95961 4.425312 0.2218147 0
41.00961 4.375311 0.1718147 0
41.00961 4.375311 0.2218147 0
41.05961 4.375311 0.1718147 0
41.05961 4.375311 0.2218147 0
41.10961 4.375311 0.2218147 0
40.95961 4.375311 0.2718147 0
40.95961 4.425312 0.2718147 0
40.95961 4.525311 0.2718147 0
40.95961 4.475312 0.4218147 0
41.05961 4.425312 0.2718147 0
41.10961 4.375311 0.2718147 0
41.05961 4.425312 0.4218147 0
41.05961 4.525311 0.2718147 0
40.75961 4.475312 0.4718147 0
40.75961 4.525311 0.5218147 0
40.80961 4.525311 0.4718147 0
40.90961 4.375311 0.5218147 0
40.85961 4.475312 0.4718147 0
40.85961 4.525311 0.4718147 0
40.90961 4.475312 0.4718147 0
40.90961 4.525311 0.5218147 0
40.75961 4.575312 0.4718147 0
40.75961 4.675312 0.4718147 0
40.85961 4.625311 0.4718147 0
40.85961 4.625311 0.5718147 0
40.95961 4.425312 0.4718147 0
41.00961 4.425312 0.4718147 0
40.95961 4.475312 0.4718147 0
40.95961 4.525311 0.4718147 0
41.00961 4.475312 0.4718147 0
40.95961 4.525311 0.5718147 0
41.05961 4.425312 0.4718147 0
41.10961 4.425312 0.4718147 0
41.05961 4.475312 0.4718147 0
41.05961 4.475312 0.5218147 0
40.95961 4.625311 0.4718147 0
41.00961 4.725312 0.6218147 0
41.05961 4.625311 0.4718147 0
41.05961 4.625311 0.6218147 0
40.45961 4.675312 1.271815 0
40.85961 4.675312 1.221815 0
40.30961 4.725312 1.771815 0
40.15961 4.625311 1.921815 0
40.00961 4.725312 2.371815 0
39.70961 4.625311 2.571815 0
39.75961 4.625311 3.221815 0
40.15961 4.625311 2.521815 0
40.20961 4.625311 3.171815 0
40.45961 4.725312 1.871815 0
40.45961 4.675312 2.521815 0
40.60961 4.625311 3.121815 0
41.00961 4.625311 3.071815 0
41.15961 1.925311 0.1218147 0
41.20961 1.875311 0.1218147 0
41.20961 1.925311 0.07181472 0
41.25961 1.925311 0.1218147 0
41.30961 1.925311 0.07181472 0
41.35961 1.725312 0.1218147 0
41.35961 1.925311 0.1218147 0
41.40961 1.925311 0.07181472 0
41.40961 1.925311 0.1218147 0
41.45961 1.925311 0.07181472 0
41.50961 1.925311 0.1218147 0
41.15961 2.025311 0.07181472 0
41.20961 2.025311 0.07181472 0
41.20961 2.025311 0.1218147 0
41.25961 1.975312 0.1218147 0
41.30961 2.025311 0.07181472 0
41.30961 2.075311 0.1218147 0
41.35961 2.025311 0.07181472 0
41.40961 2.075311 0.1218147 0
41.45961 1.975312 0.07181472 0
41.50961 2.125312 0.1218147 0
41.40961 2.325311 0.1718147 0
41.50961 2.225312 0.1718147 0
41.50961 2.275311 0.1718147 0
41.65961 1.725312 0.1218147 0
41.55961 1.875311 0.07181472 0
41.55961 1.925311 0.1218147 0
41.65961 1.875311 0.07181472 0
41.65961 1.925311 0.1218147 0
41.75961 1.875311 0.07181472 0
41.75961 1.925311 0.1218147 0
41.85961 1.875311 0.07181472 0
41.85961 1.925311 0.1218147 0
41.60961 1.975312 0.07181472 0
41.60961 2.125312 0.1218147 0
41.70961 1.975312 0.07181472 0
41.70961 2.125312 0.1218147 0
41.70961 2.125312 0.1718147 0
41.60961 2.175312 0.1718147 0
41.65961 2.175312 0.1218147 0
41.65961 2.175312 0.1718147 0
41.80961 1.975312 0.07181472 0
41.75961 2.125312 0.1218147 0
41.80961 2.125312 0.1218147 0
41.80961 2.075311 0.1718147 0
41.90961 1.975312 0.07181472 0
41.85961 2.025311 0.1718147 0
41.90961 2.025311 0.1718147 0
41.85961 2.125312 0.1218147 0
41.90961 2.125312 0.1218147 0
41.15961 2.425312 0.1718147 0
41.20961 2.425312 0.1718147 0
41.30961 2.375312 0.1718147 0
41.15961 2.625312 0.1718147 0
41.20961 2.675312 0.1718147 0
41.30961 2.675312 0.1718147 0
41.35961 2.375312 0.1718147 0
41.40961 2.675312 0.1718147 0
41.50961 2.675312 0.1718147 0
41.65961 2.675312 0.1718147 0
41.70961 2.675312 0.1718147 0
41.80961 2.675312 0.1718147 0
41.80961 2.725312 0.1718147 0
41.90961 2.675312 0.1718147 0
42.05961 1.575312 0.1218147 0
42.05961 1.675311 0.1718147 0
41.95961 1.875311 0.07181472 0
41.95961 1.925311 0.1218147 0
42.00961 1.925311 0.1218147 0
41.95961 1.925311 0.1718147 0
42.00961 1.925311 0.1718147 0
42.05961 1.875311 0.07181472 0
42.05961 1.925311 0.1218147 0
42.10961 1.925311 0.07181472 0
42.10961 1.925311 0.1218147 0
42.05961 1.875311 0.1718147 0
42.05961 1.925311 0.1718147 0
42.15961 1.725312 0.1718147 0
42.20961 1.725312 0.1718147 0
42.25961 1.625311 0.1218147 0
42.15961 1.825312 0.2218147 0
42.20961 1.775311 0.1718147 0
42.20961 1.825312 0.1718147 0
42.15961 1.875311 0.07181472 0
42.15961 1.875311 0.1218147 0
42.20961 1.875311 0.1718147 0
42.25961 1.825312 0.1218147 0
42.30961 1.825312 0.07181472 0
42.25961 1.825312 0.1718147 0
42.25961 1.825312 0.2218147 0
42.30961 1.775311 0.2218147 0
42.25961 1.875311 0.07181472 0
42.25961 1.925311 0.07181472 0
42.30961 1.875311 0.1218147 0
42.25961 1.875311 0.2218147 0
42.25961 1.925311 0.2218147 0
42.15961 1.825312 0.4218147 0
42.20961 1.825312 0.4218147 0
42.20961 1.875311 0.2718147 0
42.15961 1.925311 0.3718147 0
42.20961 1.875311 0.3718147 0
42.30961 1.825312 0.2718147 0
42.30961 1.875311 0.2718147 0
42.25961 1.875311 0.3718147 0
42.25961 1.875311 0.4218147 0
42.30961 1.875311 0.3718147 0
42.30961 1.875311 0.4218147 0
42.30961 1.925311 0.4218147 0
42.05961 1.575312 0.5718147 0
42.05961 1.675311 0.5718147 0
42.20961 1.725312 0.4718147 0
42.20961 1.725312 0.5218147 0
42.15961 1.675311 0.5718147 0
42.15961 1.725312 0.8218147 0
42.20961 1.775311 0.4718147 0
42.20961 1.825312 0.5718147 0
42.20961 1.825312 0.6218147 0
42.20961 1.875311 0.5218147 0
42.20961 1.875311 0.6218147 0
42.25961 1.825312 0.4718147 0
42.25961 1.825312 0.5218147 0
42.30961 1.825312 0.4718147 0
42.25961 1.825312 0.5718147 0
42.25961 1.875311 0.4718147 0
42.30961 1.875311 0.4718147 0
42.30961 1.875311 0.5218147 0
42.25961 1.875311 0.6218147 0
42.30961 1.875311 0.5718147 0
42.30961 1.875311 0.6218147 0
42.30961 1.925311 0.5718147 0
42.20961 1.775311 0.7218148 0
42.20961 1.825312 0.8218147 0
42.20961 1.875311 0.7718147 0
42.25961 1.825312 0.6718147 0
42.25961 1.825312 0.7218148 0
42.30961 1.775311 0.7218148 0
42.25961 1.825312 0.8218147 0
42.25961 1.875311 0.7218148 0
42.30961 1.875311 0.6718147 0
42.25961 1.875311 0.8218147 0
42.30961 1.875311 0.7718147 0
42.30961 1.875311 0.8218147 0
42.30961 1.925311 0.8218147 0
42.00961 1.975312 0.07181472 0
42.00961 2.125312 0.1218147 0
42.10961 2.125312 0.1218147 0
42.10961 2.075311 0.1718147 0
42.15961 1.975312 0.07181472 0
42.25961 2.125312 0.1218147 0
42.30961 2.125312 0.1218147 0
42.15961 2.175312 0.1718147 0
42.25961 2.275311 0.1718147 0
42.35961 1.775311 0.07181472 0
42.35961 1.925311 0.07181472 0
42.35961 1.925311 0.1218147 0
42.40961 1.875311 0.1218147 0
42.45961 1.825312 0.1218147 0
42.45961 1.875311 0.1218147 0
42.45961 1.925311 0.07181472 0
42.50961 1.925311 0.1218147 0
42.35961 1.775311 0.2718147 0
42.40961 1.825312 0.4218147 0
42.40961 1.875311 0.2718147 0
42.40961 1.925311 0.2718147 0
42.45961 1.825312 0.2718147 0
42.50961 1.775311 0.2718147 0
42.45961 1.825312 0.4218147 0
42.50961 1.775311 0.4218147 0
42.45961 1.925311 0.4218147 0
42.60961 1.625311 0.1218147 0
42.55961 1.925311 0.07181472 0
42.60961 1.875311 0.07181472 0
42.60961 1.875311 0.1218147 0
42.65961 1.925311 0.07181472 0
42.70961 1.875311 0.07181472 0
42.70961 1.875311 0.1218147 0
42.70961 1.875311 0.1718147 0
42.70961 1.925311 0.3218147 0
42.70961 1.875311 0.4218147 0
42.35961 1.825312 0.4718147 0
42.40961 1.875311 0.5718147 0
42.45961 1.775311 0.5718147 0
42.45961 1.825312 0.5718147 0
42.45961 1.925311 0.5718147 0
42.35961 1.775311 0.6718147 0
42.40961 1.825312 0.7218148 0
42.40961 1.925311 0.7218148 0
42.45961 1.825312 0.7218148 0
42.50961 1.775311 0.7218148 0
42.70961 1.875311 0.5218147 0
42.70961 1.925311 0.5218147 0
42.70961 1.875311 0.6218147 0
42.70961 1.925311 0.6218147 0
42.70961 1.925311 0.7718147 0
42.40961 2.075311 0.1218147 0
42.40961 2.125312 0.1218147 0
42.50961 2.075311 0.1218147 0
42.50961 2.125312 0.1218147 0
42.55961 1.975312 0.1218147 0
42.60961 2.125312 0.1218147 0
42.60961 2.075311 0.1718147 0
42.70961 2.025311 0.1218147 0
42.70961 2.075311 0.1218147 0
42.65961 2.125312 0.1718147 0
42.05961 1.575312 1.021815 0
42.05961 1.675311 0.9218147 0
42.20961 1.725312 0.9218147 0
42.15961 1.675311 1.021815 0
42.15961 1.725312 1.121815 0
42.20961 1.775311 0.9718148 0
42.20961 1.825312 0.9718148 0
42.20961 1.825312 1.021815 0
42.15961 1.925311 0.9218147 0
42.20961 1.875311 0.8718147 0
42.15961 1.925311 1.021815 0
42.20961 1.875311 1.021815 0
42.25961 1.825312 0.8718147 0
42.25961 1.825312 0.9218147 0
42.25961 1.825312 1.021815 0
42.30961 1.825312 1.021815 0
42.30961 1.875311 0.8718147 0
42.30961 1.875311 0.9218147 0
42.25961 1.875311 0.9718148 0
42.25961 1.875311 1.021815 0
42.30961 1.875311 0.9718148 0
42.30961 1.875311 1.021815 0
42.20961 1.825312 1.221815 0
42.20961 1.875311 1.121815 0
42.20961 1.875311 1.171815 0
42.25961 1.825312 1.121815 0
42.25961 1.825312 1.171815 0
42.25961 1.825312 1.221815 0
42.30961 1.825312 1.221815 0
42.30961 1.875311 1.071815 0
42.30961 1.875311 1.121815 0
42.30961 1.925311 1.121815 0
42.25961 1.875311 1.221815 0
42.30961 1.875311 1.171815 0
42.05961 1.675311 1.321815 0
42.05961 1.575312 1.471815 0
42.10961 1.675311 1.471815 0
42.20961 1.725312 1.321815 0
42.15961 1.725312 1.471815 0
42.15961 1.825312 1.421815 0
42.15961 1.925311 1.321815 0
42.20961 1.875311 1.271815 0
42.25961 1.825312 1.271815 0
42.25961 1.825312 1.321815 0
42.30961 1.825312 1.271815 0
42.25961 1.825312 1.421815 0
42.25961 1.875311 1.271815 0
42.30961 1.875311 1.271815 0
42.30961 1.925311 1.271815 0
42.25961 1.875311 1.421815 0
42.30961 1.875311 1.421815 0
42.20961 1.775311 1.471815 0
42.20961 1.825312 1.521815 0
42.15961 1.825312 1.621815 0
42.25961 1.825312 1.471815 0
42.30961 1.775311 1.521815 0
42.30961 1.825312 1.471815 0
42.25961 1.825312 1.621815 0
42.25961 1.875311 1.521815 0
42.30961 1.875311 1.471815 0
42.25961 1.925311 1.621815 0
42.35961 1.775311 0.8718147 0
42.40961 1.825312 1.021815 0
42.40961 1.875311 0.8718147 0
42.45961 1.825312 0.8718147 0
42.45961 1.825312 1.021815 0
42.45961 1.925311 0.8718147 0
42.45961 1.925311 1.021815 0
42.35961 1.825312 1.071815 0
42.40961 1.875311 1.171815 0
42.45961 1.825312 1.171815 0
42.45961 1.925311 1.171815 0
42.70961 1.925311 0.8718147 0
42.70961 1.875311 0.9718148 0
42.70961 1.875311 1.121815 0
42.70961 1.875311 1.221815 0
42.70961 1.925311 1.221815 0
42.35961 1.775311 1.271815 0
42.45961 1.825312 1.321815 0
42.50961 1.775311 1.321815 0
42.45961 1.875311 1.321815 0
42.45961 1.925311 1.321815 0
42.35961 1.775311 1.471815 0
42.40961 1.825312 1.471815 0
42.40961 1.925311 1.471815 0
42.45961 1.825312 1.471815 0
41.95961 2.725312 0.1718147 0
42.00961 2.675312 0.1718147 0
42.10961 2.675312 0.1718147 0
42.30961 2.375312 0.1718147 0
42.15961 2.675312 0.1718147 0
42.20961 2.675312 0.1718147 0
42.25961 2.675312 0.1718147 0
42.35961 2.475312 0.1718147 0
42.40961 2.575311 0.1718147 0
42.35961 2.675312 0.1718147 0
42.40961 2.675312 0.1718147 0
42.50961 2.625312 0.1718147 0
42.50961 2.675312 0.1718147 0
42.70961 2.475312 0.1218147 0
42.60961 2.625312 0.1718147 0
42.70961 2.575311 0.1218147 0
42.70961 2.575311 0.1718147 0
42.65961 2.725312 0.1218147 0
42.55961 2.775311 0.1718147 0
42.60961 2.925312 0.1718147 0
42.60961 2.975312 0.1218147 0
42.55961 3.075311 0.1218147 0
42.65961 3.025311 0.1718147 0
42.05961 1.675311 1.721815 0
42.05961 1.575312 1.971815 0
42.20961 1.725312 1.721815 0
42.15961 1.725312 1.821815 0
42.15961 1.675311 1.971815 0
42.20961 1.825312 1.721815 0
42.15961 1.825312 1.771815 0
42.15961 1.825312 1.821815 0
42.30961 1.825312 1.671815 0
42.25961 1.825312 1.771815 0
42.25961 1.825312 1.821815 0
42.30961 1.775311 1.821815 0
42.30961 1.875311 1.671815 0
42.25961 1.875311 1.771815 0
42.25961 1.925311 1.821815 0
42.20961 1.775311 2.021815 0
42.30961 1.825312 1.871815 0
42.25961 1.825312 1.971815 0
42.25961 1.825312 2.021815 0
42.10961 1.675311 2.121815 0
42.05961 1.575312 2.421815 0
42.15961 1.725312 2.121815 0
42.20961 1.725312 2.121815 0
42.15961 1.675311 2.421815 0
42.25961 1.825312 2.121815 0
42.30961 1.775311 2.071815 0
42.25961 1.825312 2.171815 0
42.25961 1.875311 2.071815 0
42.20961 1.775311 2.321815 0
42.25961 1.825312 2.321815 0
42.25961 1.825312 2.421815 0
42.30961 1.775311 2.371815 0
42.25961 1.875311 2.321815 0
42.35961 1.775311 1.671815 0
42.05961 1.675311 2.521815 0
42.15961 1.725312 2.471815 0
42.20961 1.725312 2.521815 0
42.15961 1.725312 2.821815 0
42.25961 1.825312 2.471815 0
42.25961 1.825312 2.521815 0
42.25961 1.825312 2.821815 0
42.10961 1.675311 2.871815 0
42.05961 1.675311 2.971815 0
42.20961 1.725312 2.921815 0
42.25961 1.825312 2.921815 0
41.15961 3.325311 0.1218147 0
41.20961 3.425312 0.1218147 0
41.30961 3.475312 0.1218147 0
41.35961 3.625312 0.1218147 0
41.40961 3.675312 0.1218147 0
41.50961 3.775311 0.1218147 0
41.60961 3.875312 0.1218147 0
41.15961 4.325312 0.1718147 0
41.20961 4.325312 0.2218147 0
41.25961 4.275311 0.1218147 0
41.25961 4.325312 0.1718147 0
41.25961 4.325312 0.2218147 0
41.30961 4.325312 0.2218147 0
41.35961 4.325312 0.1718147 0
41.35961 4.325312 0.2218147 0
41.40961 4.275311 0.1718147 0
41.45961 4.325312 0.1718147 0
41.45961 4.325312 0.2218147 0
41.45961 4.325312 0.2718147 0
41.50961 4.325312 0.2718147 0
41.15961 4.375311 0.2218147 0
41.20961 4.375311 0.2218147 0
41.25961 4.375311 0.2218147 0
41.20961 4.375311 0.2718147 0
41.15961 4.425312 0.4218147 0
41.15961 4.475312 0.2718147 0
41.25961 4.375311 0.2718147 0
41.25961 4.425312 0.4218147 0
41.25961 4.475312 0.2718147 0
41.30961 4.475312 0.2718147 0
41.20961 4.725312 0.2218147 0
41.30961 4.725312 0.2218147 0
41.35961 4.375311 0.2218147 0
41.40961 4.375311 0.2218147 0
41.45961 4.375311 0.2218147 0
41.50961 4.375311 0.2218147 0
41.35961 4.375311 0.2718147 0
41.40961 4.375311 0.2718147 0
41.35961 4.425312 0.4218147 0
41.40961 4.475312 0.2718147 0
41.45961 4.425312 0.4218147 0
41.40961 4.675312 0.2218147 0
41.50961 4.675312 0.2218147 0
41.15961 4.375311 0.5218147 0
41.15961 4.425312 0.4718147 0
41.20961 4.425312 0.4718147 0
41.15961 4.475312 0.4718147 0
41.20961 4.475312 0.5218147 0
41.15961 4.475312 0.5718147 0
41.25961 4.425312 0.4718147 0
41.30961 4.425312 0.4718147 0
41.15961 4.575312 0.4718147 0
41.25961 4.575312 0.4718147 0
41.30961 4.725312 0.6218147 0
41.35961 4.375311 0.4718147 0
41.35961 4.375311 0.5218147 0
41.35961 4.425312 0.4718147 0
41.40961 4.425312 0.4718147 0
41.35961 4.525311 0.4718147 0
41.40961 4.475312 0.5718147 0
41.45961 4.425312 0.4718147 0
41.45961 4.425312 0.5218147 0
41.50961 4.375311 0.4718147 0
41.50961 4.425312 0.4718147 0
41.50961 4.425312 0.5218147 0
41.45961 4.525311 0.4718147 0
41.45961 4.575312 0.6218147 0
41.45961 4.625311 0.6718147 0
41.65961 3.975312 0.1218147 0
41.70961 4.075312 0.1218147 0
41.55961 4.275311 0.1718147 0
41.55961 4.325312 0.1718147 0
41.55961 4.325312 0.2218147 0
41.60961 4.325312 0.1718147 0
41.60961 4.325312 0.2218147 0
41.65961 4.325312 0.2218147 0
41.70961 4.275311 0.1718147 0
41.70961 4.275311 0.2218147 0
41.70961 4.325312 0.1718147 0
41.70961 4.325312 0.2218147 0
41.60961 4.325312 0.2718147 0
41.70961 4.325312 0.2718147 0
41.80961 4.125311 0.1218147 0
41.75961 4.325312 0.2218147 0
41.80961 4.275311 0.1718147 0
41.80961 4.325312 0.1718147 0
41.90961 4.175312 0.1218147 0
41.85961 4.275311 0.1718147 0
41.85961 4.275311 0.2218147 0
41.85961 4.325312 0.2218147 0
41.90961 4.325312 0.1718147 0
41.80961 4.325312 0.2718147 0
41.90961 4.325312 0.2718147 0
41.55961 4.325312 0.5218147 0
41.75961 4.325312 0.5218147 0
41.75961 4.275311 0.5718147 0
41.60961 4.375311 0.2218147 0
41.55961 4.425312 0.2718147 0
41.55961 4.375311 0.4218147 0
41.55961 4.425312 0.4218147 0
41.65961 4.425312 0.2718147 0
41.70961 4.375311 0.2718147 0
41.65961 4.375311 0.4218147 0
41.65961 4.425312 0.4218147 0
41.60961 4.675312 0.2218147 0
41.65961 4.675312 0.2218147 0
41.80961 4.425312 0.2718147 0
41.75961 4.375311 0.4218147 0
41.85961 4.375311 0.2718147 0
41.85961 4.375311 0.4218147 0
41.75961 4.625311 0.2218147 0
41.90961 4.575312 0.2218147 0
41.55961 4.375311 0.4718147 0
41.55961 4.375311 0.5218147 0
41.60961 4.375311 0.4718147 0
41.60961 4.425312 0.4718147 0
41.55961 4.475312 0.4718147 0
41.60961 4.475312 0.5718147 0
41.65961 4.375311 0.4718147 0
41.70961 4.375311 0.4718147 0
41.70961 4.425312 0.5218147 0
41.65961 4.475312 0.4718147 0
41.70961 4.475312 0.4718147 0
41.60961 4.725312 0.5718147 0
41.70961 4.725312 0.4718147 0
41.75961 4.375311 0.4718147 0
41.80961 4.375311 0.4718147 0
41.85961 4.375311 0.4718147 0
41.85961 4.375311 0.5218147 0
41.90961 4.375311 0.4718147 0
41.90961 4.425312 0.5218147 0
41.85961 4.425312 0.5718147 0
41.85961 4.475312 0.4718147 0
41.80961 4.575312 0.6218147 0
41.80961 4.725312 0.4718147 0
41.90961 4.725312 0.4718147 0
41.90961 4.725312 0.5718147 0
41.90961 4.625311 0.6718147 0
41.35961 4.625311 1.221815 0
41.65961 4.675312 1.221815 0
41.75961 4.675312 1.321815 0
42.30961 3.825311 0.1218147 0
42.25961 3.925312 0.1218147 0
42.50961 3.225312 0.1218147 0
42.45961 3.325311 0.1218147 0
42.40961 3.575311 0.1218147 0
42.70961 3.925312 0.4718147 0
41.95961 4.325312 0.2218147 0
42.00961 4.275311 0.1718147 0
42.00961 4.275311 0.2218147 0
42.00961 4.325312 0.2218147 0
42.10961 4.225312 0.1218147 0
42.05961 4.275311 0.1718147 0
42.05961 4.325312 0.2218147 0
42.10961 4.275311 0.1718147 0
42.10961 4.275311 0.2218147 0
42.00961 4.325312 0.2718147 0
42.10961 4.275311 0.2718147 0
42.15961 4.175312 0.1718147 0
42.15961 4.225312 0.1718147 0
42.15961 4.275311 0.2218147 0
42.15961 4.325312 0.2218147 0
42.20961 4.275311 0.2218147 0
42.30961 4.175312 0.1218147 0
42.25961 4.225312 0.1718147 0
42.25961 4.275311 0.1718147 0
42.25961 4.275311 0.2218147 0
42.30961 4.275311 0.2218147 0
42.20961 4.275311 0.2718147 0
42.20961 4.325312 0.2718147 0
42.25961 4.325312 0.2718147 0
41.95961 4.325312 0.5218147 0
42.00961 4.275311 0.5718147 0
42.05961 4.325312 0.4718147 0
42.15961 4.325312 0.4718147 0
42.15961 4.325312 0.5218147 0
42.20961 4.325312 0.4718147 0
42.25961 4.325312 0.4718147 0
42.30961 4.325312 0.4718147 0
42.30961 4.325312 0.5218147 0
42.25961 4.275311 0.5718147 0
41.95961 4.375311 0.2718147 0
42.00961 4.375311 0.2718147 0
41.95961 4.375311 0.4218147 0
42.05961 4.375311 0.2718147 0
42.10961 4.375311 0.2718147 0
42.05961 4.375311 0.4218147 0
42.00961 4.575312 0.2218147 0
42.10961 4.575312 0.2218147 0
42.15961 4.375311 0.2718147 0
42.15961 4.375311 0.4218147 0
42.30961 4.375311 0.2718147 0
42.15961 4.575312 0.2718147 0
41.95961 4.375311 0.4718147 0
41.95961 4.375311 0.5218147 0
41.95961 4.425312 0.4718147 0
42.00961 4.375311 0.4718147 0
42.00961 4.425312 0.4718147 0
42.05961 4.375311 0.4718147 0
42.10961 4.375311 0.4718147 0
42.10961 4.375311 0.5218147 0
42.10961 4.425312 0.5718147 0
42.10961 4.525311 0.8218147 0
41.95961 4.675312 0.4718147 0
42.10961 4.675312 0.4718147 0
42.15961 4.375311 0.4718147 0
42.15961 4.425312 0.4718147 0
42.25961 4.375311 0.5218147 0
42.25961 4.425312 0.4718147 0
42.30961 4.375311 0.4718147 0
42.20961 4.575312 0.6218147 0
42.20961 4.725312 0.5718147 0
42.15961 4.575312 0.8218147 0
42.30961 4.575312 0.8218147 0
42.35961 4.225312 0.2218147 0
42.35961 4.275311 0.1718147 0
42.40961 4.275311 0.2218147 0
42.45961 4.175312 0.1218147 0
42.45961 4.225312 0.1718147 0
42.45961 4.225312 0.2218147 0
42.50961 4.225312 0.1718147 0
42.45961 4.275311 0.2218147 0
42.50961 4.275311 0.2218147 0
42.35961 4.275311 0.2718147 0
42.40961 4.275311 0.2718147 0
42.45961 4.275311 0.2718147 0
42.45961 4.325312 0.2718147 0
42.50961 4.275311 0.2718147 0
42.60961 4.175312 0.1218147 0
42.55961 4.225312 0.2218147 0
42.55961 4.275311 0.2218147 0
42.60961 4.275311 0.2218147 0
42.60961 4.325312 0.2218147 0
42.65961 4.225312 0.1718147 0
42.65961 4.225312 0.2218147 0
42.70961 4.225312 0.1718147 0
42.70961 4.225312 0.2218147 0
42.70961 4.275311 0.2218147 0
42.60961 4.225312 0.2718147 0
42.55961 4.275311 0.2718147 0
42.55961 4.325312 0.2718147 0
42.60961 4.325312 0.2718147 0
42.55961 4.325312 0.4218147 0
42.65961 4.275311 0.2718147 0
42.70961 4.275311 0.2718147 0
42.65961 4.325312 0.4218147 0
42.70961 4.325312 0.4218147 0
42.35961 4.325312 0.4718147 0
42.40961 4.325312 0.4718147 0
42.45961 4.325312 0.4718147 0
