# .PCD v0.7 - Point Cloud Data file format
VERSION 0.7
FIELDS x y z intensity
SIZE 4 4 4 4
TYPE F F F F
COUNT 1 1 1 1
WIDTH 1613
HEIGHT 1
VIEWPOINT 0 0 0 1 0 0 0
POINTS 1613
DATA ascii
143.3596 3.225312 4.721815 0
143.4096 3.375312 4.521815 0
143.4096 3.475312 4.521815 0
143.4596 3.425312 4.771815 0
143.1596 3.825311 4.071815 0
143.3096 3.875312 4.071815 0
143.3096 3.575311 4.621815 0
143.3096 3.675312 4.521815 0
143.2096 3.775311 4.571815 0
143.1596 3.875312 4.471815 0
143.2096 3.875312 4.471815 0
143.3096 3.775311 4.471815 0
143.4096 3.575311 4.521815 0
143.3596 3.675312 4.521815 0
143.5096 4.525311 4.021815 0
143.1096 3.975312 4.121815 0
143.2596 4.025311 4.121815 0
143.1596 3.975312 4.421815 0
143.4096 4.125311 4.121815 0
143.4596 3.975312 4.071815 0
143.5096 4.225312 4.121815 0
142.3096 3.325311 5.271815 0
142.5096 3.375312 5.271815 0
142.7096 3.425312 5.271815 0
142.9596 3.225312 5.071815 0
142.9596 3.325311 5.121815 0
143.0096 3.275311 5.121815 0
142.9096 3.475312 5.271815 0
143.1096 3.375312 5.271815 0
143.0096 3.775311 5.221815 0
143.2096 3.375312 5.121815 0
143.2096 3.475312 5.171815 0
143.3096 3.475312 5.171815 0
143.3096 3.775311 5.171815 0
143.3096 3.875312 5.171815 0
143.4096 3.625312 5.221815 0
143.4596 3.575311 5.171815 0
143.4596 3.675312 5.221815 0
143.4096 3.875312 5.221815 0
143.2596 3.775311 5.271815 0
143.4096 3.575311 5.321815 0
143.1096 4.075312 5.171815 0
143.3096 4.075312 5.221815 0
143.2596 4.275311 5.221815 0
143.3096 4.275311 5.171815 0
143.3096 4.325312 5.171815 0
143.3596 3.975312 5.221815 0
143.3596 4.025311 5.171815 0
143.4096 3.975312 5.171815 0
143.5096 4.075312 5.171815 0
143.3596 4.175312 5.171815 0
143.2596 3.975312 5.321815 0
143.3096 3.975312 5.271815 0
143.2096 4.175312 5.271815 0
143.2596 4.225312 5.271815 0
143.2096 4.425312 5.221815 0
143.8596 1.675311 3.771815 0
143.9096 1.925311 3.971815 0
144.1096 1.775311 3.371815 0
143.9596 1.775311 3.521815 0
144.1596 1.825312 3.371815 0
144.2096 1.775311 3.371815 0
144.1596 1.925311 3.371815 0
144.2596 1.875311 3.321815 0
144.3096 1.875311 3.321815 0
144.0096 1.825312 3.721815 0
143.9596 1.775311 3.821815 0
144.0096 1.875311 3.821815 0
143.9596 1.875311 3.971815 0
144.0596 2.025311 3.521815 0
144.2096 1.975312 3.321815 0
144.3096 1.975312 3.371815 0
144.2596 2.125312 3.321815 0
144.2596 2.075311 3.371815 0
144.3096 1.975312 3.471815 0
144.3096 2.225312 3.321815 0
144.1596 2.225312 3.471815 0
144.1096 1.975312 3.721815 0
144.1096 1.975312 3.821815 0
143.9596 2.075311 4.021815 0
144.0596 2.075311 3.971815 0
144.1096 2.275311 4.021815 0
144.1596 2.125312 3.671815 0
144.2096 2.125312 3.821815 0
144.2096 2.275311 4.021815 0
144.2096 2.325311 4.021815 0
144.0096 1.975312 4.071815 0
144.1596 2.175312 4.121815 0
143.6096 3.075311 3.871815 0
144.2096 2.425312 3.421815 0
144.1596 2.475312 3.621815 0
144.3096 2.625312 3.421815 0
144.2596 2.625312 3.621815 0
143.9596 2.475312 4.021815 0
144.0596 2.525311 3.971815 0
144.0096 2.675312 4.021815 0
144.1096 2.725312 3.971815 0
144.1596 2.425312 3.721815 0
144.2096 2.575311 3.721815 0
144.2596 2.725312 3.721815 0
144.3096 2.775311 3.571815 0
144.0596 2.925312 3.671815 0
144.3096 2.875312 3.671815 0
144.1596 2.925312 3.971815 0
144.1596 2.925312 4.021815 0
144.0096 2.375312 4.071815 0
144.0596 2.625312 4.071815 0
144.1096 2.825311 4.121815 0
144.3596 2.075311 3.321815 0
144.3596 2.175312 3.371815 0
144.3596 2.325311 3.271815 0
144.4096 2.275311 3.371815 0
144.4596 2.325311 3.371815 0
144.4096 2.175312 3.471815 0
144.3596 2.375312 3.321815 0
144.4096 2.475312 3.271815 0
144.4096 2.525311 3.271815 0
144.4596 2.375312 3.371815 0
144.5096 2.475312 3.371815 0
144.5096 2.525311 3.371815 0
144.4596 2.375312 3.471815 0
144.4596 2.575311 3.271815 0
144.5096 2.575311 3.421815 0
144.4596 2.675312 3.271815 0
144.5596 2.675312 3.371815 0
144.6096 2.725312 3.371815 0
144.5596 2.625312 3.471815 0
144.4096 2.875312 3.371815 0
144.5096 2.825311 3.271815 0
144.4096 2.925312 3.571815 0
144.4596 3.075311 3.371815 0
144.6596 2.875312 3.371815 0
144.6596 2.925312 3.371815 0
144.6596 2.825311 3.521815 0
144.7096 3.075311 3.371815 0
144.3596 2.975312 3.671815 0
144.4596 3.075311 3.671815 0
144.8596 3.075311 3.271815 0
143.6096 3.275311 3.771815 0
143.6596 3.175312 3.871815 0
143.7096 3.175312 3.921815 0
143.5596 3.425312 3.871815 0
143.5596 3.475312 3.871815 0
143.7096 3.475312 3.871815 0
143.8096 3.225312 4.021815 0
143.9096 3.325311 3.921815 0
143.9096 3.325311 3.971815 0
143.7596 3.375312 3.771815 0
143.9096 3.425312 3.771815 0
143.5596 3.625312 3.871815 0
143.6096 3.575311 3.871815 0
143.6096 3.575311 4.021815 0
143.6596 3.675312 3.921815 0
143.7096 3.725312 3.921815 0
143.6096 3.875312 3.971815 0
143.8096 3.575311 3.871815 0
143.8096 3.725312 3.921815 0
143.7596 3.775311 3.921815 0
143.8096 3.775311 3.921815 0
143.7596 3.825311 4.021815 0
143.9096 3.925312 3.971815 0
144.1096 3.375312 3.621815 0
144.3096 3.275311 3.621815 0
144.0596 3.525311 3.771815 0
143.9596 3.625312 3.871815 0
144.0596 3.725312 3.871815 0
143.9596 3.925312 3.921815 0
144.0096 3.875312 3.921815 0
144.2096 3.575311 3.771815 0
144.2596 3.775311 3.771815 0
144.1596 3.775311 3.871815 0
143.5596 3.325311 4.671815 0
143.6596 3.525311 4.771815 0
143.5596 3.925312 4.571815 0
143.8096 4.025311 4.021815 0
143.8096 4.125311 3.921815 0
143.8096 4.075312 4.021815 0
143.9096 3.975312 3.971815 0
143.7596 4.175312 3.921815 0
143.8596 4.725312 3.971815 0
143.9096 4.675312 3.971815 0
143.9596 4.225312 4.021815 0
144.1096 4.325312 3.971815 0
144.2096 3.975312 3.821815 0
144.1596 4.275311 3.771815 0
144.2596 4.175312 3.671815 0
144.2096 4.525311 3.571815 0
144.0096 4.425312 4.021815 0
143.9596 4.525311 3.971815 0
144.0596 4.375311 4.021815 0
144.0596 4.525311 3.971815 0
144.0596 4.575312 3.971815 0
144.1596 4.525311 3.721815 0
144.1596 4.725312 3.671815 0
143.6096 4.025311 4.071815 0
143.7596 4.125311 4.071815 0
143.6096 4.075312 4.621815 0
143.7596 4.025311 4.521815 0
143.8096 4.125311 4.621815 0
143.8596 4.125311 4.621815 0
143.8596 4.175312 4.621815 0
143.9096 4.225312 4.621815 0
143.8596 4.325312 4.471815 0
143.9096 4.325312 4.621815 0
143.8096 4.225312 4.771815 0
143.8096 4.275311 4.671815 0
143.8596 4.325312 4.671815 0
143.8096 4.625311 4.071815 0
143.6596 4.375311 4.571815 0
143.9096 4.375311 4.621815 0
143.9096 4.675312 4.671815 0
144.0596 4.275311 4.121815 0
144.1596 4.325312 4.171815 0
144.3096 4.325312 4.171815 0
144.1096 4.125311 4.571815 0
144.0596 3.975312 4.771815 0
144.0596 4.025311 4.771815 0
144.1096 4.275311 4.621815 0
143.9596 4.425312 4.071815 0
144.0096 4.525311 4.621815 0
143.9596 4.425312 4.721815 0
143.9596 4.525311 4.671815 0
143.9596 4.475312 4.771815 0
144.0096 4.575312 4.621815 0
144.3596 3.225312 3.521815 0
144.4096 3.375312 3.571815 0
144.4096 3.525311 3.621815 0
144.4596 3.375312 3.471815 0
144.5596 3.275311 3.321815 0
144.6596 3.375312 3.321815 0
144.6096 3.525311 3.571815 0
144.4096 3.575311 3.571815 0
144.4596 3.575311 3.471815 0
144.6596 3.675312 3.571815 0
144.6096 3.925312 3.371815 0
144.6596 3.825311 3.421815 0
144.6096 3.875312 3.521815 0
144.4596 3.775311 3.971815 0
144.7596 3.175312 3.421815 0
144.7596 3.275311 3.371815 0
144.9096 3.175312 3.271815 0
144.7596 3.375312 3.421815 0
144.8096 3.525311 3.321815 0
144.7596 3.475312 3.371815 0
144.7596 3.475312 3.521815 0
144.7596 3.725312 3.371815 0
144.9596 3.575311 3.321815 0
144.6096 4.075312 3.521815 0
144.7096 4.325312 3.371815 0
144.6096 4.275311 3.471815 0
144.5596 4.475312 3.421815 0
144.7096 4.475312 3.371815 0
144.7096 4.575312 3.371815 0
144.6596 4.725312 3.371815 0
144.8096 4.125311 3.371815 0
144.7596 4.275311 3.371815 0
144.7596 4.425312 3.821815 0
144.7596 4.675312 3.771815 0
144.3596 4.575312 4.121815 0
143.7096 4.175312 5.171815 0
143.7096 4.425312 5.421815 0
143.7096 4.525311 5.371815 0
143.7096 4.625311 5.421815 0
143.8096 4.375311 5.271815 0
143.7596 4.525311 5.321815 0
143.8596 4.525311 5.271815 0
143.8096 4.575312 5.271815 0
143.7596 4.725312 5.371815 0
143.8596 4.725312 5.321815 0
143.6596 5.375311 3.021815 0
143.6596 5.475312 3.071815 0
143.8096 5.425312 3.021815 0
143.8596 5.375311 3.021815 0
143.8096 5.475312 3.071815 0
144.1096 5.275311 2.971815 0
143.9596 5.425312 3.021815 0
144.0596 5.375311 3.021815 0
144.0096 5.475312 3.121815 0
144.1096 5.425312 3.071815 0
144.3096 5.275311 2.971815 0
144.2596 5.325312 3.071815 0
144.1596 5.475312 3.171815 0
144.3096 5.425312 3.071815 0
144.2596 5.525311 3.221815 0
144.3096 5.475312 3.171815 0
143.6596 5.675312 3.171815 0
143.8596 5.575312 3.221815 0
144.0596 5.575312 3.221815 0
144.5596 5.325312 1.921815 0
144.6096 5.525311 1.921815 0
144.6596 5.425312 1.921815 0
144.7096 5.375311 1.921815 0
144.9596 4.875311 1.871815 0
145.0596 4.775311 1.871815 0
145.0096 5.025311 1.921815 0
145.0096 4.975312 2.021815 0
144.9596 5.125311 1.921815 0
145.0596 4.975312 1.971815 0
144.7596 5.175312 1.921815 0
144.7596 5.325312 1.921815 0
144.8596 5.225312 1.921815 0
144.9096 5.175312 1.921815 0
144.8096 5.525311 1.971815 0
144.9096 5.425312 2.021815 0
144.8596 5.525311 2.021815 0
145.0596 5.275311 2.021815 0
145.0096 5.375311 2.021815 0
144.8096 5.475312 2.121815 0
144.8096 5.525311 2.121815 0
144.8596 5.425312 2.121815 0
144.9096 5.375311 2.121815 0
144.8596 5.525311 2.121815 0
144.9096 5.475312 2.271815 0
144.9596 5.325312 2.121815 0
145.0096 5.275311 2.171815 0
145.1096 5.175312 2.171815 0
145.1096 5.225312 2.171815 0
145.0596 5.425312 2.171815 0
145.1096 5.375311 2.171815 0
145.0096 5.475312 2.271815 0
144.5096 4.975312 2.771815 0
144.7096 5.025311 2.821815 0
144.5596 5.125311 2.871815 0
144.7096 5.075312 2.871815 0
144.7096 5.125311 2.921815 0
144.4596 5.275311 2.971815 0
144.5096 5.325312 3.071815 0
144.4596 5.425312 3.121815 0
144.5096 5.525311 3.221815 0
144.6596 5.225312 3.021815 0
144.7096 5.325312 3.071815 0
144.6596 5.425312 3.121815 0
144.6596 5.525311 3.221815 0
144.7096 5.525311 3.221815 0
144.8096 4.975312 2.771815 0
144.8596 5.075312 2.821815 0
144.9596 4.975312 2.771815 0
145.0096 4.975312 2.771815 0
145.0096 4.975312 2.821815 0
145.0096 5.125311 2.821815 0
145.1096 4.975312 2.821815 0
145.0596 5.125311 2.771815 0
144.8596 5.075312 2.921815 0
144.9096 5.125311 2.921815 0
145.0096 5.125311 2.921815 0
144.8596 5.225312 3.021815 0
144.9096 5.275311 3.121815 0
144.8096 5.425312 3.171815 0
145.0096 5.225312 3.021815 0
145.0596 5.175312 2.971815 0
144.9596 5.325312 3.221815 0
145.1096 5.275311 3.121815 0
145.0096 5.425312 3.171815 0
144.5596 5.575312 1.921815 0
144.6096 5.575312 2.021815 0
144.6096 5.725312 2.021815 0
144.6596 5.725312 1.921815 0
144.6596 5.825312 2.021815 0
144.7096 5.775311 1.971815 0
144.7096 5.975312 1.971815 0
144.7596 5.625311 2.021815 0
144.7596 5.775311 2.021815 0
144.7596 5.825312 2.021815 0
144.7596 5.625311 2.121815 0
144.8096 5.575312 2.071815 0
144.8096 5.625311 2.121815 0
144.8096 5.725312 2.121815 0
144.9096 5.625311 2.121815 0
144.8596 5.725312 2.121815 0
144.9096 5.675312 2.271815 0
144.8096 5.825312 2.121815 0
144.8596 5.825312 2.121815 0
144.9096 5.875311 2.121815 0
144.9096 5.875311 2.221815 0
144.9596 5.675312 2.071815 0
144.9596 5.725312 2.171815 0
145.0096 5.575312 2.271815 0
145.0596 5.725312 2.271815 0
145.0096 5.825312 2.171815 0
145.0596 5.925312 2.171815 0
145.0596 5.825312 2.271815 0
145.0596 5.925312 2.271815 0
144.7596 5.975312 2.021815 0
144.8096 6.025311 2.021815 0
144.8096 5.975312 2.121815 0
144.9096 5.975312 2.121815 0
144.9096 6.075312 2.121815 0
144.9096 6.075312 2.221815 0
144.9096 6.225312 2.171815 0
145.0596 6.025311 2.171815 0
145.0596 5.975312 2.271815 0
145.0596 6.075312 2.271815 0
145.1096 6.275311 2.221815 0
145.1096 6.175312 2.271815 0
143.5596 4.825312 3.971815 0
143.7096 4.825312 4.021815 0
143.7096 4.925312 3.971815 0
143.5596 5.025311 4.021815 0
143.6096 5.125311 3.921815 0
143.7096 5.125311 3.921815 0
143.8096 4.925312 3.971815 0
143.8596 4.925312 3.921815 0
143.8096 4.975312 3.921815 0
143.7096 5.225312 3.871815 0
143.9596 4.775311 3.921815 0
144.0596 5.525311 3.771815 0
144.2596 5.525311 3.771815 0
144.1096 4.825312 4.721815 0
144.1596 4.775311 4.671815 0
144.3096 4.975312 4.771815 0
144.3096 5.225312 4.771815 0
143.8596 6.175312 3.321815 0
144.1096 5.825312 3.321815 0
144.0596 5.875311 3.271815 0
144.3096 5.725312 3.321815 0
144.1096 5.625311 3.871815 0
144.1096 5.725312 3.971815 0
144.2596 5.625311 3.871815 0
144.3096 5.725312 3.971815 0
144.0596 6.075312 3.371815 0
144.2596 6.025311 3.421815 0
144.3096 6.225312 3.521815 0
143.7096 5.725312 4.171815 0
143.6096 5.775311 4.221815 0
143.7596 5.775311 4.221815 0
143.9096 5.775311 4.171815 0
143.9096 5.825312 4.221815 0
144.1096 5.775311 4.171815 0
144.0596 5.875311 4.271815 0
144.3096 5.775311 4.221815 0
144.2596 5.875311 4.271815 0
144.6096 4.775311 3.371815 0
144.4096 5.525311 3.271815 0
144.6096 5.525311 3.271815 0
144.7596 4.875311 3.721815 0
144.8096 5.525311 3.271815 0
144.8596 5.525311 3.271815 0
145.0096 5.525311 3.321815 0
144.3596 4.925312 4.721815 0
144.3596 4.975312 4.721815 0
144.3596 5.125311 4.721815 0
144.3596 5.175312 4.721815 0
144.3596 5.725312 3.371815 0
144.5096 5.725312 3.321815 0
144.5096 5.725312 3.421815 0
144.5096 5.925312 3.471815 0
144.7096 5.725312 3.421815 0
144.4096 5.575312 3.821815 0
144.4096 5.625311 3.921815 0
144.5096 5.775311 4.021815 0
144.6096 5.575312 3.821815 0
144.5596 5.625311 3.921815 0
144.7096 5.775311 4.021815 0
144.5596 6.075312 3.571815 0
144.7596 5.675312 3.321815 0
144.8596 5.575312 3.271815 0
144.8596 5.725312 3.471815 0
144.7596 5.875311 3.521815 0
144.8096 5.925312 3.621815 0
144.9096 5.875311 3.571815 0
145.0096 5.575312 3.271815 0
144.9596 5.675312 3.371815 0
145.0596 5.725312 3.471815 0
145.1096 5.875311 3.571815 0
144.7596 5.675312 3.921815 0
144.9096 5.675312 3.971815 0
144.9596 5.775311 4.021815 0
144.9596 6.025311 3.621815 0
145.0596 6.225312 3.571815 0
144.4596 5.825312 4.221815 0
144.4096 5.925312 4.271815 0
144.6596 5.825312 4.221815 0
144.5596 5.925312 4.321815 0
144.7096 5.975312 4.321815 0
144.8596 5.875311 4.221815 0
145.0096 5.925312 4.271815 0
144.9096 6.025311 4.321815 0
145.0596 6.075312 4.321815 0
143.6596 4.875311 4.971815 0
143.9096 4.775311 5.021815 0
143.7096 4.825312 5.421815 0
143.7096 5.025311 5.471815 0
143.8096 4.775311 5.271815 0
143.7596 4.925312 5.321815 0
143.7596 4.925312 5.371815 0
143.8596 4.925312 5.321815 0
143.7596 5.125311 5.321815 0
143.8096 5.125311 5.271815 0
143.7596 5.125311 5.371815 0
143.8596 4.975312 5.271815 0
143.8096 5.175312 5.271815 0
143.8096 5.325312 5.321815 0
143.8596 5.325312 5.321815 0
143.8596 5.375311 5.271815 0
143.9596 5.125311 4.971815 0
144.2096 6.925312 3.571815 0
144.3096 6.375311 4.521815 0
144.4096 6.575312 3.621815 0
144.6596 6.425312 3.671815 0
144.4096 6.825312 3.621815 0
144.6596 6.775311 3.671815 0
144.7096 6.875311 3.671815 0
144.7596 6.575312 3.621815 0
144.8596 6.675312 3.621815 0
145.0596 6.525311 3.871815 0
144.9596 6.825312 3.621815 0
145.0596 7.025311 3.571815 0
144.8096 7.025311 3.671815 0
144.8596 7.125311 3.671815 0
144.5096 6.425312 4.521815 0
144.3596 6.525311 4.671815 0
144.7096 6.425312 4.571815 0
144.5596 6.525311 4.671815 0
144.7096 6.575312 4.671815 0
144.8596 6.725312 4.071815 0
145.0596 6.725312 4.071815 0
144.9096 6.475312 4.571815 0
144.9096 6.625311 4.671815 0
145.0596 6.525311 4.571815 0
145.0596 6.625311 4.721815 0
144.8096 6.825312 4.121815 0
144.9596 6.825312 4.121815 0
141.3596 8.325312 0.1218147 0
141.4596 8.375312 0.1218147 0
141.5596 8.425312 0.1218147 0
141.7096 8.475311 0.1218147 0
141.8096 8.525311 0.1218147 0
141.9096 8.525311 0.1218147 0
141.3596 10.27531 0.1218147 0
141.4596 10.32531 0.1218147 0
141.6096 10.32531 0.1218147 0
141.7096 10.37531 0.1218147 0
141.8096 10.42531 0.1218147 0
141.2596 11.87531 0.1218147 0
141.3596 11.87531 0.1218147 0
141.5096 11.87531 0.1218147 0
141.6096 11.92531 0.1218147 0
141.7596 11.92531 0.1218147 0
141.9096 11.97531 0.1218147 0
142.0096 8.575312 0.1218147 0
141.9596 10.47531 0.1218147 0
142.0596 10.47531 0.1218147 0
142.0096 11.97531 0.1218147 0
142.1596 12.02531 0.1218147 0
142.2596 12.07531 0.1218147 0
141.3096 14.42531 0.1718147 0
141.4596 14.47531 0.1718147 0
141.5596 14.52531 0.1718147 0
141.7096 14.52531 0.1718147 0
141.8096 14.57531 0.1718147 0
141.9096 14.62531 0.1718147 0
142.0596 14.62531 0.1718147 0
142.1596 14.67531 0.1718147 0
142.2596 14.77531 0.1718147 0
142.4096 14.77531 0.1718147 0
155.1596 -15.52469 4.021815 0
155.4596 -15.27469 3.921815 0
155.4596 -15.67469 4.571815 0
155.3096 -15.52469 4.421815 0
155.4596 -15.57469 4.471815 0
155.3096 -15.12469 3.921815 0
155.4596 -14.72469 3.871815 0
155.7096 -15.67469 3.871815 0
155.8596 -15.67469 3.921815 0
155.6096 -15.47469 3.921815 0
155.7096 -15.62469 3.921815 0
155.7596 -15.52469 3.821815 0
155.8096 -15.57469 3.921815 0
155.8096 -15.27469 3.921815 0
155.9596 -15.57469 3.871815 0
156.0096 -15.47469 3.921815 0
155.9596 -15.42469 3.921815 0
155.9596 -15.37469 3.921815 0
156.0096 -15.37469 3.871815 0
156.0596 -15.32469 3.921815 0
156.1096 -15.27469 3.871815 0
155.7096 -15.67469 4.571815 0
155.7096 -15.42469 4.671815 0
155.7596 -15.47469 4.571815 0
155.9096 -15.52469 4.521815 0
155.7596 -15.62469 4.671815 0
155.9096 -15.32469 4.521815 0
155.8596 -15.27469 4.621815 0
156.1596 -15.67469 4.571815 0
156.2596 -15.37469 4.621815 0
156.3096 -15.32469 4.671815 0
156.3096 -15.27469 4.721815 0
155.7096 -15.07469 3.871815 0
155.5596 -14.87469 3.871815 0
155.8596 -14.92469 3.871815 0
155.6096 -14.52469 3.821815 0
155.7596 -14.72469 3.821815 0
156.0096 -15.17469 3.921815 0
156.0096 -15.07469 3.871815 0
156.2596 -15.17469 3.921815 0
156.2596 -15.07469 3.971815 0
156.3096 -15.12469 3.971815 0
156.2096 -14.97469 3.921815 0
156.2596 -14.92469 3.971815 0
156.1096 -14.77469 3.871815 0
155.9596 -14.57469 3.871815 0
156.0096 -14.47469 3.871815 0
156.0596 -14.57469 3.921815 0
156.1596 -14.82469 3.921815 0
156.1596 -14.67469 3.921815 0
156.0096 -15.17469 4.571815 0
156.0096 -15.07469 4.571815 0
156.1096 -15.07469 4.621815 0
155.9596 -15.02469 4.621815 0
156.1096 -14.87469 4.571815 0
156.1596 -14.97469 4.571815 0
156.2096 -14.92469 4.621815 0
156.2596 -15.02469 4.671815 0
156.0596 -14.77469 4.571815 0
156.1596 -14.67469 4.621815 0
156.2096 -14.82469 4.671815 0
156.2096 -14.77469 4.721815 0
156.2096 -14.57469 4.621815 0
156.3096 -14.47469 4.621815 0
156.3096 -14.52469 4.671815 0
155.4596 -15.67469 5.221815 0
155.2096 -15.57469 5.121815 0
155.3096 -15.32469 5.071815 0
155.3596 -15.52469 5.071815 0
155.5096 -15.32469 5.121815 0
155.4596 -15.52469 5.321815 0
155.4596 -15.32469 5.321815 0
155.4096 -15.12469 5.121815 0
155.5096 -15.22469 5.171815 0
155.5096 -15.22469 5.221815 0
155.4596 -15.02469 5.171815 0
155.4596 -14.97469 5.171815 0
155.4596 -15.07469 5.321815 0
155.6096 -15.62469 5.221815 0
155.5596 -15.52469 5.121815 0
155.5596 -15.42469 5.221815 0
155.5596 -15.47469 5.271815 0
155.6596 -15.27469 5.271815 0
155.8596 -15.12469 5.221815 0
155.8096 -14.92469 5.221815 0
155.6596 -15.07469 5.271815 0
155.6096 -14.87469 5.271815 0
155.8096 -14.72469 5.221815 0
155.7596 -14.52469 5.221815 0
155.9096 -14.57469 5.221815 0
155.6096 -14.67469 5.271815 0
155.9596 -14.97469 5.221815 0
155.9596 -14.97469 5.321815 0
156.0096 -14.87469 5.271815 0
155.9596 -14.77469 5.221815 0
156.0096 -14.77469 5.321815 0
156.0096 -14.67469 5.271815 0
156.0096 -14.52469 5.271815 0
156.0096 -14.47469 5.271815 0
156.6596 -15.52469 3.321815 0
156.5596 -15.32469 3.321815 0
156.7096 -15.27469 3.321815 0
156.8596 -15.67469 3.321815 0
156.8096 -15.47469 3.321815 0
156.8596 -15.62469 3.321815 0
156.9596 -15.42469 3.371815 0
156.5096 -15.12469 3.321815 0
156.4096 -14.92469 3.321815 0
156.6596 -15.02469 3.271815 0
156.5596 -14.82469 3.271815 0
156.7096 -14.57469 3.321815 0
156.9096 -15.22469 3.321815 0
156.8596 -15.02469 3.321815 0
156.7596 -14.77469 3.321815 0
156.3596 -14.67469 4.621815 0
156.4096 -14.67469 4.671815 0
156.6596 -13.97469 1.921815 0
156.7096 -13.77469 1.921815 0
156.8096 -14.17469 1.921815 0
156.7596 -13.72469 1.921815 0
157.0096 -13.92469 1.971815 0
156.9596 -13.72469 1.971815 0
157.0596 -13.72469 1.921815 0
156.7096 -13.57469 1.921815 0
156.7596 -13.52469 1.921815 0
156.8596 -13.52469 1.921815 0
156.9096 -13.47469 1.921815 0
156.8096 -13.32469 1.921815 0
156.9096 -13.32469 1.921815 0
156.9596 -13.27469 1.921815 0
155.8596 -14.37469 3.821815 0
155.9096 -14.37469 5.221815 0
155.9596 -14.17469 5.221815 0
156.0096 -14.32469 5.271815 0
156.0096 -14.27469 5.271815 0
156.0096 -14.12469 5.271815 0
156.0096 -14.07469 5.271815 0
156.3596 -14.42469 4.671815 0
156.4596 -14.37469 4.671815 0
156.4596 -14.17469 4.671815 0
156.5596 -14.32469 4.721815 0
156.6096 -14.27469 4.721815 0
156.5596 -14.12469 4.671815 0
156.5596 -14.07469 4.671815 0
156.3596 -13.62469 3.271815 0
146.1596 -2.224689 3.221815 0
146.2096 -2.074689 3.171815 0
146.2096 -1.974689 3.171815 0
146.2096 -1.924689 3.071815 0
146.2096 -1.824689 3.171815 0
146.2596 -1.774689 3.071815 0
146.2596 -1.724689 3.171815 0
146.4096 -2.224689 3.171815 0
146.3596 -1.824689 3.021815 0
146.3596 -1.674689 3.071815 0
146.6596 -2.024688 3.071815 0
146.7096 -1.874689 3.121815 0
146.7096 -1.724689 3.121815 0
146.9096 -1.974689 3.021815 0
146.9596 -1.874689 3.021815 0
147.1096 -1.874689 3.171815 0
147.0096 -1.774689 2.921815 0
146.9596 -1.724689 2.971815 0
147.0096 -1.774689 3.071815 0
147.1596 -2.274688 3.171815 0
147.1596 -2.124689 3.171815 0
147.2596 -2.224689 3.171815 0
147.3596 -2.074689 3.071815 0
147.1596 -1.974689 2.971815 0
147.2096 -1.874689 3.021815 0
147.1596 -1.974689 3.221815 0
147.3096 -1.974689 3.071815 0
147.1596 -1.774689 3.021815 0
147.3096 -1.724689 2.921815 0
145.6096 -2.724689 3.571815 0
145.6596 -2.824689 3.571815 0
145.7096 -2.674689 3.521815 0
145.7096 -2.674689 3.571815 0
145.7596 -2.574689 3.571815 0
145.7596 -2.474689 3.521815 0
145.9096 -2.274688 3.371815 0
145.8096 -2.424689 3.521815 0
145.8096 -2.324689 3.471815 0
145.8596 -2.274688 3.521815 0
145.8596 -2.174689 3.471815 0
145.9096 -2.124689 3.521815 0
145.9096 -1.974689 3.421815 0
145.9096 -1.974689 3.471815 0
145.8096 -1.824689 3.271815 0
146.0096 -1.774689 3.271815 0
145.9596 -1.824689 3.471815 0
145.7096 -0.9246885 3.021815 0
145.7596 -0.8246886 2.321815 0
145.8096 -0.6746885 2.321815 0
145.8096 -0.6246886 2.421815 0
145.8096 -0.5246885 2.371815 0
145.7096 -0.4246885 2.371815 0
145.6096 -0.1746885 2.371815 0
145.8596 -0.3746885 2.371815 0
145.8596 -0.1746885 2.371815 0
145.2096 -0.5246885 2.821815 0
145.3596 -0.6746885 2.821815 0
145.5096 -0.6746885 2.771815 0
145.4596 -0.6246886 2.821815 0
145.2096 -0.2746885 2.771815 0
145.3596 -0.1746885 2.721815 0
145.4596 -0.2246885 3.121815 0
145.5596 -0.5746886 2.821815 0
145.6096 -0.6246886 2.771815 0
145.7596 -0.7746885 2.771815 0
145.9096 -0.7246885 2.771815 0
145.7596 -0.5746886 2.821815 0
145.8596 -0.6246886 2.721815 0
145.8596 -0.5246885 2.821815 0
145.7096 -0.7746885 3.071815 0
145.6596 -0.5246885 2.871815 0
145.7096 -0.5746886 3.071815 0
145.9096 -0.1746885 2.521815 0
145.8596 -0.07468853 2.521815 0
145.9096 -0.1246885 2.721815 0
145.7096 -0.3746885 3.121815 0
145.7096 -0.1746885 3.171815 0
145.7596 -0.4246885 2.871815 0
145.8596 -0.3746885 2.871815 0
145.9096 -0.3246885 2.871815 0
145.8596 -0.3746885 3.171815 0
145.7596 -0.1246885 3.171815 0
145.8596 -0.1746885 3.221815 0
146.3096 -1.474689 3.021815 0
146.2596 -1.624689 3.121815 0
146.3096 -1.624689 3.071815 0
146.3096 -1.474689 3.121815 0
146.1096 -1.124689 3.071815 0
146.1096 -0.8746886 3.071815 0
146.3096 -0.8746886 3.171815 0
146.3596 -1.524689 3.071815 0
146.5096 -1.324689 2.921815 0
146.3596 -1.374689 3.121815 0
146.3596 -1.274689 3.121815 0
146.5596 -1.374689 2.921815 0
146.6096 -1.324689 3.121815 0
146.5096 -0.8746886 2.721815 0
146.4596 -0.8746886 2.821815 0
146.6096 -1.074689 2.721815 0
146.6096 -1.074689 2.821815 0
146.7096 -1.174689 2.771815 0
146.7096 -1.174689 2.821815 0
146.7096 -1.074689 2.771815 0
146.5596 -0.9746885 2.721815 0
146.5596 -0.9746885 2.821815 0
146.6096 -0.9246885 2.721815 0
146.6596 -1.024689 2.721815 0
146.3596 -1.124689 3.171815 0
146.5096 -0.9746885 2.871815 0
146.4096 -0.9246885 3.171815 0
146.5096 -1.024689 3.121815 0
146.4596 -0.9246885 3.121815 0
146.5596 -1.224689 2.921815 0
146.6096 -1.074689 2.871815 0
146.6596 -1.224689 2.921815 0
146.6596 -1.074689 2.971815 0
146.6096 -1.174689 3.121815 0
145.9596 -0.8246886 2.371815 0
145.9596 -0.7246885 2.321815 0
146.2096 -0.7746885 2.421815 0
146.1596 -0.7246885 2.371815 0
146.3596 -0.6746885 2.421815 0
146.0096 -0.6746885 2.771815 0
145.9596 -0.4746885 2.821815 0
146.1596 -0.7246885 2.771815 0
146.2596 -0.6746885 2.771815 0
146.2596 -0.5746886 2.521815 0
146.1596 -0.6246886 2.821815 0
146.3096 -0.5746886 2.821815 0
146.1596 -0.6746885 3.121815 0
146.2596 -0.7746885 3.171815 0
146.3096 -0.5746886 3.221815 0
146.2596 -0.4746885 3.221815 0
146.0096 -0.3246885 2.571815 0
146.1096 -0.3246885 2.721815 0
146.0096 -0.2246885 2.721815 0
146.2096 -0.2746885 2.621815 0
146.1596 -0.2746885 2.821815 0
146.2096 -0.1746885 2.621815 0
146.1596 -0.1246885 2.621815 0
146.1096 -0.3746885 2.871815 0
146.0596 -0.2746885 2.921815 0
146.0096 -0.3746885 3.221815 0
146.2096 -0.3246885 2.871815 0
146.3096 -0.2746885 2.871815 0
146.1596 -0.3746885 3.221815 0
146.1596 -0.1746885 2.921815 0
146.2596 -0.1246885 2.921815 0
146.4096 -0.7246885 2.471815 0
146.3596 -0.7246885 2.821815 0
146.4596 -0.7746885 2.671815 0
146.5096 -0.7246885 2.721815 0
146.3596 -0.6246886 2.521815 0
146.4596 -0.5746886 2.521815 0
146.3596 -0.6246886 2.771815 0
146.4596 -0.5246885 2.821815 0
146.6596 -0.6746885 2.521815 0
146.5596 -0.8246886 2.721815 0
146.6096 -0.6246886 2.471815 0
146.5596 -0.5746886 2.571815 0
146.5596 -0.4746885 2.621815 0
146.7096 -0.5746886 2.571815 0
146.6096 -0.6246886 2.771815 0
146.7096 -0.4746885 2.771815 0
146.4596 -0.07468853 2.771815 0
146.5596 -0.4246885 2.821815 0
146.6596 -0.1746885 2.821815 0
146.7096 -0.07468853 2.821815 0
146.3596 -0.07468853 2.971815 0
146.4596 -0.2246885 2.871815 0
146.4596 -0.07468853 2.871815 0
146.6596 -0.3746885 2.871815 0
146.6596 -0.2746885 2.871815 0
146.7096 -0.07468853 2.971815 0
145.7096 0.3253115 2.421815 0
145.8596 -0.02468853 2.421815 0
145.8596 0.1253115 2.421815 0
145.6596 0.4753115 2.421815 0
145.2596 -0.02468853 2.771815 0
145.3096 0.07531147 3.121815 0
145.4596 0.07531147 3.171815 0
145.2596 0.3753115 2.771815 0
145.4596 0.4253115 2.821815 0
145.4596 0.6753115 2.621815 0
145.4096 0.5753115 2.671815 0
145.4596 0.6253115 2.671815 0
145.7096 0.07531147 2.471815 0
145.6596 -0.02468853 2.771815 0
145.8096 0.07531147 2.471815 0
145.8096 -0.02468853 2.721815 0
145.7596 0.07531147 2.721815 0
145.7596 0.2253115 2.471815 0
145.9096 0.3253115 2.471815 0
145.5596 0.07531147 3.171815 0
145.6596 -0.02468853 3.171815 0
145.6596 0.07531147 3.221815 0
145.6096 0.6253115 2.621815 0
145.6096 0.7253115 2.471815 0
145.6596 0.6753115 2.621815 0
145.5596 0.7253115 2.671815 0
145.9096 0.5253115 2.521815 0
145.8596 0.6253115 2.671815 0
145.6596 0.4253115 2.871815 0
145.8596 0.4253115 2.871815 0
145.2596 1.175311 2.421815 0
145.7096 1.325312 2.371815 0
145.7596 1.325312 2.371815 0
145.7596 1.475312 2.321815 0
145.8596 1.425311 2.271815 0
145.1596 0.8753115 2.771815 0
145.2096 1.025311 2.621815 0
145.1596 1.125311 2.471815 0
145.3096 1.025311 2.621815 0
145.3096 1.125311 2.521815 0
145.3096 0.9753115 2.721815 0
145.3596 0.8753115 2.821815 0
145.5096 0.9253115 2.821815 0
145.3596 1.025311 2.571815 0
145.4096 1.125311 2.471815 0
145.4096 1.075312 2.621815 0
145.4596 1.125311 2.521815 0
145.5096 1.125311 2.721815 0
145.1596 0.7753115 2.871815 0
145.2096 0.7753115 2.871815 0
145.2096 0.7753115 2.921815 0
145.3596 0.7753115 2.921815 0
145.3596 0.8253115 2.921815 0
145.4096 0.7753115 2.921815 0
145.5096 0.7753115 2.971815 0
145.5096 0.8753115 2.921815 0
145.5096 0.9753115 2.921815 0
145.4096 1.225312 2.471815 0
145.5096 1.175311 2.521815 0
145.4596 1.275311 2.621815 0
145.1596 1.175311 3.121815 0
145.2596 1.225312 3.121815 0
145.2096 1.375311 3.171815 0
145.2596 1.375311 3.171815 0
145.4096 1.325312 3.121815 0
145.3596 1.425311 3.171815 0
145.3596 1.475312 3.171815 0
145.4096 1.525311 3.221815 0
145.5096 1.425311 3.121815 0
145.6096 0.7753115 2.521815 0
145.6596 0.9253115 2.821815 0
145.5596 1.025311 2.621815 0
145.6596 1.125311 2.571815 0
145.5596 1.025311 2.671815 0
145.7096 1.075312 2.721815 0
145.8096 0.7753115 2.521815 0
145.7596 0.7753115 2.571815 0
145.7596 0.9253115 2.671815 0
145.8096 1.125311 2.571815 0
145.8096 1.025311 2.671815 0
145.8596 1.125311 2.721815 0
145.5596 0.7753115 2.921815 0
145.6096 0.9253115 2.921815 0
145.5596 0.9753115 2.921815 0
145.6096 1.075312 2.921815 0
145.7096 0.9753115 2.921815 0
145.6596 1.075312 2.971815 0
145.8096 1.075312 2.921815 0
145.7596 1.125311 2.971815 0
145.8596 0.9753115 2.871815 0
145.5596 1.225312 2.471815 0
145.6596 1.175311 2.571815 0
145.5596 1.425311 2.521815 0
145.5596 1.375311 2.621815 0
145.6096 1.525311 2.621815 0
145.6096 1.375311 2.671815 0
145.7596 1.275311 2.471815 0
145.8596 1.175311 2.571815 0
145.8596 1.175311 2.621815 0
145.9096 1.175311 2.621815 0
145.7596 1.175311 2.921815 0
145.8096 1.225312 2.971815 0
145.8596 1.175311 2.921815 0
145.9096 1.275311 2.971815 0
146.1096 0.1253115 2.621815 0
146.1096 0.2753115 2.621815 0
146.1096 0.3253115 2.621815 0
146.1596 -0.02468853 2.621815 0
146.3096 0.02531147 2.771815 0
146.2596 0.1253115 2.721815 0
146.2096 0.3253115 2.721815 0
146.2596 0.2253115 2.721815 0
146.0096 0.1253115 2.871815 0
146.3096 0.2253115 2.921815 0
146.0596 0.4253115 2.621815 0
146.0596 0.5253115 2.621815 0
146.1096 0.5253115 2.671815 0
145.9596 0.7253115 2.521815 0
146.0596 0.6253115 2.621815 0
146.0596 0.7253115 2.621815 0
146.0596 0.6253115 2.671815 0
146.1596 0.4253115 2.671815 0
146.2596 0.7253115 2.771815 0
146.4596 0.02531147 2.771815 0
146.4596 0.1753115 2.771815 0
146.4596 0.2753115 2.771815 0
146.6096 0.02531147 2.821815 0
146.3596 0.07531147 2.921815 0
146.3596 0.07531147 2.971815 0
146.4596 0.3753115 2.771815 0
146.4596 0.4753115 2.771815 0
146.4596 0.5753115 2.821815 0
146.4596 0.6753115 2.821815 0
145.9596 1.325312 2.421815 0
146.0096 1.375311 2.421815 0
146.5096 1.375311 2.421815 0
146.5596 1.275311 2.421815 0
146.5596 1.475312 2.421815 0
146.0096 0.7753115 2.621815 0
146.0096 0.8253115 2.621815 0
146.0096 0.8753115 2.621815 0
146.0096 0.9253115 2.621815 0
145.9596 1.025311 2.621815 0
146.1596 1.025311 2.771815 0
146.3096 1.075312 2.721815 0
145.9596 1.075312 2.871815 0
146.0596 1.175311 2.771815 0
146.2096 1.325312 2.471815 0
146.3096 1.175311 2.821815 0
146.3096 1.275311 2.721815 0
146.3096 1.275311 2.821815 0
146.2096 1.525311 2.721815 0
146.2596 1.425311 2.721815 0
146.3096 1.375311 2.721815 0
146.2596 1.475312 2.721815 0
145.9596 1.225312 2.921815 0
146.0596 1.175311 2.871815 0
146.0596 1.325312 2.921815 0
145.9596 1.375311 2.971815 0
146.0596 1.475312 2.971815 0
146.1596 1.225312 2.871815 0
146.4596 1.125311 2.521815 0
146.3596 1.075312 2.721815 0
146.3596 1.125311 2.721815 0
146.5096 1.275311 2.521815 0
146.4596 1.375311 2.521815 0
146.5096 1.525311 2.521815 0
146.3596 1.375311 2.821815 0
146.6096 1.375311 2.471815 0
146.5596 1.425311 2.571815 0
146.6596 1.525311 2.471815 0
146.4096 1.475312 2.871815 0
146.9096 -1.474689 2.821815 0
146.8096 -1.374689 2.821815 0
146.7596 -1.274689 2.821815 0
147.0096 -1.524689 2.821815 0
146.8596 -1.574689 2.871815 0
146.7596 -1.374689 2.971815 0
146.9096 -1.424689 3.021815 0
146.8596 -1.324689 3.021815 0
146.9596 -1.624689 3.021815 0
146.9596 -1.524689 3.021815 0
147.0596 -1.624689 3.021815 0
146.7596 -1.174689 2.771815 0
147.3096 -1.624689 2.871815 0
147.3096 -1.474689 2.871815 0
147.3096 -1.524689 2.971815 0
147.3596 -1.624689 2.921815 0
147.4096 -1.574689 2.921815 0
147.4096 -1.474689 2.921815 0
147.4096 -1.524689 2.971815 0
147.4596 -1.374689 2.921815 0
147.4596 -1.424689 2.971815 0
147.4596 -1.324689 2.971815 0
147.5096 -1.274689 2.971815 0
147.4596 -1.174689 2.921815 0
146.7596 -0.6746885 2.771815 0
146.7596 -0.5746886 2.571815 0
146.8596 -0.6246886 2.521815 0
146.9096 -0.6246886 2.571815 0
146.8096 -0.5746886 2.771815 0
146.7596 -0.4746885 2.671815 0
146.8096 -0.4746885 2.771815 0
146.8596 -0.5246885 2.771815 0
146.9596 -0.5746886 2.621815 0
147.1096 -0.5746886 2.621815 0
147.1096 -0.4746885 2.621815 0
146.7596 -0.3746885 2.821815 0
146.8096 -0.3746885 2.771815 0
146.7596 -0.2746885 2.821815 0
146.9096 -0.3746885 2.671815 0
146.8596 -0.3246885 2.821815 0
146.9096 -0.1246885 2.621815 0
146.7596 -0.1746885 2.821815 0
146.8096 -0.1746885 2.821815 0
147.0096 -0.4246885 2.621815 0
147.1096 -0.3746885 2.621815 0
147.0596 -0.3246885 2.571815 0
147.0596 -0.1746885 2.571815 0
147.1096 -0.2246885 2.621815 0
147.1096 -0.1246885 2.621815 0
147.3096 -0.7746885 2.571815 0
147.4096 -0.7246885 2.821815 0
147.4596 -0.8246886 2.821815 0
147.4596 -0.6246886 2.621815 0
147.5096 -0.5246885 2.621815 0
147.2096 -0.2246885 2.571815 0
147.2096 -0.1246885 2.571815 0
147.4596 -0.3746885 2.621815 0
147.4596 -0.2746885 2.621815 0
147.6596 -1.274689 2.821815 0
147.6096 -1.124689 2.821815 0
147.5596 -1.024689 2.821815 0
147.5596 -0.9246885 2.821815 0
148.3096 -0.3246885 2.021815 0
148.2596 -0.1746885 2.021815 0
148.2596 -0.07468853 2.021815 0
148.3096 -0.3746885 2.071815 0
148.2096 -0.2246885 2.071815 0
148.1596 -0.07468853 2.071815 0
148.3096 -0.1746885 2.171815 0
147.5596 -0.6746885 2.621815 0
147.5596 -0.5746886 2.621815 0
147.5596 -0.4746885 2.621815 0
147.5596 -0.3246885 2.621815 0
147.5596 -0.2246885 2.621815 0
147.5596 -0.1246885 2.621815 0
146.8596 0.07531147 2.721815 0
146.8596 0.2253115 2.671815 0
146.9096 0.3253115 2.671815 0
147.0596 -0.02468853 2.571815 0
147.1096 -0.02468853 2.621815 0
147.1096 0.07531147 2.571815 0
147.0596 0.2253115 2.571815 0
147.1096 0.1753115 2.571815 0
147.1096 0.2753115 2.571815 0
146.9096 0.4253115 2.671815 0
146.9096 0.5253115 2.671815 0
147.1096 0.3753115 2.521815 0
147.1096 0.3753115 2.571815 0
147.1096 0.5253115 2.521815 0
147.1096 0.4753115 2.571815 0
147.1096 0.4753115 2.621815 0
147.1096 0.6253115 2.521815 0
147.1096 0.6253115 2.571815 0
147.1096 0.6253115 2.621815 0
147.0596 0.7253115 2.621815 0
147.1096 0.7253115 2.571815 0
146.9596 0.6753115 2.671815 0
147.2096 -0.02468853 2.571815 0
147.1596 0.07531147 2.571815 0
147.2096 0.07531147 2.571815 0
147.2596 -0.02468853 2.571815 0
147.1596 0.1753115 2.571815 0
147.1596 0.2753115 2.571815 0
147.2096 0.2753115 2.571815 0
147.2596 0.1753115 2.571815 0
147.2096 0.3753115 2.571815 0
147.2096 0.4753115 2.571815 0
147.2096 0.5753115 2.571815 0
147.2096 0.6753115 2.571815 0
146.9096 1.525311 2.021815 0
146.8096 1.325312 2.421815 0
146.8596 1.425311 2.271815 0
146.9596 1.275311 2.221815 0
147.1096 1.275311 2.221815 0
147.0096 1.325312 2.271815 0
147.1096 1.275311 2.271815 0
146.9596 1.425311 2.221815 0
147.0596 1.375311 2.221815 0
147.0596 1.425311 2.221815 0
147.1096 1.525311 2.221815 0
147.0096 1.375311 2.271815 0
147.4596 0.9753115 2.021815 0
147.4096 1.125311 2.071815 0
147.4596 1.075312 2.371815 0
147.2096 1.225312 2.321815 0
147.1596 1.275311 2.321815 0
147.1596 1.325312 2.321815 0
147.2596 1.225312 2.321815 0
147.2096 1.525311 2.221815 0
147.3096 1.475312 2.071815 0
147.1596 1.375311 2.321815 0
147.1596 1.475312 2.321815 0
147.3596 1.325312 2.071815 0
147.4096 1.175311 2.321815 0
146.9096 0.7753115 2.671815 0
146.9096 0.8753115 2.671815 0
147.0596 0.8253115 2.621815 0
147.1096 0.8253115 2.571815 0
147.0596 0.9253115 2.621815 0
146.9596 1.125311 2.621815 0
147.0596 1.075312 2.621815 0
147.0596 1.125311 2.571815 0
147.1096 1.075312 2.571815 0
146.8096 1.175311 2.571815 0
146.8596 1.225312 2.471815 0
146.8596 1.225312 2.521815 0
146.9596 1.175311 2.521815 0
147.1596 0.7753115 2.521815 0
147.2096 0.7753115 2.571815 0
147.2596 0.9253115 2.621815 0
147.1596 1.025311 2.471815 0
147.2096 1.025311 2.571815 0
147.3596 0.9253115 2.621815 0
147.5096 1.475312 2.621815 0
147.6096 0.6253115 2.021815 0
147.9096 0.5253115 1.971815 0
147.8596 0.6253115 1.971815 0
147.8596 0.6753115 1.971815 0
147.8096 0.7253115 2.121815 0
147.9096 0.5753115 2.071815 0
147.8596 0.7253115 2.071815 0
148.1096 0.02531147 2.021815 0
148.0096 0.2753115 2.021815 0
148.0096 0.3253115 1.971815 0
148.0596 0.1753115 2.021815 0
148.1096 0.2253115 2.021815 0
148.2096 0.02531147 2.021815 0
148.1596 0.1253115 2.021815 0
148.0596 0.2753115 2.121815 0
148.2096 -0.02468853 2.171815 0
148.1596 0.1253115 2.121815 0
148.3096 -0.02468853 2.321815 0
148.2596 0.1753115 2.321815 0
147.9596 0.3753115 2.021815 0
147.9596 0.4253115 1.971815 0
148.1096 0.3753115 2.021815 0
148.0596 0.4753115 2.021815 0
148.0096 0.5753115 2.021815 0
147.9596 0.6753115 2.021815 0
148.0096 0.4253115 2.121815 0
147.9596 0.3753115 2.171815 0
148.0596 0.5753115 2.271815 0
148.1596 0.3753115 2.271815 0
148.3096 0.5753115 2.421815 0
148.3096 0.6253115 2.371815 0
148.2596 0.7253115 2.421815 0
148.2096 0.3753115 2.721815 0
148.3096 0.5753115 2.471815 0
148.3096 0.7253115 2.571815 0
147.5596 0.8253115 2.021815 0
147.7096 0.8753115 1.871815 0
147.6596 1.025311 1.871815 0
147.7096 0.9753115 1.921815 0
147.7096 0.9753115 1.971815 0
147.7096 1.075312 1.921815 0
147.6596 1.075312 1.971815 0
147.7096 1.125311 2.021815 0
147.8096 0.7753115 1.971815 0
147.7596 0.8753115 1.971815 0
147.8096 0.8753115 1.971815 0
147.8596 0.7753115 1.971815 0
147.9096 0.9253115 2.021815 0
147.7596 0.9753115 2.021815 0
147.8096 1.125311 2.021815 0
147.8596 1.025311 2.021815 0
147.5596 1.075312 2.321815 0
147.5596 1.125311 2.371815 0
147.6596 1.075312 2.371815 0
147.8096 0.8753115 2.071815 0
147.8596 0.9753115 2.221815 0
147.6596 1.175311 1.871815 0
147.8096 1.225312 2.021815 0
147.9596 0.7753115 2.021815 0
147.9596 0.7753115 2.221815 0
148.1096 1.075312 2.421815 0
148.1096 1.125311 2.371815 0
148.2096 0.8253115 2.421815 0
148.1596 0.9253115 2.371815 0
148.2096 0.9253115 2.371815 0
148.2596 0.7753115 2.371815 0
148.1596 0.9753115 2.421815 0
148.1596 1.025311 2.371815 0
148.1596 1.075312 2.421815 0
148.0096 1.325312 2.371815 0
148.0596 1.175311 2.371815 0
148.1096 1.225312 2.421815 0
148.0596 1.275311 2.371815 0
148.0596 1.325312 2.421815 0
148.3096 0.9253115 2.471815 0
148.3096 1.025311 2.471815 0
148.0096 1.525311 2.671815 0
148.0596 1.375311 2.671815 0
148.2596 1.175311 2.471815 0
145.4596 -1.574689 3.321815 0
145.4596 -1.424689 3.321815 0
145.2096 -0.9746885 3.621815 0
145.3096 -0.9246885 3.621815 0
145.4596 -1.224689 3.371815 0
145.4596 -1.074689 3.421815 0
145.4096 -0.8746886 3.421815 0
145.6596 -1.474689 3.321815 0
145.5596 -1.324689 3.271815 0
145.6596 -1.274689 3.321815 0
145.7596 -1.424689 3.321815 0
145.8096 -1.224689 3.321815 0
145.9096 -0.8746886 3.671815 0
145.3096 -0.8246886 3.421815 0
145.1596 -0.6746885 3.521815 0
145.4096 -0.7246885 3.571815 0
145.4596 -0.8246886 3.621815 0
145.5096 -0.6746885 3.571815 0
145.3596 -0.5746886 3.471815 0
145.1596 -0.6246886 3.721815 0
145.4596 -0.7746885 3.771815 0
145.3596 -0.3746885 3.521815 0
145.3596 -0.1746885 3.571815 0
145.5596 -0.7746885 3.621815 0
145.6596 -0.7246885 3.671815 0
145.8096 -0.6746885 3.671815 0
145.9096 -0.5746886 3.671815 0
145.9096 -0.4246885 3.571815 0
145.7596 -0.2246885 3.571815 0
145.8096 -0.07468853 3.521815 0
145.8096 -0.1246885 3.571815 0
146.1096 -1.624689 3.271815 0
145.9596 -1.374689 3.321815 0
146.2096 -1.524689 3.471815 0
146.2096 -1.374689 3.471815 0
145.9596 -1.174689 3.371815 0
146.0596 -1.124689 3.371815 0
146.2096 -1.174689 3.521815 0
146.1596 -1.024689 3.371815 0
146.2096 -1.024689 3.521815 0
145.2096 -0.02468853 3.321815 0
145.4096 0.02531147 3.321815 0
145.8596 0.02531147 3.571815 0
148.5096 0.1253115 2.421815 0
148.4096 0.3253115 2.371815 0
148.4596 0.1753115 2.371815 0
148.4596 0.2753115 2.421815 0
148.7096 0.2253115 2.371815 0
148.4096 0.3753115 2.421815 0
148.3596 0.4753115 2.371815 0
148.3596 0.4753115 2.421815 0
148.4096 0.3253115 2.471815 0
148.4596 0.2253115 2.471815 0
148.5596 0.2253115 2.471815 0
148.3596 0.4753115 2.471815 0
148.5096 0.3753115 2.471815 0
148.4596 0.4253115 2.571815 0
148.4596 0.4753115 2.471815 0
148.4096 0.5753115 2.571815 0
148.4096 0.7253115 2.471815 0
148.4596 0.5753115 2.471815 0
149.1096 0.1253115 2.921815 0
149.0596 0.2753115 2.921815 0
148.9096 0.5253115 2.921815 0
148.9596 0.3753115 2.921815 0
148.3596 0.8253115 2.471815 0
149.2096 0.3753115 2.471815 0
146.7096 2.275311 0.1218147 0
146.7096 2.325311 0.1718147 0
146.3096 2.725312 0.1218147 0
146.3096 2.725312 0.1718147 0
146.3096 2.675312 0.5718147 0
146.3096 2.925312 0.1218147 0
146.3096 2.875312 0.1718147 0
146.2596 3.025311 0.1718147 0
146.3096 3.025311 0.1718147 0
146.2596 3.075311 0.1718147 0
146.3096 3.075311 0.1718147 0
146.2096 2.825311 0.6218147 0
146.1596 2.975312 0.6218147 0
146.3096 3.025311 0.5718147 0
146.2596 3.075311 0.6218147 0
146.4096 2.675312 0.1718147 0
146.4596 2.575311 0.1718147 0
146.5096 2.625312 0.1718147 0
146.4596 2.675312 0.1718147 0
146.5096 2.675312 0.1718147 0
146.5096 2.725312 0.1718147 0
146.5596 2.425312 0.1218147 0
146.5596 2.525311 0.1718147 0
146.6096 2.475312 0.1718147 0
146.6096 2.525311 0.1718147 0
146.7096 2.425312 0.1718147 0
146.7096 2.475312 0.1218147 0
146.7096 2.475312 0.1718147 0
146.5596 2.625312 0.1218147 0
146.6596 2.575311 0.1218147 0
146.4096 2.675312 0.5218147 0
146.4096 2.725312 0.5718147 0
146.5096 2.675312 0.4718147 0
146.5096 2.675312 0.5218147 0
146.7096 2.475312 0.5218147 0
146.7096 2.525311 0.4718147 0
146.7096 2.525311 0.8218147 0
146.5596 2.575311 0.4718147 0
146.5596 2.625312 0.4718147 0
146.5596 2.725312 0.4718147 0
146.6096 2.675312 0.4718147 0
146.6596 2.575311 0.4718147 0
146.7096 2.575311 0.4718147 0
146.6096 2.675312 0.8218147 0
146.6096 2.725312 0.8218147 0
146.6596 2.625312 0.8218147 0
146.7096 2.575311 0.8218147 0
146.6596 2.675312 0.8218147 0
146.4096 2.775311 0.1718147 0
146.4096 2.825311 0.1718147 0
146.3596 2.925312 0.1718147 0
146.4096 2.875312 0.1718147 0
146.5096 2.775311 0.1218147 0
146.4596 2.825311 0.1718147 0
146.5096 2.875312 0.1218147 0
146.4596 2.925312 0.1718147 0
146.5096 2.925312 0.1718147 0
146.3596 2.975312 0.1718147 0
146.4096 3.025311 0.1718147 0
146.4096 3.075311 0.1218147 0
146.3596 3.125312 0.1718147 0
146.5096 2.975312 0.1218147 0
146.4096 2.825311 0.5218147 0
146.3596 2.875312 0.5218147 0
146.3596 2.925312 0.5218147 0
146.4096 2.875312 0.5218147 0
146.4596 2.775311 0.5218147 0
146.5096 2.775311 0.4718147 0
146.4596 2.875312 0.4718147 0
146.5096 2.875312 0.4718147 0
146.5096 2.875312 0.8218147 0
146.3596 3.025311 0.5218147 0
146.3596 2.975312 0.5718147 0
146.4596 3.025311 0.5218147 0
146.5096 2.975312 0.4718147 0
146.5096 3.025311 0.4718147 0
146.4596 3.125312 0.5218147 0
146.5096 3.075311 0.5218147 0
146.5096 3.125312 0.5218147 0
146.4596 3.075311 0.5718147 0
146.5096 2.975312 0.8218147 0
146.5596 2.775311 0.4718147 0
146.6096 2.775311 0.4718147 0
146.5596 2.875312 0.4718147 0
146.5596 2.925312 0.4718147 0
146.5596 2.775311 0.8218147 0
146.6096 2.825311 0.8218147 0
146.5596 2.925312 0.8218147 0
146.6096 2.875312 0.8218147 0
146.6596 2.775311 0.8218147 0
146.6096 2.975312 0.4718147 0
146.5596 3.075311 0.4718147 0
146.6096 3.125312 0.4718147 0
146.6596 3.125312 0.4718147 0
146.7096 3.125312 0.4718147 0
146.5596 2.975312 0.8218147 0
146.6096 3.025311 0.8218147 0
146.5596 3.075311 0.8218147 0
146.6096 3.075311 0.8218147 0
146.7096 3.025311 0.8218147 0
146.6596 3.125312 0.8218147 0
146.3096 3.025311 1.171815 0
146.2096 2.925312 1.271815 0
146.3096 3.125312 1.271815 0
146.2596 3.025311 1.621815 0
146.5096 2.725312 0.8718147 0
146.7096 2.725312 0.8718147 0
146.6096 2.625312 1.221815 0
146.5596 2.725312 1.221815 0
146.6096 2.675312 1.171815 0
146.6596 2.625312 1.121815 0
146.6596 2.575311 1.171815 0
146.7096 2.575311 1.171815 0
146.7096 2.625312 1.221815 0
146.6596 2.725312 1.121815 0
146.7096 2.675312 1.171815 0
146.7096 2.725312 1.221815 0
146.5096 2.575311 1.321815 0
146.5096 2.725312 1.271815 0
146.7096 2.525311 1.471815 0
146.5596 2.575311 1.421815 0
146.6096 2.625312 1.571815 0
146.6096 2.725312 1.571815 0
146.6596 2.575311 1.471815 0
146.6596 2.625312 1.471815 0
146.6596 2.675312 1.471815 0
146.6596 2.725312 1.471815 0
146.7096 2.675312 1.521815 0
146.7096 2.725312 1.621815 0
146.4596 2.775311 0.9218147 0
146.4596 2.775311 0.9718148 0
146.4596 2.925312 0.9218147 0
146.3596 2.925312 1.121815 0
146.4096 2.925312 1.071815 0
146.4596 2.875312 1.171815 0
146.5096 3.025311 0.9218147 0
146.4596 2.975312 0.9718148 0
146.5096 3.075311 0.9718148 0
146.4096 3.125312 1.121815 0
146.5096 2.975312 1.171815 0
146.4596 3.075311 1.071815 0
146.6596 2.825311 0.8718147 0
146.5596 2.775311 1.121815 0
146.6096 2.825311 1.121815 0
146.5596 2.875312 1.121815 0
146.5596 2.925312 1.121815 0
146.6596 2.775311 1.171815 0
146.6596 2.825311 1.221815 0
146.6596 2.875312 1.171815 0
146.5596 3.125312 0.9218147 0
146.6596 2.975312 0.8718147 0
146.6096 2.975312 1.121815 0
146.6096 3.075311 1.121815 0
146.5596 3.075311 1.171815 0
146.6596 3.025311 1.121815 0
146.6596 2.975312 1.221815 0
146.7096 3.025311 1.171815 0
146.3596 2.875312 1.371815 0
146.4596 2.925312 1.271815 0
146.4096 2.925312 1.521815 0
146.5096 2.775311 1.471815 0
146.4596 2.875312 1.521815 0
146.4596 3.025311 1.271815 0
146.4596 2.975312 1.371815 0
146.4596 3.125312 1.371815 0
146.4096 3.125312 1.521815 0
146.3596 3.125312 1.621815 0
146.4096 3.075311 1.621815 0
146.4596 2.975312 1.521815 0
146.4596 3.075311 1.521815 0
146.5596 2.775311 1.471815 0
146.5596 2.825311 1.471815 0
146.5596 2.775311 1.571815 0
146.5596 2.875312 1.471815 0
146.5596 2.925312 1.471815 0
146.6096 2.875312 1.521815 0
146.6096 2.925312 1.621815 0
146.5596 3.125312 1.271815 0
146.5596 2.975312 1.471815 0
146.5596 3.025311 1.471815 0
146.6096 3.025311 1.521815 0
146.5596 3.075311 1.471815 0
146.6096 3.075311 1.621815 0
145.2096 1.675311 2.421815 0
145.3596 1.725312 2.371815 0
145.4096 1.725312 2.371815 0
145.4096 1.725312 2.421815 0
145.5096 1.775311 2.371815 0
145.6096 1.725312 2.421815 0
145.5596 1.775311 2.421815 0
145.6596 1.775311 2.421815 0
145.6596 1.925311 2.271815 0
145.7596 1.825312 2.321815 0
145.6096 1.975312 2.221815 0
145.6096 2.075311 2.421815 0
145.7096 2.275311 2.371815 0
145.8096 2.025311 2.221815 0
145.8096 1.975312 2.271815 0
145.8596 2.075311 2.421815 0
145.8596 2.225312 2.221815 0
145.9096 2.225312 2.271815 0
145.8596 2.175312 2.421815 0
145.9096 2.275311 2.421815 0
145.3096 1.575312 2.471815 0
145.4096 1.675311 2.471815 0
145.4596 1.875311 2.771815 0
145.4096 1.625311 3.171815 0
145.4096 1.675311 3.171815 0
145.4596 1.775311 3.171815 0
145.5096 1.925311 3.171815 0
145.6096 1.675311 2.521815 0
145.6096 1.775311 2.821815 0
145.6096 1.825312 2.771815 0
145.6096 1.925311 2.771815 0
145.6596 1.925311 2.721815 0
145.6596 1.875311 2.821815 0
145.7596 1.625311 2.621815 0
145.8096 1.675311 2.571815 0
145.8596 1.725312 2.471815 0
145.9096 1.675311 2.621815 0
145.8596 1.775311 2.471815 0
145.8596 1.925311 2.571815 0
145.9096 1.925311 2.621815 0
145.7596 1.825312 2.771815 0
145.8096 1.925311 2.671815 0
145.8096 1.925311 2.821815 0
145.5596 2.075311 2.771815 0
145.6596 1.975312 2.821815 0
145.6596 2.025311 2.771815 0
145.7096 2.075311 2.671815 0
145.7096 2.075311 2.821815 0
145.6096 2.275311 2.721815 0
145.7096 2.175312 2.771815 0
145.8096 2.075311 2.521815 0
145.7596 2.125312 2.571815 0
145.8596 2.025311 2.571815 0
145.8596 2.125312 2.571815 0
145.8096 2.025311 2.671815 0
145.9096 2.025311 2.671815 0
145.8596 2.125312 2.671815 0
145.9096 2.125312 2.671815 0
145.8596 2.075311 2.821815 0
145.8096 2.275311 2.521815 0
145.8596 2.225312 2.521815 0
145.9096 2.175312 2.621815 0
145.9096 2.325311 2.521815 0
145.7596 2.225312 2.671815 0
145.7596 2.175312 2.821815 0
145.8096 2.325311 2.671815 0
145.7596 2.275311 2.771815 0
145.7596 2.275311 2.821815 0
145.8596 2.175312 2.671815 0
145.9096 2.275311 2.671815 0
145.8596 2.225312 2.871815 0
145.7596 2.525311 2.371815 0
145.8596 3.025311 2.121815 0
145.8596 2.975312 2.321815 0
145.9096 3.025311 2.321815 0
145.2096 2.525311 2.971815 0
145.3096 2.575311 2.921815 0
145.2596 2.625312 2.971815 0
145.2596 2.725312 2.971815 0
145.3096 2.725312 2.971815 0
145.3596 2.725312 2.921815 0
145.4096 3.075311 2.621815 0
145.5096 3.075311 2.621815 0
145.2096 2.775311 2.871815 0
