# .PCD v0.7 - Point Cloud Data file format
VERSION 0.7
FIELDS x y z intensity
SIZE 4 4 4 4
TYPE F F F F
COUNT 1 1 1 1
WIDTH 1581
HEIGHT 1
VIEWPOINT 0 0 0 1 0 0 0
POINTS 1581
DATA ascii
142.8096 -38.02469 1.871815 0
142.8096 -37.92469 1.871815 0
142.8596 -38.02469 2.021815 0
142.8596 -37.87469 2.021815 0
142.9096 -37.92469 2.021815 0
142.7596 -37.77469 1.771815 0
142.8096 -37.72469 1.721815 0
142.8596 -37.77469 1.671815 0
142.7596 -37.82469 1.871815 0
142.8096 -37.77469 1.971815 0
142.8096 -37.77469 2.021815 0
142.8096 -37.72469 1.871815 0
142.7596 -37.72469 1.971815 0
142.9596 -38.02469 2.021815 0
142.9596 -37.87469 2.021815 0
142.8096 -37.92469 2.121815 0
142.8096 -37.87469 2.121815 0
142.8596 -37.97469 2.371815 0
142.9096 -37.97469 2.421815 0
142.8596 -37.87469 2.421815 0
142.7596 -37.77469 2.121815 0
142.8096 -37.82469 2.421815 0
142.9096 -37.77469 2.271815 0
142.9096 -37.67469 2.271815 0
142.9596 -37.97469 2.071815 0
143.0096 -38.02469 2.421815 0
143.0096 -37.67469 2.321815 0
143.1596 -38.42469 1.671815 0
143.1596 -38.37469 2.171815 0
143.2096 -38.42469 2.171815 0
143.2096 -38.37469 2.371815 0
143.1596 -38.27469 2.421815 0
143.1596 -38.22469 2.121815 0
143.4596 -38.42469 2.221815 0
143.3596 -38.37469 2.421815 0
143.5096 -38.42469 2.421815 0
142.8596 -38.17469 2.721815 0
143.0096 -38.32469 2.721815 0
143.0596 -38.12469 2.471815 0
143.1096 -38.07469 2.771815 0
142.8596 -38.02469 2.721815 0
142.8596 -37.87469 2.771815 0
142.8596 -37.72469 2.471815 0
142.9096 -37.72469 2.771815 0
143.2596 -38.27469 2.471815 0
143.3096 -38.32469 2.471815 0
143.1596 -38.32469 2.721815 0
143.3096 -38.42469 2.721815 0
143.3096 -38.32469 2.771815 0
143.3096 -38.27469 2.821815 0
143.2096 -38.17469 2.471815 0
143.4596 -38.32469 2.521815 0
143.4596 -38.42469 2.771815 0
143.3596 -38.17469 2.471815 0
143.2096 -37.97469 2.771815 0
143.2096 -37.87469 2.721815 0
143.1596 -37.82469 2.721815 0
143.2596 -37.82469 2.671815 0
143.3596 -37.67469 2.621815 0
143.2096 -37.87469 3.121815 0
143.2596 -37.67469 3.071815 0
143.3096 -37.67469 3.071815 0
143.3596 -37.82469 3.021815 0
142.8096 -37.57469 1.671815 0
142.7596 -37.47469 1.671815 0
142.7596 -37.62469 1.971815 0
142.8096 -37.57469 1.971815 0
142.9096 -37.47469 1.971815 0
142.7596 -37.42469 1.721815 0
142.7596 -37.37469 1.671815 0
142.8096 -37.32469 1.671815 0
142.8096 -37.32469 1.721815 0
142.8096 -37.27469 1.671815 0
142.8596 -37.27469 1.721815 0
142.9096 -37.42469 1.871815 0
142.9096 -37.37469 1.971815 0
142.9096 -37.32469 1.971815 0
142.9596 -37.47469 1.971815 0
142.9596 -37.37469 1.971815 0
142.9596 -37.32469 1.871815 0
142.9596 -37.32469 1.921815 0
142.9596 -37.32469 2.021815 0
142.9596 -37.27469 2.021815 0
143.0096 -37.27469 2.021815 0
142.7596 -37.62469 2.121815 0
142.7596 -37.57469 2.121815 0
142.9096 -37.57469 2.221815 0
142.8596 -37.42469 2.221815 0
142.8596 -37.32469 2.221815 0
142.9096 -37.27469 2.221815 0
143.0096 -37.62469 2.271815 0
143.0096 -37.52469 2.321815 0
143.0096 -37.37469 2.221815 0
142.9596 -37.32469 2.121815 0
142.9596 -37.32469 2.271815 0
142.8596 -37.17469 1.671815 0
142.8596 -37.12469 1.671815 0
142.8096 -37.22469 1.921815 0
142.7596 -37.12469 1.921815 0
142.8096 -37.02469 1.671815 0
142.7596 -36.92469 1.721815 0
142.8096 -36.87469 1.721815 0
142.9096 -36.97469 1.671815 0
142.7596 -36.97469 1.971815 0
142.8096 -37.02469 1.971815 0
142.8596 -36.92469 1.871815 0
142.9096 -36.87469 1.971815 0
142.9596 -37.17469 1.821815 0
143.1096 -37.07469 1.671815 0
142.9596 -37.22469 1.921815 0
143.0096 -37.22469 1.921815 0
143.0096 -37.17469 1.921815 0
143.0096 -37.17469 2.021815 0
143.0096 -37.07469 1.921815 0
143.0596 -37.17469 2.021815 0
143.0096 -37.02469 1.821815 0
142.9596 -36.87469 1.721815 0
143.0096 -36.87469 1.671815 0
143.0596 -36.92469 1.821815 0
142.9596 -36.97469 1.971815 0
142.9596 -36.87469 1.871815 0
142.9596 -36.87469 1.921815 0
143.1096 -36.97469 1.871815 0
143.1096 -36.92469 2.021815 0
142.8596 -37.12469 2.221815 0
143.0096 -37.17469 2.121815 0
142.9596 -37.17469 2.221815 0
143.0096 -37.22469 2.221815 0
143.0096 -37.07469 2.221815 0
143.0596 -37.12469 2.221815 0
143.0596 -37.07469 2.221815 0
143.0596 -37.17469 2.271815 0
143.0596 -37.02469 2.221815 0
143.1096 -37.02469 2.171815 0
143.1096 -37.02469 2.221815 0
143.0596 -36.92469 2.071815 0
143.1096 -36.92469 2.221815 0
143.0596 -36.92469 2.271815 0
143.4096 -37.32469 2.421815 0
143.1596 -36.92469 1.671815 0
143.1596 -36.87469 1.821815 0
143.2096 -36.87469 1.871815 0
143.1596 -36.87469 2.021815 0
143.3596 -37.12469 1.771815 0
143.4596 -36.87469 1.771815 0
143.4596 -36.97469 1.971815 0
143.1596 -37.12469 2.121815 0
143.2596 -37.22469 2.171815 0
143.2596 -37.07469 2.071815 0
143.1596 -36.92469 2.171815 0
143.1596 -36.92469 2.221815 0
143.1596 -36.87469 2.221815 0
143.2596 -37.02469 2.121815 0
143.3096 -36.97469 2.171815 0
143.2596 -36.87469 2.071815 0
143.5096 -37.12469 2.421815 0
143.3596 -36.97469 2.121815 0
143.4596 -36.92469 2.121815 0
142.8596 -37.57469 2.471815 0
142.9096 -37.42469 2.521815 0
143.1096 -37.62469 2.671815 0
143.1096 -37.07469 2.621815 0
143.2096 -37.62469 2.671815 0
143.2096 -37.57469 2.671815 0
143.2596 -37.52469 2.671815 0
143.1596 -37.42469 2.621815 0
143.1596 -37.27469 2.621815 0
143.2096 -37.32469 2.621815 0
143.2596 -37.32469 2.571815 0
143.4596 -37.37469 2.571815 0
143.4096 -37.37469 2.671815 0
143.4096 -37.32469 2.671815 0
143.5096 -37.27469 2.671815 0
143.2596 -37.52469 3.021815 0
143.3096 -37.42469 3.021815 0
143.3596 -37.52469 2.971815 0
143.3596 -37.32469 3.021815 0
143.4096 -37.32469 3.021815 0
143.4596 -37.37469 2.971815 0
143.3096 -37.02469 2.571815 0
143.5096 -37.22469 2.571815 0
143.4096 -37.17469 2.721815 0
143.4096 -37.02469 2.571815 0
143.4096 -36.97469 2.621815 0
143.5096 -36.97469 2.621815 0
143.2096 -37.22469 2.971815 0
143.3096 -37.02469 2.971815 0
143.5096 -37.17469 2.921815 0
143.3596 -37.02469 2.971815 0
143.4096 -37.02469 2.971815 0
143.5096 -37.02469 2.971815 0
143.6596 -39.27469 0.7218148 0
143.6096 -38.92469 0.7718147 0
143.6596 -39.02469 0.7218148 0
143.9096 -39.17469 0.7218148 0
143.8596 -38.97469 0.7718147 0
144.1096 -39.22469 0.8218147 0
144.0096 -39.02469 0.8218147 0
144.1596 -39.07469 0.7218148 0
144.1596 -38.97469 0.8218147 0
144.2596 -39.02469 0.7218148 0
144.2596 -38.92469 0.8218147 0
143.6096 -39.12469 1.021815 0
143.6096 -39.07469 1.071815 0
143.6096 -38.92469 1.021815 0
143.6596 -38.97469 0.9218147 0
143.7096 -38.97469 0.8718147 0
143.7096 -38.97469 1.021815 0
143.8096 -38.87469 0.8718147 0
143.8096 -39.02469 1.071815 0
143.7596 -39.07469 1.321815 0
143.7596 -38.92469 1.421815 0
143.6596 -38.72469 1.171815 0
143.8096 -38.72469 0.9218147 0
143.6096 -38.77469 1.621815 0
143.7596 -38.77469 1.321815 0
144.0096 -38.97469 0.8718147 0
144.1596 -38.92469 0.8718147 0
144.0596 -38.87469 1.421815 0
144.0096 -38.82469 0.9218147 0
144.2096 -38.82469 0.9218147 0
144.2596 -38.82469 0.8718147 0
144.3096 -38.72469 0.9218147 0
144.3596 -38.97469 0.7218148 0
144.3596 -38.87469 0.8218147 0
144.4596 -38.92469 0.7218148 0
144.5596 -38.87469 0.7218148 0
144.4596 -38.82469 0.8218147 0
144.5596 -38.72469 0.8218147 0
144.6596 -38.82469 0.7218148 0
144.6596 -38.67469 0.7218148 0
144.7096 -38.62469 0.7218148 0
144.6596 -38.62469 0.8218147 0
144.8096 -38.52469 0.7218148 0
144.4096 -38.77469 0.8718147 0
144.4596 -38.67469 0.9218147 0
144.5096 -38.72469 0.8718147 0
144.6096 -38.62469 0.8718147 0
144.7096 -38.52469 0.9218147 0
144.4096 -38.72469 1.471815 0
143.7096 -38.67469 1.721815 0
143.6096 -38.62469 1.921815 0
143.5596 -38.52469 1.971815 0
143.5596 -38.52469 2.021815 0
143.8596 -38.72469 1.921815 0
143.8096 -38.57469 1.971815 0
143.6596 -38.52469 2.071815 0
143.8596 -38.52469 2.121815 0
143.9096 -38.52469 2.071815 0
143.8596 -38.52469 2.271815 0
144.1596 -38.52469 1.821815 0
144.2096 -38.52469 1.821815 0
143.6096 -38.47469 2.521815 0
143.6096 -38.47469 2.771815 0
143.7596 -38.47469 2.821815 0
143.5596 -37.57469 0.1218147 0
143.6096 -37.62469 0.1218147 0
143.5596 -37.52469 0.1218147 0
143.7096 -37.57469 0.07181472 0
143.6596 -37.52469 0.1218147 0
143.5596 -37.62469 0.3718147 0
143.5596 -37.57469 0.3718147 0
143.6096 -37.62469 0.3718147 0
143.6096 -37.52469 0.3718147 0
143.6596 -37.52469 0.3718147 0
143.7096 -37.52469 0.4218147 0
143.8096 -37.47469 0.07181472 0
143.7596 -37.62469 0.4218147 0
143.8096 -37.47469 0.4218147 0
143.5596 -37.62469 0.6218147 0
143.6096 -37.57469 0.6218147 0
143.6096 -37.52469 0.6218147 0
143.6596 -37.62469 0.6218147 0
143.6596 -37.62469 0.6718147 0
143.6596 -37.52469 0.6718147 0
143.8596 -37.47469 0.4718147 0
143.8096 -37.52469 0.8218147 0
144.3096 -37.07469 0.9718148 0
144.9096 -38.42469 0.8218147 0
144.9596 -38.32469 0.8218147 0
144.4096 -37.82469 1.021815 0
144.4596 -37.77469 1.021815 0
144.4596 -37.67469 1.021815 0
144.8096 -38.42469 0.8718147 0
144.8096 -38.37469 0.9218147 0
144.9096 -38.37469 0.8718147 0
144.9096 -38.27469 0.9218147 0
144.9596 -38.27469 0.8718147 0
145.0596 -38.17469 0.8718147 0
144.4596 -37.52469 1.021815 0
144.4596 -37.42469 1.021815 0
144.4596 -37.32469 0.9718148 0
144.4096 -37.22469 0.9718148 0
144.7096 -37.12469 1.021815 0
144.7596 -37.42469 0.9718148 0
144.7596 -37.27469 0.9718148 0
144.7596 -37.17469 0.9718148 0
144.9096 -37.12469 1.021815 0
144.9096 -37.02469 1.021815 0
144.9096 -36.92469 0.9718148 0
144.9096 -36.87469 0.9718148 0
144.9596 -37.12469 0.9718148 0
144.9596 -37.02469 0.9718148 0
144.7596 -36.87469 1.621815 0
143.7596 -38.37469 2.271815 0
144.2596 -38.42469 1.871815 0
144.2596 -38.37469 1.871815 0
143.6596 -38.42469 2.471815 0
143.6596 -38.32469 2.521815 0
143.9596 -38.32469 2.521815 0
143.6596 -37.32469 2.421815 0
143.5596 -37.02469 2.221815 0
143.5596 -36.87469 2.121815 0
143.6596 -36.92469 2.171815 0
143.6096 -37.02469 2.421815 0
143.6596 -36.97469 2.271815 0
143.7096 -37.02469 2.321815 0
143.7096 -36.87469 2.371815 0
143.7596 -37.07469 2.421815 0
143.8096 -36.87469 2.171815 0
143.8096 -36.97469 2.271815 0
143.8596 -36.97469 2.371815 0
143.9096 -36.92469 2.271815 0
143.8596 -36.87469 2.371815 0
144.3096 -36.87469 1.871815 0
143.9596 -36.97469 2.421815 0
143.9596 -36.92469 2.371815 0
143.6096 -37.12469 2.571815 0
143.6096 -37.17469 2.721815 0
143.5596 -36.97469 2.621815 0
143.6096 -36.92469 2.521815 0
143.5596 -36.87469 2.571815 0
143.5596 -36.87469 2.621815 0
143.6596 -36.87469 2.721815 0
143.9096 -36.97469 2.671815 0
143.5596 -36.97469 2.871815 0
143.5596 -37.02469 3.021815 0
143.6596 -36.97469 2.971815 0
143.7096 -37.02469 3.021815 0
143.7596 -37.02469 3.021815 0
143.8096 -36.97469 3.021815 0
143.7596 -36.92469 2.921815 0
143.9096 -36.97469 3.021815 0
143.9096 -36.92469 2.921815 0
144.0596 -36.87469 2.671815 0
144.1596 -36.97469 2.771815 0
144.1596 -36.87469 2.671815 0
144.0596 -37.07469 3.121815 0
143.9596 -36.97469 3.021815 0
144.1096 -36.97469 2.921815 0
144.1096 -36.97469 3.071815 0
144.2096 -37.07469 3.071815 0
144.3096 -36.97469 2.971815 0
144.3096 -36.97469 3.071815 0
144.4596 -36.97469 1.771815 0
144.5596 -37.02469 1.771815 0
144.3596 -36.97469 2.421815 0
144.5096 -36.92469 2.421815 0
144.7596 -36.97469 1.821815 0
144.4096 -37.12469 2.471815 0
144.4096 -36.92469 2.771815 0
144.5596 -37.07469 3.071815 0
143.5096 -37.67469 3.571815 0
143.5096 -37.37469 3.321815 0
143.4096 -37.32469 3.471815 0
143.4596 -37.12469 3.421815 0
143.6096 -37.57469 3.521815 0
143.7096 -37.52469 3.521815 0
143.7096 -37.42469 3.371815 0
143.7596 -37.57469 3.771815 0
143.7596 -37.52469 3.971815 0
143.8596 -37.32469 3.721815 0
143.8096 -37.37469 4.021815 0
143.8596 -37.32469 3.921815 0
143.6596 -37.12469 3.421815 0
143.6096 -37.12469 3.471815 0
143.8096 -37.17469 3.321815 0
143.7596 -37.12469 3.471815 0
143.8596 -37.12469 3.471815 0
143.9096 -37.07469 3.471815 0
143.9096 -36.97469 3.271815 0
143.9096 -37.22469 4.021815 0
144.0596 -37.27469 3.721815 0
143.9596 -37.07469 3.471815 0
144.0096 -37.02469 3.471815 0
144.1096 -36.97469 3.471815 0
144.1596 -37.12469 3.321815 0
143.9596 -37.07469 3.871815 0
144.2096 -37.22469 3.721815 0
144.1596 -37.17469 3.921815 0
143.7596 -37.57469 4.071815 0
144.1096 -37.32469 4.071815 0
144.6596 -37.27469 3.771815 0
144.3596 -37.02469 3.721815 0
142.4096 -36.82469 0.8218147 0
142.3096 -36.82469 0.9218147 0
142.5096 -36.82469 1.021815 0
142.5096 -36.77469 1.021815 0
142.4096 -36.67469 1.071815 0
142.4596 -36.52469 1.071815 0
142.5596 -36.77469 1.021815 0
142.6096 -36.77469 0.9718148 0
142.5596 -36.67469 1.021815 0
142.6096 -36.67469 0.9718148 0
142.7096 -36.77469 1.121815 0
142.6596 -36.82469 1.221815 0
142.6596 -36.77469 1.171815 0
142.7096 -36.67469 1.071815 0
142.6596 -36.67469 1.171815 0
142.7096 -36.72469 1.221815 0
142.5596 -36.62469 1.021815 0
142.6096 -36.57469 0.9718148 0
142.6096 -36.57469 1.021815 0
142.6096 -36.52469 1.021815 0
142.6096 -36.47469 1.021815 0
142.5596 -36.82469 1.421815 0
142.6096 -36.72469 1.271815 0
142.6596 -36.77469 1.321815 0
142.6596 -36.72469 1.321815 0
142.7096 -36.67469 1.321815 0
142.6596 -36.42469 1.021815 0
143.3596 -36.12469 0.8218147 0
143.4596 -36.17469 0.8218147 0
143.4596 -36.07469 0.8218147 0
142.8096 -36.77469 0.9218147 0
142.8096 -36.82469 1.071815 0
142.8096 -36.67469 1.071815 0
142.7596 -36.57469 0.9718148 0
142.8096 -36.47469 0.9718148 0
142.8596 -36.52469 0.9218147 0
142.7596 -36.57469 1.071815 0
142.7596 -36.52469 1.071815 0
142.8096 -36.47469 1.071815 0
142.8596 -36.52469 1.071815 0
143.0096 -36.72469 1.021815 0
143.0596 -36.77469 1.221815 0
143.0096 -36.52469 0.9218147 0
143.1096 -36.62469 0.9718148 0
142.9596 -36.47469 1.121815 0
143.1096 -36.62469 1.221815 0
142.8596 -36.82469 1.271815 0
142.8596 -36.77469 1.271815 0
142.8596 -36.72469 1.271815 0
142.9096 -36.72469 1.421815 0
142.7596 -36.82469 1.471815 0
142.8096 -36.77469 1.521815 0
142.8596 -36.67469 1.471815 0
142.9096 -36.67469 1.521815 0
142.7596 -36.62469 1.321815 0
142.8096 -36.52469 1.321815 0
142.8596 -36.47469 1.321815 0
142.7596 -36.62469 1.471815 0
142.9596 -36.77469 1.271815 0
143.0096 -36.82469 1.421815 0
143.0096 -36.67469 1.321815 0
142.9596 -36.67469 1.421815 0
143.1096 -36.67469 1.371815 0
143.0096 -36.77469 1.571815 0
143.0596 -36.72469 1.571815 0
143.0096 -36.62469 1.271815 0
143.0096 -36.57469 1.421815 0
143.0596 -36.62469 1.271815 0
143.0596 -36.57469 1.321815 0
143.1096 -36.62469 1.271815 0
143.1096 -36.52469 1.271815 0
143.0596 -36.47469 1.421815 0
142.9596 -36.62469 1.521815 0
142.9596 -36.62469 1.571815 0
143.0096 -36.52469 1.521815 0
143.1096 -36.62469 1.571815 0
143.0596 -36.47469 1.521815 0
143.0596 -36.52469 1.571815 0
142.8596 -36.32469 0.9718148 0
142.9096 -36.42469 1.071815 0
142.9596 -36.27469 0.9718148 0
143.0096 -36.32469 0.9718148 0
143.0596 -36.42469 1.021815 0
143.1096 -36.27469 0.9718148 0
143.0096 -36.37469 1.121815 0
143.0096 -36.37469 1.221815 0
143.0596 -36.42469 1.071815 0
143.1096 -36.37469 1.071815 0
143.0596 -36.32469 1.121815 0
143.0596 -36.22469 0.8718147 0
143.1096 -36.17469 0.8718147 0
143.1096 -36.37469 1.421815 0
142.9596 -36.42469 1.521815 0
143.0596 -36.42469 1.521815 0
143.2096 -36.62469 0.9718148 0
143.2096 -36.57469 1.221815 0
143.3096 -36.47469 1.221815 0
143.3596 -36.57469 1.121815 0
143.5096 -36.47469 1.121815 0
143.1596 -36.57469 1.271815 0
143.1596 -36.47469 1.321815 0
143.2096 -36.47469 1.271815 0
143.1596 -36.52469 1.371815 0
143.3096 -36.57469 1.271815 0
143.2596 -36.57469 1.421815 0
143.2596 -36.52469 1.421815 0
143.1596 -36.52469 1.571815 0
143.3596 -36.72469 1.571815 0
143.4096 -36.57469 1.471815 0
143.3596 -36.57469 1.621815 0
143.4596 -36.47469 1.471815 0
143.4596 -36.52469 1.571815 0
143.4596 -36.47469 1.621815 0
143.2096 -36.32469 1.021815 0
143.2596 -36.27469 0.9718148 0
143.3096 -36.42469 1.071815 0
143.3096 -36.22469 0.8718147 0
143.3096 -36.22469 0.9218147 0
143.3596 -36.32469 1.021815 0
143.4096 -36.32469 0.9718148 0
143.5096 -36.27469 0.8718147 0
143.3596 -36.32469 1.221815 0
143.4596 -36.42469 1.121815 0
143.3596 -36.17469 0.8718147 0
143.5096 -36.22469 0.9218147 0
143.4096 -36.22469 1.221815 0
143.4596 -36.17469 1.171815 0
143.5096 -36.12469 1.221815 0
143.1596 -36.42469 1.321815 0
143.2096 -36.37469 1.321815 0
143.2096 -36.42469 1.371815 0
143.2596 -36.37469 1.271815 0
143.2596 -36.37469 1.371815 0
143.3096 -36.42469 1.421815 0
143.2596 -36.32469 1.271815 0
143.2596 -36.27469 1.321815 0
143.1596 -36.42469 1.621815 0
143.1596 -36.32469 1.521815 0
143.2596 -36.42469 1.571815 0
143.3096 -36.32469 1.571815 0
143.1596 -36.22469 1.271815 0
143.3096 -36.22469 1.271815 0
143.4596 -36.27469 1.421815 0
142.9096 -36.82469 1.721815 0
143.0096 -36.82469 1.821815 0
142.9596 -36.72469 1.671815 0
143.0596 -36.82469 1.671815 0
143.1096 -36.77469 1.671815 0
143.0596 -36.77469 1.771815 0
143.1096 -36.67469 1.671815 0
143.1096 -36.67469 1.771815 0
143.0596 -36.82469 1.921815 0
143.1096 -36.77469 1.921815 0
143.1596 -36.72469 1.771815 0
143.2096 -36.67469 1.771815 0
143.2096 -36.67469 1.821815 0
143.2596 -36.82469 1.671815 0
143.3096 -36.67469 1.671815 0
143.1596 -36.77469 1.921815 0
143.2096 -36.72469 1.921815 0
143.3096 -36.77469 1.871815 0
143.3096 -36.77469 1.971815 0
143.2096 -36.62469 1.671815 0
143.2096 -36.57469 1.671815 0
143.2596 -36.62469 1.821815 0
143.2596 -36.52469 1.671815 0
143.4096 -36.77469 1.971815 0
143.3596 -36.72469 1.921815 0
143.4596 -36.72469 1.871815 0
143.4596 -36.67469 1.921815 0
143.3596 -36.62469 1.821815 0
143.3596 -36.57469 1.821815 0
143.4596 -36.57469 1.821815 0
143.2096 -36.82469 2.221815 0
143.2596 -36.82469 2.171815 0
143.2596 -36.77469 2.221815 0
143.4096 -36.82469 2.071815 0
143.4096 -36.82469 2.121815 0
143.5596 -36.17469 0.8218147 0
143.6096 -36.07469 0.8218147 0
143.7096 -36.22469 0.8218147 0
143.8096 -36.27469 0.8218147 0
143.8096 -36.17469 0.7218148 0
143.8096 -36.12469 0.8218147 0
143.8596 -36.12469 0.7718147 0
143.9596 -36.27469 0.8218147 0
144.1096 -36.32469 0.8218147 0
143.9596 -36.17469 0.7218148 0
144.0096 -36.22469 0.8218147 0
144.0596 -36.22469 0.7718147 0
144.1096 -36.17469 0.7718147 0
144.1096 -36.12469 0.7218148 0
144.2596 -36.32469 0.8218147 0
144.2096 -36.22469 0.7718147 0
144.2096 -36.22469 0.8218147 0
144.3096 -36.22469 0.7718147 0
143.8096 -36.47469 1.121815 0
143.6096 -36.77469 1.271815 0
143.5596 -36.62469 1.421815 0
143.7096 -36.47469 1.271815 0
143.6096 -36.47469 1.621815 0
143.7596 -36.57469 1.471815 0
143.6096 -36.32469 0.9218147 0
143.5596 -36.32469 1.021815 0
143.7096 -36.32469 1.021815 0
143.6096 -36.42469 1.121815 0
143.6096 -36.27469 1.121815 0
143.6596 -36.22469 0.9218147 0
143.6096 -36.17469 1.121815 0
143.5596 -36.22469 1.171815 0
143.8096 -36.32469 0.9218147 0
143.8596 -36.37469 1.021815 0
143.9096 -36.27469 1.021815 0
143.7596 -36.27469 1.221815 0
143.8596 -36.42469 1.121815 0
143.9096 -36.32469 1.171815 0
143.7596 -36.22469 0.8718147 0
143.8096 -36.22469 0.9218147 0
143.7596 -36.22469 1.121815 0
143.7596 -36.17469 1.121815 0
143.6096 -36.42469 1.371815 0
143.6596 -36.37469 1.321815 0
143.6596 -36.32469 1.421815 0
143.5596 -36.37469 1.571815 0
143.7096 -36.32469 1.571815 0
143.5596 -36.22469 1.421815 0
143.6596 -36.22469 1.371815 0
143.7596 -36.42469 1.371815 0
143.8596 -36.32469 1.271815 0
143.8096 -36.32469 1.471815 0
143.8096 -36.17469 1.371815 0
144.0096 -36.57469 1.121815 0
144.1596 -36.47469 1.021815 0
144.0596 -36.57469 1.521815 0
144.2596 -36.77469 1.571815 0
144.1596 -36.57469 1.371815 0
144.2096 -36.47469 1.271815 0
144.1596 -36.47469 1.571815 0
144.2596 -36.62469 1.521815 0
143.9596 -36.37469 0.9218147 0
144.0096 -36.27469 0.9218147 0
144.0596 -36.37469 0.9218147 0
144.1096 -36.37469 1.021815 0
144.0596 -36.32469 0.9218147 0
144.0596 -36.42469 1.121815 0
144.1096 -36.32469 1.121815 0
144.0596 -36.22469 1.021815 0
144.0096 -36.07469 1.221815 0
144.0596 -36.22469 1.221815 0
144.1096 -36.12469 1.221815 0
144.1596 -36.42469 0.9218147 0
144.2096 -36.32469 0.9218147 0
144.2596 -36.37469 1.121815 0
144.3096 -36.42469 1.071815 0
144.3096 -36.37469 1.221815 0
144.3096 -36.27469 1.071815 0
144.1596 -36.12469 1.121815 0
144.0096 -36.37469 1.271815 0
144.0096 -36.27469 1.371815 0
143.9596 -36.37469 1.571815 0
143.9596 -36.22469 1.321815 0
144.2096 -36.32469 1.421815 0
144.2596 -36.07469 1.271815 0
143.6596 -36.02469 0.7718147 0
144.5096 -36.27469 0.7718147 0
144.3596 -36.17469 0.7218148 0
144.3596 -36.47469 0.9718148 0
144.4096 -36.52469 1.071815 0
144.6096 -36.52469 0.9718148 0
144.6596 -36.47469 0.9718148 0
144.7096 -36.52469 0.9718148 0
144.3596 -36.77469 1.271815 0
144.3596 -36.62469 1.371815 0
144.4596 -36.62469 1.621815 0
144.7096 -36.82469 1.321815 0
144.6596 -36.72469 1.321815 0
144.5596 -36.57469 1.421815 0
144.4096 -36.37469 0.9218147 0
144.4096 -36.32469 0.8718147 0
144.3596 -36.42469 1.221815 0
144.5096 -36.37469 1.171815 0
144.4096 -36.17469 1.021815 0
144.4096 -36.22469 1.121815 0
144.6096 -36.42469 0.9218147 0
144.6096 -36.32469 0.8718147 0
144.6096 -36.32469 1.121815 0
144.7096 -36.42469 1.171815 0
144.5596 -36.17469 1.021815 0
144.5096 -36.42469 1.271815 0
144.5096 -36.22469 1.271815 0
144.9096 -36.77469 0.9718148 0
144.9096 -36.67469 0.9718148 0
145.0096 -36.47469 0.9718148 0
144.9596 -36.47469 1.071815 0
144.8596 -36.77469 1.471815 0
144.8096 -36.57469 1.321815 0
144.8096 -36.37469 0.8718147 0
144.8096 -36.42469 0.9718148 0
144.8596 -36.32469 1.171815 0
145.0596 -36.37469 1.171815 0
144.7596 -36.32469 1.271815 0
144.9096 -36.12469 1.271815 0
143.6096 -36.72469 1.771815 0
143.5596 -36.67469 1.871815 0
143.5596 -36.72469 2.021815 0
143.5596 -36.67469 1.971815 0
143.6596 -36.82469 1.971815 0
143.7096 -36.67469 2.021815 0
143.5596 -36.57469 1.821815 0
143.6596 -36.52469 1.821815 0
143.6096 -36.62469 1.921815 0
143.7096 -36.62469 1.871815 0
143.7096 -36.62469 1.971815 0
143.6596 -36.52469 1.871815 0
143.8096 -36.72469 1.971815 0
143.7596 -36.57469 1.671815 0
143.8096 -36.57469 1.671815 0
143.7596 -36.57469 1.771815 0
143.8096 -36.47469 1.821815 0
143.9096 -36.47469 1.721815 0
143.8096 -36.62469 1.971815 0
143.8596 -36.57469 1.871815 0
143.9096 -36.57469 1.971815 0
143.9096 -36.47469 1.971815 0
143.6096 -36.82469 2.171815 0
143.7096 -36.82469 2.121815 0
143.7096 -36.67469 2.221815 0
143.8096 -36.77469 2.121815 0
143.8596 -36.82469 2.221815 0
143.8596 -36.67469 2.071815 0
143.9096 -36.72469 2.221815 0
143.8096 -36.77469 2.271815 0
143.7596 -36.72469 2.371815 0
143.7596 -36.62469 2.171815 0
143.9096 -36.42469 1.821815 0
144.0596 -36.62469 1.671815 0
144.1096 -36.57469 1.821815 0
144.0096 -36.62469 1.921815 0
144.0096 -36.52469 1.871815 0
144.0096 -36.52469 2.021815 0
144.1096 -36.47469 1.871815 0
144.2096 -36.72469 1.821815 0
144.2096 -36.52469 1.921815 0
143.9596 -36.82469 2.171815 0
143.9596 -36.72469 2.121815 0
144.0596 -36.67469 2.121815 0
144.1096 -36.72469 2.171815 0
144.0096 -36.82469 2.271815 0
144.0096 -36.82469 2.421815 0
144.0096 -36.72469 2.371815 0
144.1096 -36.82469 2.271815 0
143.9596 -36.62469 2.071815 0
144.1096 -36.57469 2.121815 0
144.2596 -36.67469 2.171815 0
144.2096 -36.82469 2.421815 0
144.2096 -36.77469 2.371815 0
144.2096 -36.62469 2.121815 0
144.3096 -36.57469 2.121815 0
144.0596 -36.42469 1.721815 0
143.6096 -36.77469 2.621815 0
143.7096 -36.77469 2.521815 0
143.6596 -36.77469 2.571815 0
143.7596 -36.77469 2.621815 0
143.8096 -36.77469 2.621815 0
143.8096 -36.72469 2.521815 0
143.8096 -36.77469 2.671815 0
144.0096 -36.77469 2.571815 0
144.0596 -36.77469 2.621815 0
143.9596 -36.77469 2.721815 0
144.2096 -36.82469 2.571815 0
144.2596 -36.67469 2.621815 0
144.1596 -36.77469 2.721815 0
144.4096 -36.67469 1.721815 0
144.4096 -36.72469 1.771815 0
144.5096 -36.82469 1.771815 0
144.5096 -36.57469 1.721815 0
144.4096 -36.47469 1.921815 0
144.3596 -36.62469 2.071815 0
144.4096 -36.57469 2.171815 0
144.5596 -36.37469 1.921815 0
144.8096 -36.62469 1.771815 0
144.4596 -36.62469 2.671815 0
144.7096 -36.72469 2.671815 0
141.2596 -29.82469 0.07181472 0
141.3096 -27.57469 0.07181472 0
141.4596 -27.57469 0.07181472 0
141.2596 -25.52469 0.07181472 0
141.4096 -25.47469 0.07181472 0
141.5096 -25.47469 0.07181472 0
141.6596 -25.42469 0.07181472 0
143.4596 -27.47469 0.6218147 0
143.5096 -27.52469 0.6218147 0
143.4596 -27.52469 0.7218148 0
143.5096 -27.47469 0.7718147 0
143.4096 -27.37469 0.6218147 0
143.3596 -27.27469 0.6218147 0
143.4096 -27.32469 0.6218147 0
143.5096 -27.42469 0.6218147 0
143.4596 -27.27469 0.6218147 0
143.4096 -27.37469 0.7218148 0
143.3596 -27.27469 0.7218148 0
143.4096 -27.32469 0.7718147 0
143.4596 -27.42469 0.7218148 0
143.4596 -27.42469 0.7718147 0
143.4096 -27.32469 1.071815 0
143.5096 -27.37469 1.071815 0
143.4096 -27.37469 1.271815 0
143.4096 -27.27469 1.271815 0
143.6096 -27.67469 0.7718147 0
143.6596 -27.77469 0.7718147 0
143.7096 -27.82469 0.7718147 0
143.5596 -27.52469 0.6218147 0
143.7096 -27.57469 0.6218147 0
143.5596 -27.62469 0.7218148 0
143.5596 -27.57469 0.7718147 0
143.6096 -27.42469 0.6218147 0
143.5596 -27.32469 0.6218147 0
143.9096 -27.62469 0.7218148 0
143.7596 -27.42469 0.7218148 0
144.0596 -27.97469 0.7718147 0
144.1596 -27.97469 0.7718147 0
144.3096 -28.02469 0.7718147 0
143.7596 -27.72469 0.9718148 0
143.9096 -27.77469 0.9718148 0
143.9096 -27.67469 0.9218147 0
143.9096 -27.67469 1.121815 0
143.8596 -27.72469 1.271815 0
143.6596 -27.62469 0.9718148 0
143.5596 -27.47469 1.071815 0
143.6596 -27.47469 1.071815 0
143.7096 -27.37469 0.9218147 0
143.6596 -27.27469 0.9218147 0
143.7096 -27.27469 0.9718148 0
143.5596 -27.27469 1.171815 0
143.7096 -27.37469 1.171815 0
143.6596 -27.32469 1.071815 0
143.7596 -27.47469 0.9218147 0
143.8596 -27.57469 0.9218147 0
143.9096 -27.52469 0.8718147 0
143.7596 -27.57469 1.121815 0
143.8596 -27.62469 1.121815 0
143.9096 -27.47469 1.121815 0
143.8096 -27.42469 0.8718147 0
143.7596 -27.42469 0.9718148 0
143.7596 -27.32469 0.8718147 0
143.8096 -27.27469 0.8718147 0
143.9096 -27.37469 0.8718147 0
143.8096 -27.37469 1.121815 0
143.8596 -27.42469 1.171815 0
143.7096 -27.47469 1.421815 0
143.5596 -27.32469 1.421815 0
143.6096 -27.27469 1.421815 0
143.6596 -27.42469 1.421815 0
143.7096 -27.37469 1.371815 0
143.6596 -27.32469 1.321815 0
143.7096 -27.27469 1.271815 0
143.6596 -27.32469 1.421815 0
143.9096 -27.57469 1.421815 0
143.8596 -27.47469 1.421815 0
143.9096 -27.47469 1.371815 0
143.7596 -27.37469 1.421815 0
143.7596 -27.27469 1.271815 0
143.8096 -27.32469 1.271815 0
143.8096 -27.27469 1.371815 0
143.9096 -27.37469 1.271815 0
143.8596 -27.42469 1.421815 0
143.7596 -27.27469 1.571815 0
143.8596 -27.32469 1.571815 0
143.9596 -27.82469 0.9718148 0
144.0096 -27.72469 0.9218147 0
144.0096 -27.67469 0.8718147 0
144.0096 -27.72469 1.121815 0
144.2096 -27.82469 0.9218147 0
144.2596 -27.77469 0.9218147 0
144.3096 -27.82469 0.9218147 0
144.2596 -27.67469 1.121815 0
144.1096 -27.87469 1.271815 0
143.9596 -27.77469 1.271815 0
144.0596 -27.82469 1.271815 0
144.1096 -27.67469 1.421815 0
144.2096 -27.72469 1.471815 0
144.3096 -27.77469 1.471815 0
143.9596 -27.62469 0.8718147 0
143.9596 -27.47469 0.9218147 0
144.0596 -27.62469 0.9218147 0
143.9596 -27.52469 1.171815 0
144.0596 -27.57469 1.171815 0
144.1096 -27.52469 1.121815 0
144.0096 -27.27469 0.9718148 0
144.1096 -27.42469 1.171815 0
144.1596 -27.47469 1.021815 0
144.1596 -27.62469 1.221815 0
144.0096 -27.62469 1.421815 0
144.0596 -27.47469 1.321815 0
143.9596 -27.47469 1.471815 0
144.1096 -27.52469 1.471815 0
144.0096 -27.42469 1.321815 0
143.9596 -27.37469 1.571815 0
144.0596 -27.37469 1.621815 0
144.1596 -27.57469 1.421815 0
144.2096 -27.62469 1.471815 0
144.2596 -27.47469 1.621815 0
144.1596 -27.42469 1.621815 0
144.4596 -28.02469 0.7718147 0
144.8596 -27.87469 0.7718147 0
144.8596 -27.82469 0.8218147 0
144.9596 -27.77469 0.8218147 0
145.1096 -27.77469 0.8218147 0
144.4096 -27.92469 0.8718147 0
144.5096 -27.92469 0.8718147 0
144.3596 -27.82469 0.9218147 0
144.4096 -27.82469 0.9218147 0
144.3596 -27.77469 1.021815 0
144.7096 -27.97469 0.8718147 0
144.6096 -27.72469 1.021815 0
144.6596 -27.67469 1.121815 0
144.4096 -27.67469 1.521815 0
144.4596 -27.77469 1.471815 0
144.5596 -27.87469 1.471815 0
144.6596 -27.87469 1.471815 0
144.5596 -27.72469 1.521815 0
144.7096 -27.77469 1.571815 0
144.5096 -27.62469 1.121815 0
144.4096 -27.62469 1.471815 0
144.4096 -27.52469 1.621815 0
144.8096 -27.77469 1.071815 0
145.1096 -27.72469 0.8718147 0
145.0096 -27.67469 1.171815 0
145.0596 -27.77469 1.071815 0
144.9096 -27.87469 1.521815 0
144.8096 -27.77469 1.521815 0
144.8596 -27.62469 1.171815 0
144.8596 -27.47469 1.321815 0
145.0096 -27.47469 1.321815 0
143.9096 -27.47469 1.771815 0
143.8096 -27.32469 1.671815 0
143.7596 -27.27469 1.771815 0
143.8596 -27.37469 1.771815 0
143.7596 -27.27469 1.871815 0
143.8596 -27.32469 1.871815 0
143.9596 -27.52469 1.771815 0
144.0096 -27.32469 1.721815 0
143.9596 -27.37469 1.871815 0
144.0596 -27.42469 1.921815 0
144.1596 -27.52469 1.921815 0
144.3096 -27.57469 1.921815 0
144.2596 -27.32469 1.971815 0
144.0596 -27.32469 2.171815 0
144.1596 -27.37469 2.171815 0
144.2096 -27.27469 2.071815 0
144.1596 -27.27469 2.221815 0
144.3096 -27.32469 2.071815 0
144.2596 -27.32469 2.271815 0
144.5096 -27.67469 1.971815 0
144.5096 -27.57469 1.671815 0
144.4096 -27.62469 1.921815 0
144.5096 -27.32469 1.721815 0
144.4596 -27.27469 1.821815 0
144.4096 -27.42469 2.021815 0
144.4096 -27.32469 1.921815 0
144.4096 -27.27469 1.871815 0
144.5096 -27.32469 1.871815 0
144.6596 -27.62469 1.671815 0
144.6596 -27.57469 1.771815 0
144.7096 -27.47469 1.871815 0
144.6096 -27.32469 1.821815 0
144.6596 -27.37469 1.871815 0
144.4096 -27.27469 2.221815 0
144.4596 -27.37469 2.071815 0
144.5096 -27.37469 2.221815 0
144.3596 -27.32469 2.271815 0
144.5096 -27.37469 2.271815 0
144.6596 -27.47469 2.071815 0
144.5596 -27.42469 2.121815 0
144.6096 -27.27469 2.421815 0
144.7096 -27.32469 2.371815 0
144.7596 -27.67469 1.671815 0
144.7596 -27.52469 1.771815 0
144.8596 -27.42469 1.821815 0
144.8096 -27.37469 1.871815 0
144.8096 -27.37469 1.921815 0
144.8096 -27.37469 2.271815 0
144.7596 -27.37469 2.371815 0
143.0596 -26.87469 0.7218148 0
143.1096 -26.92469 0.7218148 0
143.0596 -26.82469 0.7218148 0
143.3096 -27.17469 0.6218147 0
143.3096 -27.12469 0.6218147 0
143.2096 -27.07469 0.7218148 0
143.2596 -27.17469 0.7218148 0
143.3096 -27.22469 0.7218148 0
143.3096 -27.17469 0.7718147 0
143.2596 -27.07469 0.7718147 0
143.2096 -27.02469 0.6218147 0
143.2596 -27.02469 0.6218147 0
143.2096 -27.02469 0.7218148 0
143.2096 -26.97469 0.7718147 0
143.4096 -27.22469 0.6218147 0
143.4096 -27.12469 0.6218147 0
143.5096 -27.22469 0.6218147 0
143.3596 -27.22469 0.7718147 0
143.3596 -27.02469 0.6218147 0
143.3596 -26.87469 0.6718147 0
143.4096 -26.87469 0.8218147 0
143.5096 -27.02469 0.6718147 0
143.5096 -26.92469 0.8218147 0
143.3096 -26.72469 0.8218147 0
143.2096 -26.62469 0.8218147 0
143.1596 -26.52469 0.8218147 0
143.2596 -26.57469 0.8218147 0
143.3596 -26.82469 0.8218147 0
143.3596 -26.67469 0.8218147 0
143.4096 -26.72469 0.8218147 0
143.3596 -26.57469 0.7218148 0
143.3096 -27.07469 1.121815 0
143.3096 -27.02469 1.121815 0
143.3096 -26.97469 1.121815 0
143.2596 -26.92469 1.121815 0
143.2596 -26.87469 1.071815 0
143.3096 -26.92469 1.121815 0
143.5096 -27.07469 0.9218147 0
143.4096 -27.22469 1.121815 0
143.3596 -27.12469 1.121815 0
143.5096 -27.07469 1.071815 0
143.4596 -27.07469 1.171815 0
143.4096 -26.87469 0.9218147 0
143.4596 -26.97469 0.9218147 0
143.5096 -27.02469 0.8718147 0
143.5096 -27.02469 1.021815 0
143.4596 -26.92469 0.9218147 0
143.5096 -26.87469 0.8718147 0
143.4596 -26.87469 1.021815 0
143.4096 -26.97469 1.071815 0
143.4096 -26.92469 1.071815 0
143.4096 -26.87469 1.071815 0
143.4596 -27.02469 1.071815 0
143.4096 -27.17469 1.271815 0
143.4096 -27.07469 1.271815 0
143.5096 -27.12469 1.421815 0
143.3596 -27.02469 1.271815 0
143.3596 -26.92469 1.271815 0
143.5096 -26.97469 1.471815 0
143.3096 -26.77469 0.9218147 0
143.3096 -26.72469 1.021815 0
143.2596 -26.82469 1.071815 0
143.2596 -26.82469 1.121815 0
143.2596 -26.77469 1.121815 0
143.2596 -26.72469 1.071815 0
143.2596 -26.67469 1.121815 0
143.2096 -26.62469 0.8718147 0
143.1596 -26.52469 0.8718147 0
143.1596 -26.47469 0.9218147 0
143.2096 -26.47469 1.021815 0
143.2596 -26.57469 1.021815 0
143.2096 -26.57469 1.121815 0
143.1596 -26.47469 1.121815 0
143.2596 -26.62469 1.071815 0
143.3096 -26.62469 1.071815 0
143.2596 -26.52469 1.071815 0
143.2596 -26.47469 1.071815 0
143.3596 -26.77469 1.021815 0
143.5096 -26.72469 1.021815 0
143.3596 -26.72469 1.071815 0
143.4596 -26.57469 0.9218147 0
143.5096 -26.62469 1.021815 0
143.3596 -26.52469 1.071815 0
143.4596 -26.57469 1.171815 0
143.4596 -26.47469 1.171815 0
143.3096 -26.72469 1.271815 0
143.3096 -26.62469 1.271815 0
143.2596 -26.52469 1.271815 0
143.3596 -26.82469 1.271815 0
143.5096 -26.82469 1.321815 0
143.5096 -26.72469 1.321815 0
143.5096 -26.82469 1.471815 0
143.4596 -26.72469 1.471815 0
143.5096 -26.62469 1.321815 0
143.5096 -26.62469 1.421815 0
143.5096 -26.57469 1.421815 0
143.4596 -26.52469 1.321815 0
143.5096 -26.47469 1.421815 0
143.4096 -26.47469 1.621815 0
143.1596 -26.42469 0.8218147 0
143.2096 -26.32469 0.8218147 0
143.2596 -26.42469 0.8218147 0
143.2596 -26.32469 0.8218147 0
143.2596 -26.22469 0.8218147 0
143.3096 -26.22469 0.8218147 0
143.2596 -26.12469 0.8218147 0
143.3096 -26.12469 0.8218147 0
143.5096 -26.22469 0.8218147 0
143.3096 -26.02469 0.8218147 0
143.3096 -25.87469 0.8218147 0
143.3596 -26.02469 0.8218147 0
143.3596 -25.92469 0.8218147 0
143.4096 -25.87469 0.8218147 0
143.4096 -25.82469 0.8218147 0
143.4096 -25.72469 0.8218147 0
143.4596 -25.67469 0.8218147 0
143.2096 -26.37469 0.9218147 0
143.2096 -26.27469 0.9218147 0
143.2596 -26.32469 1.021815 0
143.2096 -26.42469 1.071815 0
143.2096 -26.37469 1.171815 0
143.2096 -26.27469 1.171815 0
143.3096 -26.42469 1.071815 0
143.2596 -26.32469 1.071815 0
143.2596 -26.17469 0.9218147 0
143.3096 -26.17469 1.021815 0
143.2596 -26.07469 0.9218147 0
143.2096 -26.22469 1.171815 0
143.4096 -26.42469 0.9218147 0
143.4096 -26.32469 0.9218147 0
143.4096 -26.27469 0.9218147 0
143.4096 -26.32469 1.171815 0
143.5096 -26.27469 1.071815 0
143.4596 -26.27469 1.171815 0
143.4596 -26.17469 0.9218147 0
143.4596 -26.07469 0.9218147 0
143.4096 -26.17469 1.171815 0
143.5096 -26.22469 1.071815 0
143.2096 -26.37469 1.321815 0
143.2596 -26.42469 1.321815 0
143.2096 -26.22469 1.321815 0
143.2096 -26.12469 1.321815 0
143.4096 -26.42469 1.321815 0
143.4096 -26.32469 1.321815 0
143.4096 -26.27469 1.421815 0
143.5096 -26.37469 1.321815 0
143.4596 -26.42469 1.421815 0
143.4596 -26.32469 1.421815 0
143.4596 -26.27469 1.621815 0
143.4096 -26.22469 1.321815 0
143.4096 -26.17469 1.321815 0
143.4096 -26.17469 1.421815 0
143.3596 -26.12469 1.321815 0
143.4096 -26.07469 1.271815 0
143.4596 -26.22469 1.321815 0
143.4596 -26.12469 1.321815 0
143.4096 -26.12469 1.471815 0
143.3096 -25.97469 0.9218147 0
143.3596 -26.02469 1.021815 0
143.3596 -25.87469 0.9218147 0
143.4596 -25.97469 0.9218147 0
143.5096 -25.87469 0.9218147 0
143.3596 -25.82469 0.8718147 0
143.3596 -25.72469 0.8718147 0
143.5096 -25.77469 0.9218147 0
143.5096 -25.67469 0.9718148 0
143.5096 -25.77469 1.071815 0
143.2096 -26.02469 1.321815 0
143.3096 -26.02469 1.321815 0
143.3596 -25.97469 1.321815 0
143.4596 -25.97469 1.321815 0
143.5096 -25.87469 1.321815 0
143.5096 -25.97469 1.471815 0
143.5096 -25.82469 1.321815 0
143.5096 -25.67469 1.371815 0
143.5096 -26.82469 1.821815 0
143.5096 -26.67469 1.671815 0
143.4596 -26.72469 1.871815 0
143.5096 -26.57469 1.721815 0
143.4596 -26.62469 1.871815 0
143.4596 -26.52469 1.921815 0
143.5096 -26.37469 1.921815 0
143.5096 -25.62469 0.8718147 0
143.6596 -27.22469 0.6718147 0
143.7096 -27.07469 0.7218148 0
143.5596 -26.47469 0.8218147 0
143.6096 -27.17469 0.9218147 0
143.5596 -27.17469 0.9718148 0
143.5596 -27.12469 0.9218147 0
143.6096 -27.12469 0.8718147 0
143.5596 -27.07469 1.021815 0
143.6096 -27.12469 1.021815 0
143.7096 -27.22469 0.8718147 0
143.7096 -27.17469 0.8718147 0
143.6596 -27.22469 0.9718148 0
143.6596 -27.07469 0.8718147 0
143.5596 -27.17469 1.071815 0
143.6096 -27.22469 1.071815 0
143.5596 -27.17469 1.171815 0
143.6596 -27.12469 1.121815 0
143.6096 -26.97469 0.8718147 0
143.7096 -26.87469 0.9718148 0
143.6096 -26.92469 1.221815 0
143.6596 -27.02469 1.221815 0
143.9096 -27.07469 0.9718148 0
143.7596 -27.22469 1.121815 0
143.8096 -27.17469 1.071815 0
143.9096 -26.87469 1.071815 0
143.5596 -27.22469 1.421815 0
143.6096 -27.17469 1.421815 0
143.6096 -27.12469 1.321815 0
143.6096 -27.07469 1.421815 0
143.6596 -27.22469 1.321815 0
143.6596 -27.17469 1.271815 0
143.7096 -27.17469 1.571815 0
143.7096 -27.07469 1.571815 0
143.5596 -27.02469 1.321815 0
143.5596 -26.97469 1.421815 0
143.5596 -26.92469 1.321815 0
143.5596 -26.87469 1.421815 0
143.7096 -26.97469 1.371815 0
143.6596 -26.87469 1.371815 0
143.7096 -27.02469 1.571815 0
143.7096 -26.87469 1.621815 0
143.7596 -27.17469 1.371815 0
143.7596 -27.07469 1.371815 0
143.9096 -27.07469 1.621815 0
143.9096 -26.97469 1.421815 0
143.9096 -27.02469 1.621815 0
143.9096 -26.92469 1.521815 0
143.8596 -26.92469 1.621815 0
143.6096 -26.72469 0.9218147 0
143.5596 -26.77469 1.221815 0
143.5596 -26.67469 1.221815 0
143.6596 -26.52469 1.021815 0
143.7096 -26.47469 1.171815 0
143.8096 -26.77469 1.221815 0
143.5596 -26.77469 1.421815 0
143.6596 -26.72469 1.371815 0
143.6596 -26.82469 1.621815 0
143.6596 -26.72469 1.621815 0
143.6096 -26.62469 1.321815 0
143.6096 -26.57469 1.321815 0
143.5596 -26.47469 1.321815 0
143.6096 -26.52469 1.621815 0
143.6096 -26.47469 1.571815 0
143.6596 -26.62469 1.621815 0
143.8596 -26.77469 1.371815 0
143.8096 -26.72469 1.621815 0
143.8596 -26.77469 1.521815 0
143.8596 -26.82469 1.621815 0
143.8596 -26.67469 1.521815 0
143.8096 -26.62469 1.371815 0
143.8096 -26.57469 1.521815 0
143.8096 -26.62469 1.621815 0
143.7596 -26.52469 1.621815 0
143.9596 -27.17469 1.421815 0
143.9596 -27.02469 1.571815 0
144.3096 -26.97469 1.621815 0
144.0596 -26.47469 1.321815 0
144.2096 -26.67469 1.621815 0
143.5596 -26.12469 0.8218147 0
143.6096 -25.97469 0.8218147 0
143.6096 -25.82469 0.7718147 0
143.6096 -25.72469 0.7718147 0
143.6596 -26.37469 1.021815 0
143.6596 -26.27469 1.021815 0
143.6096 -26.32469 1.071815 0
143.6096 -26.27469 1.071815 0
143.7096 -26.32469 1.171815 0
143.7096 -26.17469 1.021815 0
143.6096 -26.17469 1.071815 0
143.5596 -26.12469 1.071815 0
143.5596 -26.07469 1.121815 0
143.6096 -26.12469 1.071815 0
143.6096 -26.07469 1.071815 0
143.8096 -26.32469 0.9218147 0
143.7596 -26.27469 1.221815 0
143.8596 -26.12469 0.9218147 0
143.8096 -26.17469 1.221815 0
143.8096 -26.07469 1.221815 0
143.7096 -26.42469 1.321815 0
143.6096 -26.42469 1.621815 0
143.5596 -26.32469 1.571815 0
143.6596 -26.37469 1.571815 0
143.7096 -26.32469 1.471815 0
143.5596 -26.07469 1.321815 0
143.6096 -26.07469 1.421815 0
143.6596 -26.22469 1.321815 0
143.6096 -26.22469 1.571815 0
143.6096 -26.12469 1.571815 0
143.6596 -26.22469 1.471815 0
143.6596 -26.22469 1.571815 0
143.6596 -26.07469 1.621815 0
143.7096 -26.12469 1.571815 0
143.7096 -26.07469 1.571815 0
143.7596 -26.42469 1.471815 0
143.7596 -26.42469 1.621815 0
143.9096 -26.12469 1.621815 0
143.7096 -26.02469 1.021815 0
143.7096 -25.92469 1.021815 0
143.6096 -25.97469 1.121815 0
143.6096 -25.92469 1.121815 0
143.6596 -25.92469 1.071815 0
143.5596 -25.72469 0.9218147 0
143.6096 -25.67469 0.9218147 0
143.6096 -25.67469 1.171815 0
143.7096 -25.82469 1.121815 0
143.7596 -25.87469 1.021815 0
143.8596 -25.92469 0.8718147 0
143.8096 -26.02469 1.171815 0
143.8096 -25.92469 1.171815 0
143.9096 -25.87469 1.221815 0
143.8096 -25.77469 1.021815 0
143.9096 -25.77469 0.8718147 0
143.8596 -25.72469 1.021815 0
143.7596 -25.82469 1.121815 0
143.8096 -25.77469 1.121815 0
143.8596 -25.72469 1.121815 0
143.5596 -25.92469 1.271815 0
143.6096 -25.87469 1.321815 0
143.6596 -25.97469 1.421815 0
143.6596 -25.87469 1.271815 0
143.7096 -25.87469 1.421815 0
143.7096 -25.97469 1.571815 0
143.7096 -25.97469 1.621815 0
143.7096 -25.87469 1.621815 0
143.5596 -25.82469 1.321815 0
143.6096 -25.77469 1.321815 0
143.6096 -25.67469 1.371815 0
143.7096 -25.82469 1.271815 0
143.6596 -25.67469 1.321815 0
143.6596 -25.77469 1.521815 0
143.7096 -25.82469 1.621815 0
143.9096 -25.97469 1.321815 0
143.7596 -25.92469 1.571815 0
143.7596 -25.87469 1.571815 0
143.9096 -26.02469 1.521815 0
143.7596 -25.77469 1.421815 0
143.7596 -25.72469 1.271815 0
143.8096 -25.72469 1.321815 0
143.8596 -25.77469 1.271815 0
143.9096 -25.77469 1.271815 0
143.8596 -25.67469 1.421815 0
143.7596 -25.72469 1.621815 0
143.9596 -26.27469 1.171815 0
144.0096 -26.12469 1.171815 0
144.1096 -26.37469 1.571815 0
144.0096 -25.97469 1.171815 0
144.0096 -25.82469 1.171815 0
144.2096 -25.97469 1.021815 0
144.2096 -25.72469 0.9718148 0
143.9596 -25.97469 1.621815 0
143.9596 -25.92469 1.521815 0
143.9596 -25.87469 1.621815 0
143.9596 -25.67469 1.271815 0
144.0096 -25.82469 1.521815 0
143.9596 -25.77469 1.621815 0
144.0096 -25.82469 1.621815 0
144.0596 -25.72469 1.521815 0
144.0596 -25.72469 1.621815 0
144.1596 -25.82469 1.621815 0
144.2096 -25.72469 1.621815 0
144.5596 -26.52469 0.1218147 0
144.6096 -26.47469 0.1218147 0
144.6596 -26.47469 0.1218147 0
144.5596 -26.52469 0.4218147 0
144.6096 -26.47469 0.3718147 0
144.6096 -26.47469 0.6718147 0
144.4096 -26.92469 1.221815 0
144.5096 -26.42469 0.1218147 0
144.5096 -26.42469 0.4218147 0
144.5596 -26.42469 0.1218147 0
144.6596 -26.37469 0.1218147 0
144.7096 -26.42469 0.1218147 0
144.6096 -26.42469 0.3718147 0
144.6596 -26.42469 0.3718147 0
144.5096 -26.42469 0.7218148 0
144.6096 -26.42469 0.6718147 0
144.7096 -26.42469 0.7218148 0
144.8096 -26.42469 0.07181472 0
144.7596 -26.32469 0.1218147 0
144.8596 -26.32469 0.07181472 0
144.7596 -26.42469 0.4218147 0
144.8096 -26.42469 0.4218147 0
144.7596 -26.32469 0.4218147 0
144.9096 -26.32469 0.4218147 0
144.9596 -26.27469 0.07181472 0
145.0596 -26.22469 0.07181472 0
144.8096 -26.42469 0.7718147 0
144.7596 -26.32469 0.7218148 0
144.9096 -26.32469 0.7718147 0
144.9596 -26.32469 0.4718147 0
145.0596 -26.22469 0.4718147 0
144.4596 -25.97469 1.121815 0
144.5096 -25.67469 1.121815 0
144.3596 -25.92469 1.471815 0
144.3596 -25.67469 1.471815 0
144.6596 -25.67469 1.321815 0
143.6596 -27.17469 1.671815 0
143.6596 -27.07469 1.821815 0
143.6596 -27.22469 1.871815 0
143.7096 -27.07469 1.971815 0
143.6096 -27.02469 1.821815 0
143.5596 -26.92469 1.821815 0
143.6596 -27.02469 1.971815 0
143.6596 -26.92469 1.971815 0
143.6596 -26.87469 1.971815 0
143.7596 -27.22469 1.671815 0
143.7596 -27.17469 1.771815 0
143.9096 -27.22469 1.671815 0
143.8096 -27.17469 1.871815 0
143.8096 -27.12469 1.971815 0
143.9096 -26.97469 1.721815 0
143.9096 -26.87469 1.721815 0
143.7596 -26.97469 1.871815 0
143.8096 -27.02469 1.921815 0
143.7596 -26.92469 1.921815 0
143.8596 -26.87469 1.871815 0
143.8096 -27.12469 2.171815 0
143.9096 -27.17469 2.171815 0
143.9096 -27.07469 2.221815 0
143.7596 -27.02469 2.171815 0
143.8096 -27.02469 2.221815 0
143.7596 -26.87469 2.171815 0
143.8096 -26.92469 2.221815 0
143.9096 -27.02469 2.171815 0
143.9096 -26.92469 2.171815 0
143.6096 -26.77469 1.971815 0
143.6096 -26.67469 1.971815 0
143.7096 -26.82469 1.871815 0
143.7096 -26.77469 1.921815 0
143.6596 -26.72469 1.921815 0
143.6596 -26.67469 1.871815 0
143.7096 -26.72469 1.871815 0
143.6096 -26.62469 1.821815 0
143.6096 -26.47469 1.721815 0
143.6096 -26.47469 1.821815 0
143.6596 -26.57469 1.821815 0
143.6096 -26.52469 1.971815 0
143.8596 -26.77469 1.721815 0
143.8596 -26.77469 1.821815 0
143.8596 -26.67469 1.721815 0
143.9096 -26.67469 1.671815 0
143.8096 -26.77469 1.871815 0
143.7596 -26.72469 1.871815 0
143.8096 -26.62469 1.671815 0
143.8096 -26.62469 1.771815 0
143.8096 -26.57469 1.771815 0
143.8096 -26.47469 1.771815 0
143.8596 -26.52469 1.671815 0
143.7596 -26.62469 1.871815 0
143.8096 -26.52469 1.871815 0
143.7596 -26.77469 2.221815 0
143.8096 -26.82469 2.221815 0
143.8096 -26.72469 2.221815 0
143.9096 -26.82469 2.121815 0
143.8596 -26.72469 2.121815 0
143.7596 -26.62469 2.221815 0
143.7596 -26.47469 2.221815 0
143.8596 -26.62469 2.121815 0
143.8596 -26.57469 2.121815 0
143.8596 -26.47469 2.121815 0
143.8096 -26.62469 2.271815 0
143.8096 -26.52469 2.271815 0
143.9096 -26.47469 2.321815 0
144.0096 -27.17469 1.671815 0
144.0096 -27.22469 1.921815 0
143.9596 -27.17469 2.021815 0
144.0596 -27.17469 1.871815 0
144.0596 -27.22469 2.021815 0
144.0596 -27.07469 1.921815 0
144.0096 -27.02469 1.671815 0
144.0096 -26.92469 1.671815 0
144.0096 -27.02469 1.921815 0
143.9596 -26.92469 1.871815 0
144.0596 -27.02469 1.871815 0
144.2096 -27.22469 1.671815 0
144.3096 -27.22469 1.771815 0
143.9596 -27.22469 2.171815 0
144.0096 -27.12469 2.221815 0
144.0596 -27.17469 2.221815 0
144.0596 -27.07469 2.171815 0
144.1096 -27.07469 2.321815 0
144.0096 -26.87469 2.121815 0
144.0596 -26.97469 2.171815 0
144.1096 -26.87469 2.071815 0
144.0596 -26.92469 2.221815 0
144.0096 -26.97469 2.321815 0
143.9596 -26.92469 2.321815 0
144.2596 -27.17469 2.221815 0
144.2096 -27.12469 2.321815 0
144.3096 -27.17469 2.371815 0
143.9596 -26.82469 1.671815 0
143.9596 -26.72469 1.671815 0
144.0096 -26.52469 2.021815 0
144.0596 -26.52469 1.921815 0
144.1596 -26.82469 1.971815 0
144.2596 -26.47469 1.771815 0
144.0096 -26.77469 2.221815 0
144.0096 -26.72469 2.121815 0
144.0096 -26.67469 2.171815 0
144.0596 -26.82469 2.221815 0
144.0596 -26.72469 2.071815 0
143.9596 -26.82469 2.321815 0
143.9596 -26.77469 2.321815 0
143.9596 -26.67469 2.321815 0
143.9596 -26.62469 2.121815 0
143.9596 -26.57469 2.171815 0
143.9596 -26.52469 2.071815 0
143.9596 -26.47469 2.171815 0
143.9596 -26.57469 2.321815 0
144.2096 -26.47469 2.421815 0
143.8596 -26.87469 2.571815 0
143.9096 -26.87469 2.571815 0
143.9096 -26.67469 2.571815 0
143.8596 -26.62469 2.621815 0
143.9096 -26.57469 2.621815 0
143.9096 -26.47469 2.621815 0
143.7096 -26.47469 2.971815 0
143.8096 -26.72469 2.921815 0
143.8596 -26.77469 2.921815 0
143.7596 -26.62469 2.971815 0
144.0596 -27.07469 2.571815 0
144.1096 -27.07469 2.571815 0
143.9596 -26.97469 2.571815 0
144.0596 -27.02469 2.571815 0
144.2096 -27.17469 2.571815 0
144.1596 -27.12469 2.571815 0
144.2096 -27.12469 2.571815 0
144.3096 -26.92469 2.471815 0
144.0596 -26.87469 2.971815 0
144.3096 -27.22469 2.971815 0
144.2596 -27.12469 2.971815 0
144.1596 -26.97469 2.971815 0
144.0096 -26.72469 2.621815 0
144.1096 -26.47469 2.721815 0
144.3096 -26.72469 2.471815 0
144.2596 -26.57469 2.471815 0
144.0096 -26.82469 2.971815 0
143.6096 -26.37469 1.721815 0
143.5596 -26.37469 1.821815 0
143.6096 -26.27469 1.821815 0
143.6596 -26.42469 1.821815 0
143.6596 -26.37469 1.821815 0
143.7096 -26.27469 1.821815 0
143.6096 -26.42469 1.971815 0
143.7096 -26.32469 2.021815 0
143.6096 -26.22469 1.821815 0
143.5596 -26.12469 1.671815 0
143.6596 -26.22469 1.771815 0
143.7096 -26.12469 1.771815 0
143.6096 -26.17469 1.971815 0
143.6596 -26.12469 1.871815 0
143.7096 -26.07469 1.871815 0
143.8596 -26.42469 1.671815 0
143.8596 -26.37469 1.771815 0
143.9096 -26.32469 1.671815 0
143.9096 -26.27469 1.771815 0
143.8596 -26.42469 1.871815 0
143.8596 -26.32469 2.021815 0
143.7596 -26.12469 1.821815 0
143.9096 -26.22469 1.671815 0
143.9096 -26.12469 1.771815 0
143.9096 -26.07469 1.771815 0
143.7596 -26.22469 2.021815 0
143.8096 -26.32469 2.121815 0
143.8596 -26.42469 2.121815 0
143.9096 -26.42469 2.071815 0
143.9096 -26.27469 2.121815 0
143.9096 -26.32469 2.171815 0
143.8096 -26.37469 2.271815 0
143.8096 -26.27469 2.321815 0
143.9096 -26.42469 2.321815 0
143.9096 -26.32469 2.371815 0
143.8096 -26.22469 2.121815 0
143.8096 -26.12469 2.121815 0
143.8096 -26.07469 2.071815 0
143.8596 -26.17469 2.121815 0
143.8596 -26.07469 2.121815 0
143.7596 -26.17469 2.321815 0
143.9096 -26.22469 2.371815 0
143.6096 -25.97469 1.671815 0
143.6596 -25.77469 1.721815 0
143.7596 -26.02469 1.771815 0
143.8096 -25.92469 1.771815 0
143.7596 -26.02469 1.871815 0
143.7596 -25.97469 1.871815 0
143.7596 -25.97469 2.021815 0
143.8096 -25.92469 1.871815 0
143.8096 -25.87469 1.871815 0
143.8596 -25.87469 1.871815 0
143.8596 -25.82469 1.821815 0
143.8596 -25.77469 1.921815 0
143.9096 -25.77469 1.871815 0
143.8096 -26.02469 2.171815 0
143.9096 -25.97469 2.121815 0
143.9596 -26.37469 1.971815 0
144.0096 -26.27469 1.921815 0
144.0096 -26.22469 1.971815 0
144.0596 -26.17469 1.921815 0
144.0596 -26.07469 1.971815 0
144.2596 -26.27469 1.771815 0
144.3096 -26.12469 1.771815 0
