# .PCD v0.7 - Point Cloud Data file format
VERSION 0.7
FIELDS x y z intensity
SIZE 4 4 4 4
TYPE F F F F
COUNT 1 1 1 1
WIDTH 1510
HEIGHT 1
VIEWPOINT 0 0 0 1 0 0 0
POINTS 1510
DATA ascii
-24.24039 -36.92469 2.021815 0
-24.19039 -36.92469 1.971815 0
-24.19039 -36.87469 2.021815 0
-24.14039 -37.02469 1.871815 0
-24.14039 -37.02469 1.921815 0
-24.09039 -37.02469 1.921815 0
-24.09039 -36.97469 2.021815 0
-24.09039 -36.92469 1.921815 0
-24.14039 -36.92469 2.021815 0
-24.14039 -36.87469 2.021815 0
-24.09039 -36.92469 2.021815 0
-24.34039 -37.07469 2.121815 0
-24.44039 -36.87469 2.121815 0
-24.39039 -36.87469 2.071815 0
-24.34039 -36.97469 2.121815 0
-24.34039 -36.87469 2.071815 0
-24.29039 -36.87469 2.171815 0
-24.19039 -37.12469 2.121815 0
-24.14039 -37.17469 2.071815 0
-24.14039 -37.07469 2.121815 0
-24.19039 -37.02469 2.121815 0
-24.24039 -36.97469 2.171815 0
-24.19039 -36.97469 2.171815 0
-24.19039 -36.97469 2.221815 0
-24.19039 -36.87469 2.071815 0
-24.19039 -36.87469 2.221815 0
-24.09039 -37.02469 2.171815 0
-24.09039 -36.87469 2.121815 0
-24.24039 -36.87469 2.271815 0
-24.19039 -36.87469 2.271815 0
-24.14039 -36.92469 2.271815 0
-24.14039 -36.87469 2.271815 0
-24.09039 -36.92469 2.271815 0
-24.04039 -37.37469 1.671815 0
-24.04039 -37.32469 1.671815 0
-24.04039 -37.32469 1.721815 0
-23.99039 -37.32469 1.671815 0
-23.94039 -37.27469 1.671815 0
-23.89039 -37.32469 1.671815 0
-23.84039 -37.27469 1.671815 0
-23.99039 -37.22469 1.721815 0
-24.04039 -37.22469 1.771815 0
-24.04039 -37.17469 1.771815 0
-23.99039 -37.22469 1.771815 0
-23.99039 -37.17469 1.771815 0
-23.99039 -37.12469 1.771815 0
-23.94039 -37.17469 1.821815 0
-23.94039 -37.12469 1.821815 0
-23.89039 -37.12469 1.771815 0
-23.89039 -37.07469 1.821815 0
-24.04039 -37.07469 1.871815 0
-23.99039 -37.07469 1.871815 0
-23.89039 -37.12469 1.871815 0
-24.04039 -37.02469 1.921815 0
-23.99039 -37.02469 1.921815 0
-24.04039 -36.97469 1.971815 0
-24.04039 -36.92469 1.971815 0
-24.04039 -36.92469 2.021815 0
-23.99039 -36.92469 1.971815 0
-23.99039 -36.92469 2.021815 0
-23.94039 -37.02469 1.921815 0
-23.89039 -37.02469 1.921815 0
-23.89039 -36.97469 1.971815 0
-23.94039 -36.92469 1.971815 0
-23.94039 -36.92469 2.021815 0
-23.84039 -37.22469 1.721815 0
-23.84039 -37.17469 1.721815 0
-23.79039 -37.22469 1.671815 0
-23.79039 -37.22469 1.721815 0
-23.84039 -37.17469 1.771815 0
-23.84039 -37.07469 1.821815 0
-23.74039 -37.22469 1.721815 0
-23.74039 -37.17469 1.671815 0
-23.69039 -37.17469 1.671815 0
-23.69039 -37.17469 1.721815 0
-23.69039 -37.12469 1.721815 0
-23.74039 -37.12469 1.771815 0
-23.79039 -37.17469 1.921815 0
-23.84039 -37.12469 1.871815 0
-23.84039 -37.07469 1.921815 0
-23.79039 -37.12469 1.921815 0
-23.69039 -37.12469 1.921815 0
-23.69039 -37.07469 1.921815 0
-23.69039 -37.07469 1.971815 0
-23.79039 -37.02469 1.771815 0
-23.79039 -37.02469 1.821815 0
-23.69039 -36.97469 1.821815 0
-23.69039 -36.87469 1.671815 0
-23.84039 -36.97469 1.871815 0
-23.79039 -37.02469 1.921815 0
-23.79039 -36.97469 1.921815 0
-23.84039 -36.97469 2.021815 0
-23.84039 -36.92469 1.971815 0
-23.84039 -36.87469 2.021815 0
-23.79039 -36.87469 1.971815 0
-23.74039 -37.02469 1.971815 0
-23.74039 -36.97469 2.021815 0
-23.69039 -37.02469 2.021815 0
-23.74039 -36.92469 1.871815 0
-23.69039 -36.92469 1.921815 0
-23.69039 -36.87469 1.921815 0
-23.69039 -36.87469 1.971815 0
-23.99039 -37.17469 2.121815 0
-24.04039 -37.07469 2.121815 0
-23.99039 -37.07469 2.121815 0
-23.99039 -37.07469 2.171815 0
-23.94039 -37.12469 2.121815 0
-23.89039 -37.12469 2.121815 0
-23.89039 -37.12469 2.221815 0
-24.04039 -37.02469 2.171815 0
-23.99039 -36.87469 2.071815 0
-23.89039 -37.02469 2.221815 0
-24.04039 -36.92469 2.271815 0
-24.04039 -36.92469 2.321815 0
-23.99039 -36.92469 2.271815 0
-23.94039 -36.97469 2.271815 0
-23.89039 -36.97469 2.271815 0
-23.84039 -37.12469 2.121815 0
-23.79039 -37.12469 2.121815 0
-23.79039 -37.07469 2.171815 0
-23.69039 -37.17469 2.071815 0
-23.74039 -37.17469 2.171815 0
-23.74039 -37.07469 2.221815 0
-23.69039 -37.12469 2.171815 0
-23.69039 -37.12469 2.221815 0
-23.84039 -36.97469 2.221815 0
-23.79039 -36.87469 2.071815 0
-23.74039 -36.97469 2.071815 0
-23.74039 -37.02469 2.221815 0
-23.69039 -37.02469 2.221815 0
-23.69039 -36.92469 2.071815 0
-23.69039 -36.87469 2.121815 0
-23.69039 -36.87469 2.171815 0
-23.84039 -36.97469 2.321815 0
-23.79039 -36.97469 2.321815 0
-23.84039 -36.97469 2.371815 0
-23.74039 -36.97469 2.321815 0
-23.69039 -36.92469 2.321815 0
-24.14039 -36.87469 2.521815 0
-24.04039 -36.87469 2.471815 0
-23.94039 -36.87469 2.471815 0
-23.89039 -36.87469 2.471815 0
-23.64039 -37.22469 1.671815 0
-23.64039 -37.17469 1.671815 0
-23.59039 -37.12469 1.671815 0
-23.59039 -37.07469 1.671815 0
-23.59039 -37.07469 1.721815 0
-23.64039 -37.07469 1.771815 0
-23.59039 -37.07469 1.771815 0
-23.54039 -37.12469 1.671815 0
-23.54039 -37.07469 1.671815 0
-23.64039 -37.17469 1.921815 0
-23.59039 -37.12469 1.971815 0
-23.54039 -37.07469 2.021815 0
-23.59039 -36.92469 1.821815 0
-23.49039 -37.02469 1.671815 0
-23.49039 -37.02469 1.721815 0
-23.54039 -36.87469 1.821815 0
-23.59039 -37.02469 2.021815 0
-23.64039 -36.92469 1.871815 0
-23.64039 -36.87469 1.871815 0
-23.59039 -36.92469 1.871815 0
-23.49039 -36.87469 1.871815 0
-23.44039 -37.07469 1.671815 0
-23.44039 -37.07469 1.721815 0
-23.39039 -37.07469 1.671815 0
-23.29039 -37.07469 1.671815 0
-23.44039 -37.07469 2.021815 0
-23.39039 -37.12469 1.971815 0
-23.34039 -37.12469 2.021815 0
-23.44039 -37.02469 1.721815 0
-23.39039 -37.02469 1.721815 0
-23.44039 -36.97469 1.821815 0
-23.44039 -36.87469 1.771815 0
-23.44039 -36.87469 1.821815 0
-23.39039 -36.87469 1.821815 0
-23.34039 -37.02469 1.721815 0
-23.29039 -37.02469 1.671815 0
-23.29039 -37.02469 1.721815 0
-23.34039 -36.92469 1.821815 0
-23.34039 -36.87469 1.771815 0
-23.34039 -36.87469 1.871815 0
-23.64039 -37.22469 2.071815 0
-23.64039 -37.17469 2.171815 0
-23.59039 -37.17469 2.171815 0
-23.59039 -37.12469 2.171815 0
-23.59039 -37.07469 2.221815 0
-23.49039 -37.17469 2.171815 0
-23.49039 -37.07469 2.271815 0
-23.59039 -37.02469 2.071815 0
-23.59039 -36.92469 2.121815 0
-23.64039 -36.87469 2.171815 0
-23.54039 -36.92469 2.121815 0
-23.54039 -36.87469 2.171815 0
-23.54039 -36.87469 2.221815 0
-23.49039 -36.87469 2.221815 0
-23.64039 -36.97469 2.321815 0
-23.64039 -36.87469 2.371815 0
-23.64039 -36.87469 2.421815 0
-23.54039 -36.97469 2.271815 0
-23.54039 -36.97469 2.321815 0
-23.44039 -37.07469 2.071815 0
-23.39039 -37.12469 2.071815 0
-23.39039 -37.07469 2.071815 0
-23.44039 -37.12469 2.221815 0
-23.39039 -37.12469 2.221815 0
-23.39039 -36.97469 2.071815 0
-23.39039 -36.97469 2.121815 0
-23.44039 -36.92469 2.121815 0
-23.44039 -36.87469 2.171815 0
-23.34039 -36.87469 2.071815 0
-23.44039 -36.92469 2.371815 0
-23.34039 -37.02469 2.271815 0
-23.34039 -36.92469 2.371815 0
-23.14039 -37.07469 1.671815 0
-23.24039 -37.02469 1.721815 0
-23.24039 -36.97469 1.721815 0
-23.19039 -37.02469 1.671815 0
-23.19039 -37.02469 1.721815 0
-23.24039 -36.87469 1.771815 0
-23.14039 -37.02469 1.671815 0
-23.14039 -36.97469 1.721815 0
-23.09039 -37.02469 1.671815 0
-23.09039 -36.97469 1.771815 0
-23.09039 -36.92469 1.821815 0
-23.09039 -36.87469 1.771815 0
-23.09039 -36.87469 1.821815 0
-23.19039 -36.97469 1.921815 0
-23.24039 -37.02469 1.971815 0
-23.24039 -36.87469 1.871815 0
-23.19039 -36.87469 1.871815 0
-23.19039 -36.87469 2.021815 0
-23.14039 -36.97469 1.921815 0
-23.14039 -36.92469 1.921815 0
-23.14039 -36.87469 1.921815 0
-23.09039 -36.92469 1.871815 0
-23.09039 -36.87469 1.921815 0
-23.04039 -36.97469 1.771815 0
-23.04039 -36.92469 1.721815 0
-23.04039 -36.87469 1.821815 0
-22.99039 -36.87469 1.771815 0
-22.94039 -37.02469 1.671815 0
-22.94039 -36.92469 1.771815 0
-22.94039 -36.87469 1.821815 0
-22.89039 -36.87469 1.771815 0
-23.04039 -36.87469 1.871815 0
-23.24039 -36.92469 2.071815 0
-23.19039 -36.97469 2.271815 0
-23.24039 -36.92469 2.421815 0
-23.09039 -36.97469 2.271815 0
-23.09039 -36.87469 2.271815 0
-23.04039 -36.87469 2.221815 0
-23.04039 -36.97469 2.271815 0
-23.04039 -36.87469 2.321815 0
-22.79039 -39.97469 0.1718147 0
-22.84039 -39.92469 0.1218147 0
-22.69039 -39.97469 0.1718147 0
-22.79039 -39.82469 0.1718147 0
-22.84039 -39.67469 0.1718147 0
-22.74039 -39.82469 0.1218147 0
-22.74039 -39.82469 0.1718147 0
-22.69039 -39.77469 0.1718147 0
-22.59039 -40.02469 0.1718147 0
-22.49039 -40.02469 0.1718147 0
-22.64039 -39.77469 0.1218147 0
-22.59039 -39.72469 0.1718147 0
-22.54039 -39.67469 0.1218147 0
-22.54039 -39.72469 0.1718147 0
-22.49039 -39.67469 0.1718147 0
-22.79039 -39.57469 0.1718147 0
-22.74039 -39.47469 0.1718147 0
-22.84039 -39.32469 0.1718147 0
-22.79039 -39.32469 0.1718147 0
-22.69039 -39.37469 0.1718147 0
-22.69039 -39.32469 0.1718147 0
-22.64039 -39.27469 0.1718147 0
-22.54039 -39.37469 0.1718147 0
-22.44039 -39.62469 0.1218147 0
-22.39039 -39.62469 0.1718147 0
-22.34039 -39.62469 0.1718147 0
-22.29039 -39.62469 0.1718147 0
-22.34039 -39.52469 0.1218147 0
-22.44039 -39.37469 0.1718147 0
-22.34039 -39.37469 0.1718147 0
-22.29039 -39.37469 0.1718147 0
-22.19039 -39.57469 0.1718147 0
-22.09039 -39.52469 0.1718147 0
-22.24039 -39.42469 0.1218147 0
-22.24039 -39.42469 0.1718147 0
-22.19039 -39.37469 0.1718147 0
-22.14039 -39.42469 0.1718147 0
-22.09039 -39.42469 0.1718147 0
-22.09039 -39.27469 0.1718147 0
-22.59039 -39.12469 0.1718147 0
-22.54039 -39.02469 0.1718147 0
-22.49039 -38.92469 0.1718147 0
-22.44039 -38.82469 0.1718147 0
-22.39039 -38.72469 0.1718147 0
-22.34039 -38.62469 0.1718147 0
-22.29039 -38.52469 0.1718147 0
-21.99039 -39.52469 0.1718147 0
-21.44039 -39.97469 0.1718147 0
-21.39039 -39.87469 0.1718147 0
-21.34039 -39.77469 0.1718147 0
-21.29039 -39.67469 0.1718147 0
-21.59039 -39.47469 0.1718147 0
-21.64039 -39.42469 0.1718147 0
-21.54039 -39.42469 0.1718147 0
-21.29039 -39.52469 0.1718147 0
-21.44039 -39.42469 0.1718147 0
-21.34039 -39.42469 0.1718147 0
-21.99039 -39.17469 0.1718147 0
-21.89039 -39.07469 0.1718147 0
-21.79039 -39.02469 0.1718147 0
-21.69039 -38.92469 0.1718147 0
-21.64039 -38.82469 0.1718147 0
-21.54039 -38.72469 0.1718147 0
-21.44039 -38.67469 0.1718147 0
-21.34039 -38.57469 0.1718147 0
-21.29039 -38.47469 0.1718147 0
-22.79039 -38.07469 0.1218147 0
-22.69039 -37.97469 0.1218147 0
-22.59039 -37.92469 0.1218147 0
-22.24039 -38.42469 0.1718147 0
-22.14039 -38.32469 0.1718147 0
-22.09039 -38.22469 0.1718147 0
-22.44039 -37.82469 0.1218147 0
-22.59039 -37.62469 0.07181472 0
-22.54039 -37.62469 0.07181472 0
-22.44039 -37.62469 0.07181472 0
-22.34039 -37.62469 0.07181472 0
-22.24039 -37.62469 0.07181472 0
-22.19039 -37.62469 0.07181472 0
-22.14039 -37.62469 0.1218147 0
-22.84039 -37.27469 0.8718147 0
-22.84039 -37.22469 0.9218147 0
-22.79039 -37.22469 0.8718147 0
-22.79039 -37.22469 0.9218147 0
-22.79039 -37.17469 0.9218147 0
-22.79039 -37.17469 0.9718148 0
-22.79039 -37.12469 0.9718148 0
-22.79039 -37.12469 1.021815 0
-22.79039 -37.07469 0.9718148 0
-22.79039 -37.07469 1.021815 0
-22.74039 -37.12469 1.021815 0
-22.74039 -37.07469 0.9718148 0
-22.69039 -37.07469 0.9718148 0
-22.84039 -37.07469 1.121815 0
-22.79039 -37.07469 1.121815 0
-22.84039 -37.07469 1.171815 0
-22.74039 -37.07469 1.171815 0
-22.74039 -37.02469 1.021815 0
-22.69039 -37.02469 0.9718148 0
-22.69039 -37.02469 1.021815 0
-22.79039 -37.02469 1.121815 0
-22.84039 -36.97469 1.171815 0
-22.84039 -36.97469 1.221815 0
-22.79039 -36.97469 1.171815 0
-22.74039 -37.02469 1.071815 0
-22.74039 -36.97469 1.121815 0
-22.69039 -36.97469 1.171815 0
-22.74039 -36.92469 1.121815 0
-22.69039 -36.92469 1.121815 0
-22.74039 -36.92469 1.171815 0
-22.69039 -36.92469 1.171815 0
-22.69039 -36.87469 1.171815 0
-22.64039 -37.07469 1.021815 0
-22.64039 -37.02469 0.9718148 0
-22.64039 -36.97469 1.021815 0
-22.59039 -37.02469 1.021815 0
-22.59039 -36.97469 1.021815 0
-22.59039 -36.87469 1.121815 0
-22.64039 -36.87469 1.171815 0
-22.49039 -36.87469 1.121815 0
-22.84039 -37.07469 1.621815 0
-22.84039 -36.92469 1.271815 0
-22.84039 -36.87469 1.271815 0
-22.84039 -36.87469 1.321815 0
-22.79039 -36.87469 1.271815 0
-22.74039 -36.87469 1.271815 0
-22.84039 -37.02469 1.621815 0
-22.79039 -37.02469 1.621815 0
-22.69039 -36.97469 1.621815 0
-22.64039 -36.97469 1.621815 0
-22.04039 -38.12469 0.1718147 0
-21.99039 -37.97469 0.1718147 0
-21.94039 -37.92469 0.1718147 0
-21.84039 -37.82469 0.1718147 0
-21.79039 -37.72469 0.1718147 0
-21.54039 -37.97469 0.1718147 0
-21.49039 -37.87469 0.1718147 0
-21.44039 -37.77469 0.1718147 0
-21.39039 -37.67469 0.1218147 0
-21.34039 -37.67469 0.1718147 0
-22.04039 -37.62469 0.07181472 0
-21.99039 -37.62469 0.07181472 0
-21.99039 -37.62469 0.1218147 0
-21.89039 -37.62469 0.07181472 0
-21.79039 -37.62469 0.07181472 0
-21.79039 -37.62469 0.1218147 0
-21.69039 -37.62469 0.07181472 0
-21.59039 -37.62469 0.07181472 0
-21.59039 -37.62469 0.1218147 0
-21.49039 -37.62469 0.07181472 0
-21.29039 -37.62469 0.07181472 0
-22.84039 -36.92469 1.771815 0
-22.84039 -36.87469 1.771815 0
-22.74039 -37.02469 1.671815 0
-22.74039 -36.92469 1.671815 0
-31.69039 -36.32469 0.1718147 0
-31.84039 -36.07469 0.3218147 0
-31.74039 -36.22469 0.3218147 0
-31.89039 -35.97469 0.2718147 0
-31.89039 -35.97469 0.3718147 0
-31.89039 -35.97469 0.4218147 0
-31.84039 -35.97469 0.2718147 0
-31.84039 -35.97469 0.3718147 0
-31.79039 -35.97469 0.4218147 0
-31.74039 -36.02469 0.2718147 0
-31.74039 -36.02469 0.3718147 0
-31.74039 -36.02469 0.4218147 0
-31.64039 -36.27469 0.1718147 0
-31.64039 -36.42469 0.3218147 0
-31.64039 -36.42469 0.4218147 0
-31.64039 -36.37469 0.3718147 0
-31.64039 -36.37469 0.4718147 0
-31.64039 -36.37469 0.5218147 0
-31.64039 -36.02469 0.2718147 0
-31.64039 -36.02469 0.3718147 0
-31.64039 -36.02469 0.4218147 0
-31.49039 -34.12469 0.2718147 0
-31.34039 -34.32469 0.2718147 0
-31.34039 -34.32469 0.3218147 0
-31.34039 -34.27469 0.3218147 0
-31.34039 -34.32469 0.3718147 0
-31.34039 -34.32469 0.4218147 0
-31.39039 -34.22469 0.1718147 0
-31.34039 -34.22469 0.1718147 0
-31.34039 -34.32469 0.4718147 0
-31.34039 -34.32469 0.5218147 0
-31.34039 -34.27469 0.4718147 0
-31.64039 -33.92469 0.2718147 0
-31.64039 -33.92469 0.3218147 0
-31.59039 -33.92469 0.3718147 0
-31.54039 -34.02469 0.2718147 0
-31.54039 -33.92469 0.2718147 0
-31.54039 -33.92469 0.3218147 0
-31.54039 -33.92469 0.4218147 0
-31.44039 -33.92469 0.2718147 0
-31.44039 -33.92469 0.3218147 0
-31.44039 -33.92469 0.4218147 0
-31.34039 -33.97469 0.3718147 0
-31.34039 -33.97469 0.4218147 0
-31.34039 -33.92469 0.2718147 0
-31.09039 -32.12469 0.1718147 0
-31.04039 -32.27469 0.3218147 0
-31.04039 -32.27469 0.4218147 0
-31.04039 -32.12469 0.1718147 0
-31.04039 -32.22469 0.3218147 0
-31.04039 -32.17469 0.3718147 0
-31.04039 -32.22469 0.4718147 0
-31.04039 -32.22469 0.5218147 0
-31.34039 -31.82469 0.2718147 0
-31.34039 -31.82469 0.3718147 0
-31.29039 -31.82469 0.4218147 0
-31.19039 -32.02469 0.3218147 0
-31.24039 -31.92469 0.3218147 0
-31.24039 -31.82469 0.2718147 0
-31.24039 -31.82469 0.3718147 0
-31.24039 -31.82469 0.4218147 0
-31.14039 -31.82469 0.2718147 0
-31.14039 -31.82469 0.3718147 0
-31.14039 -31.82469 0.4218147 0
-31.04039 -31.87469 0.2718147 0
-31.04039 -31.87469 0.3718147 0
-31.04039 -31.87469 0.4218147 0
-30.09039 -36.82469 0.1718147 0
-30.19039 -36.77469 0.3218147 0
-30.19039 -36.72469 0.3718147 0
-30.14039 -36.77469 0.3718147 0
-30.14039 -36.72469 0.3218147 0
-30.19039 -36.77469 0.5218147 0
-30.19039 -36.72469 0.4718147 0
-30.19039 -36.72469 0.5218147 0
-30.14039 -36.77469 0.4718147 0
-30.14039 -36.77469 0.5218147 0
-30.54039 -34.92469 0.2718147 0
-30.54039 -34.92469 0.3718147 0
-30.54039 -34.92469 0.4218147 0
-30.69039 -34.57469 0.3218147 0
-30.69039 -34.62469 0.3718147 0
-30.69039 -34.57469 0.3718147 0
-30.69039 -34.57469 0.4218147 0
-30.64039 -34.67469 0.1718147 0
-30.49039 -34.72469 0.3218147 0
-30.59039 -34.62469 0.1718147 0
-30.69039 -34.62469 0.4718147 0
-30.69039 -34.57469 0.4718147 0
-30.69039 -34.57469 0.5218147 0
-30.44039 -34.92469 0.2718147 0
-30.44039 -34.92469 0.3718147 0
-30.44039 -34.92469 0.4218147 0
-30.34039 -34.87469 0.2718147 0
-30.29039 -34.87469 0.2718147 0
-30.34039 -34.87469 0.3718147 0
-30.34039 -34.87469 0.4218147 0
-30.29039 -34.87469 0.3718147 0
-30.29039 -34.87469 0.4218147 0
-30.39039 -34.77469 0.3218147 0
-30.44039 -32.87469 0.2718147 0
-30.39039 -32.87469 0.4218147 0
-30.69039 -32.47469 0.3218147 0
-30.69039 -32.52469 0.3718147 0
-30.69039 -32.52469 0.4218147 0
-30.69039 -32.47469 0.3718147 0
-30.69039 -32.47469 0.4218147 0
-30.64039 -32.82469 0.2718147 0
-30.64039 -32.82469 0.3718147 0
-30.64039 -32.82469 0.4218147 0
-30.54039 -32.82469 0.2718147 0
-30.54039 -32.82469 0.3718147 0
-30.54039 -32.82469 0.4218147 0
-30.64039 -32.57469 0.1718147 0
-30.64039 -32.52469 0.1718147 0
-30.54039 -32.62469 0.3218147 0
-30.69039 -32.47469 0.4718147 0
-30.69039 -32.47469 0.5218147 0
-30.44039 -32.82469 0.3718147 0
-30.44039 -32.82469 0.4218147 0
-30.44039 -32.72469 0.3218147 0
-30.34039 -32.82469 0.2718147 0
-30.34039 -32.82469 0.3718147 0
-30.54039 -30.62469 0.2718147 0
-30.54039 -30.62469 0.3718147 0
-30.54039 -30.62469 0.4218147 0
-30.44039 -30.62469 0.2718147 0
-30.44039 -30.62469 0.3718147 0
-30.44039 -30.62469 0.4218147 0
-30.34039 -30.62469 0.2718147 0
-30.29039 -30.62469 0.2718147 0
-30.34039 -30.62469 0.3718147 0
-30.34039 -30.62469 0.4218147 0
-30.29039 -30.62469 0.3718147 0
-30.29039 -30.62469 0.4218147 0
-30.34039 -30.52469 0.3218147 0
-30.89039 -29.97469 0.3218147 0
-30.94039 -29.87469 0.3218147 0
-30.99039 -29.72469 0.2718147 0
-30.99039 -29.72469 0.3718147 0
-30.99039 -29.72469 0.4218147 0
-30.94039 -29.77469 0.3718147 0
-30.94039 -29.77469 0.4218147 0
-30.94039 -29.72469 0.2718147 0
-30.79039 -30.07469 0.1718147 0
-30.74039 -30.17469 0.3718147 0
-30.74039 -30.17469 0.4218147 0
-30.74039 -30.12469 0.3718147 0
-30.74039 -30.12469 0.4218147 0
-30.54039 -30.32469 0.1718147 0
-30.59039 -30.27469 0.3718147 0
-30.59039 -30.22469 0.4218147 0
-30.74039 -30.17469 0.4718147 0
-30.74039 -30.17469 0.5218147 0
-30.74039 -30.12469 0.4718147 0
-30.74039 -30.12469 0.5218147 0
-30.59039 -30.27469 0.4718147 0
-30.59039 -30.27469 0.5218147 0
-30.59039 -30.22469 0.5218147 0
-30.74039 -30.02469 0.1718147 0
-30.84039 -29.77469 0.2718147 0
-30.84039 -29.77469 0.3718147 0
-30.84039 -29.77469 0.4218147 0
-30.74039 -29.77469 0.2718147 0
-30.74039 -29.77469 0.3718147 0
-30.74039 -29.77469 0.4218147 0
-30.44039 -30.42469 0.3218147 0
-30.49039 -28.57469 0.3718147 0
-30.49039 -28.57469 0.4218147 0
-30.49039 -28.32469 0.1718147 0
-30.54039 -28.22469 0.3218147 0
-30.54039 -28.22469 0.3718147 0
-30.54039 -28.22469 0.4218147 0
-30.49039 -28.22469 0.3718147 0
-30.54039 -28.22469 0.4718147 0
-30.54039 -28.22469 0.5218147 0
-30.54039 -28.17469 0.4718147 0
-30.49039 -28.22469 0.4718147 0
-30.44039 -28.57469 0.2718147 0
-30.39039 -28.57469 0.2718147 0
-30.39039 -28.57469 0.3718147 0
-30.39039 -28.57469 0.4218147 0
-30.29039 -28.57469 0.2718147 0
-30.29039 -28.57469 0.3718147 0
-30.29039 -28.57469 0.4218147 0
-30.29039 -28.47469 0.3218147 0
-30.19039 -28.57469 0.2718147 0
-30.24039 -28.57469 0.4218147 0
-30.19039 -28.57469 0.3718147 0
-30.44039 -28.27469 0.1718147 0
-30.39039 -28.37469 0.3218147 0
-30.39039 -28.07469 0.3218147 0
-30.39039 -28.07469 0.3718147 0
-30.39039 -28.07469 0.4718147 0
-30.39039 -28.07469 0.5218147 0
-30.69039 -27.67469 0.2718147 0
-30.69039 -27.67469 0.3718147 0
-30.54039 -27.87469 0.3218147 0
-30.64039 -27.77469 0.3218147 0
-30.59039 -27.67469 0.2718147 0
-30.64039 -27.67469 0.4218147 0
-30.59039 -27.67469 0.3718147 0
-30.59039 -27.67469 0.4218147 0
-30.49039 -27.67469 0.2718147 0
-30.49039 -27.67469 0.3718147 0
-30.49039 -27.67469 0.4218147 0
-30.44039 -28.02469 0.1718147 0
-30.44039 -27.97469 0.1718147 0
-30.44039 -27.72469 0.2718147 0
-30.39039 -27.72469 0.3718147 0
-30.39039 -27.72469 0.4218147 0
-30.39039 -26.57469 0.2718147 0
-30.39039 -26.52469 0.3218147 0
-30.39039 -26.52469 0.4218147 0
-30.29039 -26.57469 0.2718147 0
-30.29039 -26.57469 0.3218147 0
-30.29039 -26.57469 0.4218147 0
-30.19039 -26.57469 0.2718147 0
-30.19039 -26.57469 0.3218147 0
-30.19039 -26.57469 0.4218147 0
-30.14039 -26.57469 0.2718147 0
-30.14039 -26.57469 0.3218147 0
-30.14039 -26.57469 0.3718147 0
-30.14039 -26.47469 0.2718147 0
-30.39039 -26.27469 0.1718147 0
-30.29039 -26.32469 0.2718147 0
-30.44039 -26.22469 0.3218147 0
-30.44039 -26.17469 0.3218147 0
-30.44039 -26.22469 0.4218147 0
-30.44039 -26.17469 0.4218147 0
-30.19039 -26.42469 0.2718147 0
-30.44039 -26.22469 0.4718147 0
-30.44039 -26.17469 0.4718147 0
-30.44039 -26.17469 0.5218147 0
-30.29039 -25.67469 0.3218147 0
-30.09039 -25.92469 0.1718147 0
-30.09039 -25.87469 0.1718147 0
-30.19039 -25.82469 0.3218147 0
-30.04039 -25.97469 0.3218147 0
-30.04039 -26.02469 0.3718147 0
-30.04039 -26.02469 0.4218147 0
-30.04039 -25.97469 0.3718147 0
-30.04039 -26.02469 0.4718147 0
-30.04039 -26.02469 0.5218147 0
-30.04039 -25.97469 0.4718147 0
-30.04039 -25.97469 0.5218147 0
-30.34039 -25.57469 0.2718147 0
-30.34039 -25.57469 0.3718147 0
-30.29039 -25.57469 0.4218147 0
-30.24039 -25.57469 0.2718147 0
-30.24039 -25.57469 0.3718147 0
-30.24039 -25.57469 0.4218147 0
-30.14039 -25.62469 0.2718147 0
-30.14039 -25.62469 0.3718147 0
-30.14039 -25.62469 0.4218147 0
-30.29039 -24.32469 0.2718147 0
-30.34039 -24.32469 0.4218147 0
-30.29039 -24.32469 0.3718147 0
-30.19039 -24.32469 0.2718147 0
-30.24039 -24.32469 0.4218147 0
-30.19039 -24.32469 0.3718147 0
-30.09039 -24.32469 0.2718147 0
-30.14039 -24.32469 0.4218147 0
-30.09039 -24.32469 0.3718147 0
-30.19039 -24.12469 0.3218147 0
-30.09039 -24.22469 0.3218147 0
-30.04039 -25.62469 0.2718147 0
-30.04039 -25.62469 0.3718147 0
-30.04039 -25.62469 0.4218147 0
-29.99039 -25.62469 0.3718147 0
-29.99039 -25.62469 0.4218147 0
-30.04039 -24.32469 0.2718147 0
-30.04039 -24.32469 0.3718147 0
-30.04039 -24.32469 0.4218147 0
-27.64039 -36.82469 0.07181472 0
-27.64039 -36.82469 0.1218147 0
-27.64039 -36.77469 0.07181472 0
-27.64039 -36.77469 0.1218147 0
-27.59039 -36.82469 0.1218147 0
-27.59039 -36.77469 0.07181472 0
-27.64039 -36.72469 0.1218147 0
-27.64039 -36.67469 0.07181472 0
-27.64039 -36.67469 0.1218147 0
-27.59039 -36.72469 0.1218147 0
-27.59039 -36.67469 0.07181472 0
-27.64039 -36.62469 0.1218147 0
-27.64039 -36.57469 0.07181472 0
-27.59039 -36.62469 0.07181472 0
-27.59039 -36.62469 0.1218147 0
-27.59039 -36.57469 0.07181472 0
-27.64039 -36.52469 0.1218147 0
-27.59039 -36.52469 0.07181472 0
-27.59039 -36.47469 0.07181472 0
-27.59039 -36.47469 0.1218147 0
-27.29039 -36.57469 0.1718147 0
-27.29039 -36.47469 0.1718147 0
-27.64039 -36.42469 0.1218147 0
-27.59039 -36.42469 0.07181472 0
-27.59039 -36.42469 0.1218147 0
-27.59039 -36.37469 0.07181472 0
-27.64039 -36.32469 0.1218147 0
-27.59039 -36.32469 0.1218147 0
-27.59039 -36.27469 0.07181472 0
-27.59039 -36.27469 0.1218147 0
-27.59039 -36.22469 0.1218147 0
-27.59039 -36.17469 0.07181472 0
-27.59039 -36.12469 0.07181472 0
-27.59039 -36.12469 0.1218147 0
-27.59039 -36.07469 0.07181472 0
-27.34039 -36.37469 0.1718147 0
-27.34039 -36.27469 0.1718147 0
-27.39039 -36.22469 0.1718147 0
-27.44039 -36.12469 0.1718147 0
-27.44039 -36.07469 0.1718147 0
-27.24039 -36.77469 0.1718147 0
-27.24039 -36.67469 0.1718147 0
-26.89039 -36.07469 0.1718147 0
-27.59039 -36.02469 0.07181472 0
-27.59039 -36.02469 0.1218147 0
-27.59039 -35.97469 0.07181472 0
-27.59039 -35.97469 0.1218147 0
-27.59039 -35.92469 0.07181472 0
-27.59039 -35.92469 0.1218147 0
-27.59039 -35.87469 0.07181472 0
-27.59039 -35.87469 0.1218147 0
-27.49039 -36.02469 0.1718147 0
-27.54039 -35.92469 0.1718147 0
-27.59039 -35.82469 0.07181472 0
-27.59039 -35.82469 0.1218147 0
-27.59039 -35.82469 0.1718147 0
-27.59039 -35.72469 0.07181472 0
-27.59039 -35.72469 0.1218147 0
-27.59039 -35.67469 0.1218147 0
-27.59039 -35.72469 0.1718147 0
-27.54039 -35.82469 0.07181472 0
-27.54039 -35.82469 0.1218147 0
-27.49039 -35.82469 0.1218147 0
-27.54039 -35.72469 0.07181472 0
-27.44039 -35.87469 0.07181472 0
-27.44039 -35.72469 0.1218147 0
-27.39039 -35.67469 0.1218147 0
-27.34039 -35.82469 0.07181472 0
-27.59039 -35.62469 0.1218147 0
-27.59039 -35.57469 0.07181472 0
-27.59039 -35.62469 0.1718147 0
-27.59039 -35.57469 0.1718147 0
-27.59039 -35.52469 0.07181472 0
-27.59039 -35.52469 0.1218147 0
-27.59039 -35.47469 0.1218147 0
-27.59039 -35.52469 0.1718147 0
-27.54039 -35.62469 0.07181472 0
-27.54039 -35.57469 0.07181472 0
-27.54039 -35.57469 0.1718147 0
-27.54039 -35.52469 0.07181472 0
-27.54039 -35.47469 0.07181472 0
-27.59039 -35.42469 0.1218147 0
-27.59039 -35.37469 0.07181472 0
-27.59039 -35.37469 0.1218147 0
-27.59039 -35.32469 0.1218147 0
-27.59039 -35.27469 0.07181472 0
-27.59039 -35.27469 0.1218147 0
-27.54039 -35.42469 0.07181472 0
-27.54039 -35.37469 0.07181472 0
-27.54039 -35.32469 0.1218147 0
-27.54039 -35.27469 0.07181472 0
-27.44039 -35.47469 0.1718147 0
-27.34039 -35.62469 0.1218147 0
-27.29039 -35.57469 0.1218147 0
-27.39039 -35.37469 0.1718147 0
-27.29039 -35.27469 0.1718147 0
-27.09039 -35.97469 0.1718147 0
-27.24039 -35.82469 0.07181472 0
-27.09039 -35.77469 0.07181472 0
-27.04039 -35.97469 0.1718147 0
-26.99039 -36.02469 0.1718147 0
-26.94039 -36.02469 0.1718147 0
-26.99039 -35.72469 0.07181472 0
-27.24039 -35.52469 0.1218147 0
-27.19039 -35.47469 0.1218147 0
-27.14039 -35.42469 0.1218147 0
-27.09039 -35.37469 0.1218147 0
-27.04039 -35.32469 0.1218147 0
-26.74039 -36.77469 0.1718147 0
-26.69039 -36.72469 0.1718147 0
-26.64039 -36.62469 0.1718147 0
-26.59039 -36.52469 0.1718147 0
-26.59039 -36.47469 0.1718147 0
-26.79039 -36.12469 0.1718147 0
-26.69039 -36.22469 0.1718147 0
-26.69039 -36.17469 0.1718147 0
-26.64039 -36.27469 0.1718147 0
-26.54039 -36.42469 0.1718147 0
-26.54039 -36.37469 0.1718147 0
-26.49039 -36.37469 0.1718147 0
-26.54039 -36.32469 0.1718147 0
-26.49039 -36.27469 0.1718147 0
-26.39039 -36.47469 0.1718147 0
-26.29039 -36.57469 0.1718147 0
-26.34039 -36.52469 0.1718147 0
-26.24039 -36.77469 0.2218147 0
-26.19039 -36.67469 0.1718147 0
-26.09039 -36.82469 0.1718147 0
-26.14039 -36.72469 0.1718147 0
-26.14039 -36.67469 0.2218147 0
-26.24039 -36.62469 0.1718147 0
-26.09039 -36.57469 0.2218147 0
-26.44039 -36.17469 0.1718147 0
-26.44039 -36.07469 0.1718147 0
-26.84039 -35.72469 0.07181472 0
-26.74039 -35.67469 0.07181472 0
-26.59039 -35.67469 0.1218147 0
-26.49039 -35.62469 0.1218147 0
-26.39039 -36.02469 0.1718147 0
-26.39039 -35.92469 0.1718147 0
-26.39039 -35.87469 0.1718147 0
-26.34039 -35.82469 0.1718147 0
-26.34039 -35.72469 0.1718147 0
-26.39039 -35.57469 0.1218147 0
-26.34039 -35.62469 0.1718147 0
-26.29039 -35.57469 0.1718147 0
-26.29039 -35.52469 0.1718147 0
-26.29039 -35.42469 0.1718147 0
-26.29039 -35.32469 0.1718147 0
-26.29039 -35.27469 0.1718147 0
-26.24039 -35.57469 0.1218147 0
-26.14039 -35.52469 0.1218147 0
-26.09039 -35.27469 0.1718147 0
-27.59039 -35.17469 0.1218147 0
-27.54039 -35.22469 0.07181472 0
-27.54039 -35.22469 0.1218147 0
-27.54039 -35.17469 0.07181472 0
-27.54039 -35.17469 0.1218147 0
-27.54039 -35.12469 0.07181472 0
-27.54039 -35.12469 0.1218147 0
-27.54039 -35.07469 0.07181472 0
-27.54039 -35.07469 0.1218147 0
-27.54039 -35.02469 0.07181472 0
-27.54039 -35.02469 0.1218147 0
-27.54039 -34.97469 0.07181472 0
-27.54039 -34.97469 0.1218147 0
-27.54039 -34.92469 0.07181472 0
-27.54039 -34.92469 0.1218147 0
-27.54039 -34.87469 0.07181472 0
-27.54039 -34.87469 0.1218147 0
-27.54039 -34.82469 0.07181472 0
-27.54039 -34.82469 0.1218147 0
-27.54039 -34.77469 0.07181472 0
-27.54039 -34.77469 0.1218147 0
-27.54039 -34.72469 0.07181472 0
-27.54039 -34.72469 0.1218147 0
-27.54039 -34.67469 0.07181472 0
-27.54039 -34.67469 0.1218147 0
-27.54039 -34.62469 0.07181472 0
-27.54039 -34.62469 0.1218147 0
-27.54039 -34.57469 0.07181472 0
-27.54039 -34.57469 0.1218147 0
-27.54039 -34.52469 0.07181472 0
-27.54039 -34.52469 0.1218147 0
-27.54039 -34.47469 0.07181472 0
-27.54039 -34.47469 0.1218147 0
-27.49039 -34.47469 0.07181472 0
-27.19039 -35.17469 0.1718147 0
-26.99039 -35.22469 0.1218147 0
-26.99039 -35.17469 0.1218147 0
-26.94039 -35.12469 0.1218147 0
-26.89039 -35.07469 0.1218147 0
-27.54039 -34.42469 0.07181472 0
-27.54039 -34.42469 0.1218147 0
-27.54039 -34.37469 0.07181472 0
-27.54039 -34.37469 0.1218147 0
-27.49039 -34.37469 0.07181472 0
-27.54039 -34.32469 0.07181472 0
-27.54039 -34.32469 0.1218147 0
-27.54039 -34.27469 0.1218147 0
-27.49039 -34.27469 0.07181472 0
-27.54039 -34.22469 0.07181472 0
-27.54039 -34.22469 0.1218147 0
-27.54039 -34.17469 0.1218147 0
-27.49039 -34.22469 0.07181472 0
-27.49039 -34.17469 0.07181472 0
-27.49039 -34.17469 0.1218147 0
-27.54039 -34.12469 0.1218147 0
-27.54039 -34.07469 0.1218147 0
-27.49039 -34.07469 0.07181472 0
-27.49039 -34.07469 0.1218147 0
-27.54039 -34.02469 0.07181472 0
-27.54039 -34.02469 0.1218147 0
-27.54039 -33.97469 0.1218147 0
-27.49039 -34.02469 0.1218147 0
-27.49039 -33.97469 0.07181472 0
-27.49039 -33.97469 0.1218147 0
-27.49039 -33.97469 0.1718147 0
-27.54039 -33.92469 0.1218147 0
-27.54039 -33.87469 0.1218147 0
-27.49039 -33.92469 0.07181472 0
-27.49039 -33.92469 0.1218147 0
-27.49039 -33.87469 0.1218147 0
-27.54039 -33.82469 0.1218147 0
-27.54039 -33.77469 0.1218147 0
-27.49039 -33.82469 0.07181472 0
-27.49039 -33.82469 0.1218147 0
-27.49039 -33.77469 0.1218147 0
-27.49039 -33.72469 0.07181472 0
-27.49039 -33.72469 0.1218147 0
-27.49039 -33.67469 0.1218147 0
-27.49039 -33.72469 0.1718147 0
-27.49039 -33.67469 0.1718147 0
-27.39039 -33.92469 0.1718147 0
-27.39039 -33.77469 0.1718147 0
-27.34039 -33.82469 0.1718147 0
-27.04039 -34.07469 0.1718147 0
-26.94039 -34.17469 0.1718147 0
-26.94039 -34.12469 0.1718147 0
-27.24039 -33.87469 0.1718147 0
-27.19039 -33.92469 0.1718147 0
-27.14039 -33.97469 0.1718147 0
-27.09039 -34.02469 0.1718147 0
-27.24039 -33.82469 0.1718147 0
-27.14039 -33.77469 0.1718147 0
-27.04039 -33.72469 0.1718147 0
-26.94039 -33.67469 0.1718147 0
-26.84039 -35.02469 0.1218147 0
-26.84039 -34.97469 0.1718147 0
-26.79039 -34.87469 0.1718147 0
-26.74039 -34.77469 0.1718147 0
-26.69039 -34.67469 0.1718147 0
-26.64039 -34.67469 0.1718147 0
-26.64039 -34.62469 0.1718147 0
-26.59039 -34.57469 0.1718147 0
-26.59039 -34.47469 0.1718147 0
-26.54039 -34.62469 0.1718147 0
-26.49039 -34.62469 0.1718147 0
-26.54039 -34.52469 0.1718147 0
-26.49039 -34.52469 0.1718147 0
-26.29039 -35.22469 0.1718147 0
-26.29039 -34.87469 0.1718147 0
-26.24039 -35.12469 0.1718147 0
-26.19039 -35.07469 0.1718147 0
-26.14039 -35.17469 0.1718147 0
-26.14039 -35.12469 0.1718147 0
-26.24039 -35.02469 0.1718147 0
-26.24039 -34.97469 0.1718147 0
-26.24039 -34.87469 0.1718147 0
-26.44039 -34.72469 0.1718147 0
-26.44039 -34.67469 0.1718147 0
-26.34039 -34.82469 0.1718147 0
-26.29039 -34.57469 0.1718147 0
-26.29039 -34.52469 0.1718147 0
-26.24039 -34.77469 0.1718147 0
-26.24039 -34.67469 0.1718147 0
-26.79039 -34.27469 0.1718147 0
-26.69039 -34.37469 0.1718147 0
-26.84039 -34.22469 0.1718147 0
-26.64039 -34.42469 0.1718147 0
-26.54039 -34.37469 0.1718147 0
-26.54039 -34.32469 0.1718147 0
-26.49039 -34.27469 0.1718147 0
-26.49039 -34.17469 0.1718147 0
-26.34039 -34.42469 0.1718147 0
-26.29039 -34.42469 0.1718147 0
-26.29039 -34.37469 0.1718147 0
-26.29039 -34.27469 0.1718147 0
-26.44039 -34.07469 0.1718147 0
-26.34039 -34.17469 0.1718147 0
-26.34039 -34.07469 0.1718147 0
-26.19039 -34.27469 0.1718147 0
-26.09039 -34.22469 0.1718147 0
-26.44039 -34.02469 0.1718147 0
-26.39039 -33.97469 0.1718147 0
-26.39039 -33.87469 0.1718147 0
-26.34039 -33.97469 0.1718147 0
-26.44039 -33.77469 0.1718147 0
-26.44039 -33.67469 0.1718147 0
-26.34039 -33.77469 0.1718147 0
-26.34039 -33.67469 0.1718147 0
-25.99039 -36.47469 0.2218147 0
-25.84039 -36.82469 0.1718147 0
-25.69039 -36.82469 0.1718147 0
-25.74039 -36.72469 0.1718147 0
-25.69039 -36.67469 0.1718147 0
-25.69039 -36.57469 0.1718147 0
-25.69039 -36.47469 0.1718147 0
-25.94039 -36.37469 0.2218147 0
-25.84039 -36.27469 0.2218147 0
-25.69039 -36.42469 0.1718147 0
-25.74039 -36.32469 0.1718147 0
-25.74039 -36.27469 0.1718147 0
-25.79039 -36.17469 0.2218147 0
-25.79039 -36.12469 0.1718147 0
-25.74039 -36.22469 0.1718147 0
-25.69039 -36.07469 0.2218147 0
-25.49039 -36.47469 0.1718147 0
-25.39039 -36.37469 0.1718147 0
-25.29039 -36.27469 0.1718147 0
-25.29039 -36.32469 0.6718147 0
-25.29039 -36.17469 0.6718147 0
-25.29039 -36.12469 0.6718147 0
-25.29039 -36.07469 0.7218148 0
-25.89039 -35.72469 0.1718147 0
-25.89039 -35.67469 0.1718147 0
-25.79039 -35.97469 0.1718147 0
-25.84039 -35.87469 0.1718147 0
-25.84039 -35.77469 0.1718147 0
-25.99039 -35.47469 0.1218147 0
-25.94039 -35.62469 0.1718147 0
-25.94039 -35.52469 0.1718147 0
-25.99039 -35.42469 0.1718147 0
-26.04039 -35.32469 0.1718147 0
-25.89039 -35.42469 0.1218147 0
-25.79039 -35.37469 0.1218147 0
-25.59039 -35.97469 0.2218147 0
-25.54039 -35.87469 0.2218147 0
-25.44039 -35.82469 0.2218147 0
-25.34039 -35.72469 0.2218147 0
-25.34039 -36.02469 0.6718147 0
-25.29039 -36.02469 0.7218148 0
-25.29039 -35.97469 0.7218148 0
-25.29039 -35.92469 0.7218148 0
-25.29039 -35.87469 0.7218148 0
-25.64039 -35.32469 0.1218147 0
-25.54039 -35.32469 0.1218147 0
-25.29039 -35.62469 0.2218147 0
-25.44039 -35.27469 0.1218147 0
-25.14039 -36.82469 0.8218147 0
-25.09039 -36.77469 0.8218147 0
-25.14039 -36.72469 0.8218147 0
-25.09039 -36.72469 0.8218147 0
-25.19039 -36.57469 0.7218148 0
-25.19039 -36.62469 0.7718147 0
-25.19039 -36.57469 0.7718147 0
-25.24039 -36.47469 0.7218148 0
-25.19039 -36.52469 0.7718147 0
-25.19039 -36.47469 0.7718147 0
-25.19039 -36.47469 0.8218147 0
-25.14039 -36.62469 0.7718147 0
-25.14039 -36.62469 0.8218147 0
-25.14039 -36.57469 0.8218147 0
-25.09039 -36.62469 0.8218147 0
-25.14039 -36.47469 0.7718147 0
-25.14039 -36.47469 0.8218147 0
-25.09039 -36.52469 0.8218147 0
-25.19039 -36.22469 0.1718147 0
-25.14039 -36.12469 0.1718147 0
-24.99039 -36.07469 0.1718147 0
-25.24039 -36.37469 0.7218148 0
-25.19039 -36.42469 0.7218148 0
-25.19039 -36.42469 0.7718147 0
-25.19039 -36.37469 0.7718147 0
-25.24039 -36.32469 0.7218148 0
-25.24039 -36.27469 0.7218148 0
-25.19039 -36.27469 0.7218148 0
-25.24039 -36.32469 0.7718147 0
-25.19039 -36.32469 0.7718147 0
-25.19039 -36.27469 0.7718147 0
-25.19039 -36.27469 0.8218147 0
-25.14039 -36.37469 0.8218147 0
-25.09039 -36.37469 0.8218147 0
-25.14039 -36.27469 0.8218147 0
-25.24039 -36.22469 0.7218148 0
-25.24039 -36.17469 0.7218148 0
-25.19039 -36.17469 0.7218148 0
-25.19039 -36.22469 0.7718147 0
-25.19039 -36.17469 0.7718147 0
-25.19039 -36.17469 0.8218147 0
-25.24039 -36.12469 0.7218148 0
-25.24039 -36.12469 0.7718147 0
-25.24039 -36.07469 0.7718147 0
-25.19039 -36.07469 0.7718147 0
-25.19039 -36.07469 0.8218147 0
-25.14039 -36.17469 0.8218147 0
-25.14039 -36.07469 0.8218147 0
-25.09039 -36.12469 0.8218147 0
-24.64039 -36.82469 0.1718147 0
-24.59039 -36.72469 0.1718147 0
-24.59039 -36.67469 0.1718147 0
-24.59039 -36.57469 0.1718147 0
-24.59039 -36.52469 0.1718147 0
-24.59039 -36.42469 0.1718147 0
-24.59039 -36.37469 0.1718147 0
-24.59039 -36.22469 0.1218147 0
-24.59039 -36.22469 0.1718147 0
-24.59039 -36.07469 0.1218147 0
-24.59039 -36.07469 0.1718147 0
-25.09039 -36.57469 0.8718147 0
-25.14039 -36.52469 0.8718147 0
-25.09039 -36.57469 1.121815 0
-25.14039 -36.47469 1.071815 0
-25.09039 -36.52469 1.071815 0
-25.09039 -36.52469 1.121815 0
-25.09039 -36.47469 1.121815 0
-25.04039 -36.77469 0.9218147 0
-24.99039 -36.82469 0.9218147 0
-24.99039 -36.82469 0.9718148 0
-24.99039 -36.77469 1.021815 0
-25.04039 -36.72469 0.9218147 0
-25.04039 -36.67469 0.9218147 0
-24.99039 -36.72469 0.9218147 0
-24.99039 -36.72469 0.9718148 0
-24.99039 -36.67469 0.9718148 0
-24.94039 -36.82469 1.021815 0
-24.94039 -36.77469 0.9718148 0
-24.89039 -36.82469 1.021815 0
-24.89039 -36.77469 1.021815 0
-24.94039 -36.72469 0.9718148 0
-24.89039 -36.67469 1.021815 0
-24.99039 -36.77469 1.121815 0
-24.99039 -36.72469 1.121815 0
-24.99039 -36.67469 1.171815 0
-24.94039 -36.82469 1.121815 0
-24.94039 -36.77469 1.071815 0
-24.89039 -36.82469 1.171815 0
-24.94039 -36.67469 1.071815 0
-24.94039 -36.67469 1.121815 0
-24.94039 -36.72469 1.171815 0
-25.04039 -36.62469 0.9218147 0
-24.99039 -36.62469 0.9218147 0
-24.99039 -36.62469 0.9718148 0
-25.04039 -36.52469 0.9218147 0
-24.99039 -36.52469 0.9218147 0
-24.99039 -36.52469 0.9718148 0
-24.99039 -36.47469 0.9718148 0
-24.94039 -36.62469 0.9718148 0
-24.94039 -36.57469 1.021815 0
-24.89039 -36.62469 1.021815 0
-24.94039 -36.52469 1.021815 0
-24.94039 -36.47469 0.9718148 0
-24.94039 -36.47469 1.021815 0
-25.04039 -36.62469 1.071815 0
-25.04039 -36.62469 1.121815 0
-25.04039 -36.57469 1.121815 0
-25.04039 -36.57469 1.171815 0
-24.99039 -36.62469 1.171815 0
-25.04039 -36.52469 1.171815 0
-24.99039 -36.47469 1.221815 0
-24.94039 -36.62469 1.071815 0
-24.94039 -36.57469 1.071815 0
-24.94039 -36.62469 1.171815 0
-24.94039 -36.57469 1.221815 0
-24.89039 -36.62469 1.221815 0
-24.94039 -36.47469 1.071815 0
-24.89039 -36.52469 1.221815 0
-25.09039 -36.57469 1.321815 0
-25.14039 -36.47469 1.371815 0
-25.09039 -36.52469 1.421815 0
-25.09039 -36.47469 1.421815 0
-24.99039 -36.67469 1.421815 0
-24.89039 -36.82469 1.371815 0
-24.89039 -36.82469 1.421815 0
-24.89039 -36.77469 1.421815 0
-24.94039 -36.72469 1.421815 0
-24.94039 -36.67469 1.371815 0
-24.94039 -36.67469 1.471815 0
-24.89039 -36.72469 1.471815 0
-24.89039 -36.67469 1.471815 0
-25.04039 -36.57469 1.371815 0
-24.99039 -36.62469 1.421815 0
-25.04039 -36.52469 1.421815 0
-24.99039 -36.52469 1.421815 0
-24.89039 -36.57469 1.271815 0
-24.94039 -36.57469 1.421815 0
-24.89039 -36.62469 1.421815 0
-24.94039 -36.52469 1.271815 0
-24.94039 -36.47469 1.271815 0
-24.89039 -36.47469 1.271815 0
-24.89039 -36.47469 1.321815 0
-24.99039 -36.47469 1.471815 0
-24.94039 -36.62469 1.471815 0
-24.89039 -36.62469 1.471815 0
-24.89039 -36.62469 1.521815 0
-24.89039 -36.57469 1.521815 0
-24.94039 -36.52469 1.471815 0
-24.94039 -36.52469 1.521815 0
-24.94039 -36.47469 1.521815 0
-24.89039 -36.47469 1.571815 0
-25.14039 -36.42469 0.8718147 0
-25.09039 -36.42469 0.8718147 0
-25.09039 -36.37469 0.8718147 0
-25.14039 -36.32469 0.8718147 0
-25.09039 -36.27469 0.8718147 0
-25.24039 -36.37469 1.071815 0
-25.19039 -36.37469 1.071815 0
-25.24039 -36.32469 1.071815 0
-25.24039 -36.27469 1.071815 0
-25.19039 -36.32469 1.071815 0
-25.19039 -36.32469 1.121815 0
-25.14039 -36.42469 1.121815 0
-25.14039 -36.37469 1.121815 0
-25.09039 -36.42469 1.171815 0
-25.14039 -36.27469 1.121815 0
-25.14039 -36.32469 1.171815 0
-25.14039 -36.22469 0.8718147 0
-25.09039 -36.22469 0.8718147 0
-25.14039 -36.12469 0.8718147 0
-25.09039 -36.12469 0.8718147 0
-25.19039 -36.22469 1.071815 0
-25.19039 -36.22469 1.121815 0
-25.19039 -36.17469 1.071815 0
-25.19039 -36.22469 1.221815 0
-25.19039 -36.12469 1.071815 0
-25.19039 -36.07469 1.221815 0
-25.14039 -36.22469 1.171815 0
-25.09039 -36.17469 1.171815 0
-25.14039 -36.12469 1.121815 0
-25.14039 -36.12469 1.171815 0
-25.09039 -36.12469 1.171815 0
-25.09039 -36.07469 1.171815 0
-25.04039 -36.42469 0.8718147 0
-25.04039 -36.42469 0.9218147 0
-25.04039 -36.37469 0.9218147 0
-24.99039 -36.42469 0.9718148 0
-25.04039 -36.32469 0.9218147 0
-24.99039 -36.32469 0.9718148 0
-24.99039 -36.32469 1.021815 0
-24.99039 -36.27469 0.9718148 0
-24.99039 -36.27469 1.021815 0
-24.94039 -36.42469 1.021815 0
-24.94039 -36.37469 0.9718148 0
-24.94039 -36.37469 1.021815 0
-24.94039 -36.32469 1.021815 0
-24.94039 -36.27469 1.021815 0
-25.04039 -36.42469 1.171815 0
-24.99039 -36.42469 1.171815 0
-24.99039 -36.42469 1.221815 0
-24.99039 -36.37469 1.221815 0
-25.04039 -36.32469 1.221815 0
-25.04039 -36.27469 1.221815 0
-24.94039 -36.37469 1.071815 0
-24.94039 -36.32469 1.071815 0
-24.94039 -36.27469 1.071815 0
-25.04039 -36.22469 0.8718147 0
-25.04039 -36.22469 0.9718148 0
-25.04039 -36.17469 0.9718148 0
-24.99039 -36.22469 1.021815 0
-24.99039 -36.17469 0.9718148 0
-24.99039 -36.17469 1.021815 0
-25.04039 -36.12469 0.9718148 0
-25.04039 -36.07469 0.9718148 0
-24.99039 -36.12469 0.9718148 0
-24.99039 -36.12469 1.021815 0
-24.99039 -36.07469 0.9718148 0
-24.94039 -36.22469 1.021815 0
-24.94039 -36.12469 1.021815 0
-24.94039 -36.07469 1.021815 0
-25.04039 -36.17469 1.221815 0
-25.04039 -36.12469 1.221815 0
-24.94039 -36.22469 1.071815 0
-24.94039 -36.12469 1.071815 0
-24.94039 -36.07469 1.071815 0
-25.19039 -36.27469 1.321815 0
-25.14039 -36.37469 1.371815 0
-25.09039 -36.42469 1.421815 0
-25.09039 -36.37469 1.421815 0
-25.14039 -36.27469 1.321815 0
-25.14039 -36.32469 1.371815 0
-25.14039 -36.27469 1.371815 0
-25.09039 -36.27469 1.471815 0
-25.19039 -36.22469 1.321815 0
-25.19039 -36.12469 1.271815 0
-25.19039 -36.07469 1.271815 0
-25.14039 -36.22469 1.371815 0
-25.09039 -36.22469 1.371815 0
-25.09039 -36.17469 1.371815 0
-25.14039 -36.12469 1.271815 0
-25.14039 -36.07469 1.271815 0
-25.09039 -36.12469 1.371815 0
-24.99039 -36.37469 1.271815 0
-24.99039 -36.37469 1.321815 0
-25.04039 -36.37469 1.421815 0
-24.99039 -36.32469 1.271815 0
-25.04039 -36.27469 1.421815 0
-24.99039 -36.27469 1.421815 0
-24.94039 -36.42469 1.271815 0
-24.89039 -36.32469 1.371815 0
-25.04039 -36.42469 1.471815 0
-25.04039 -36.37469 1.521815 0
-24.99039 -36.42469 1.521815 0
-24.99039 -36.37469 1.521815 0
-25.04039 -36.32469 1.471815 0
-24.99039 -36.32469 1.471815 0
-24.99039 -36.27469 1.521815 0
-24.99039 -36.32469 1.571815 0
-24.94039 -36.37469 1.571815 0
-24.89039 -36.42469 1.621815 0
-24.94039 -36.32469 1.571815 0
-24.89039 -36.32469 1.621815 0
-24.89039 -36.27469 1.571815 0
-24.89039 -36.27469 1.621815 0
-24.99039 -36.22469 1.271815 0
-24.99039 -36.22469 1.321815 0
-25.04039 -36.22469 1.421815 0
-24.99039 -36.17469 1.421815 0
-24.99039 -36.12469 1.271815 0
-24.99039 -36.12469 1.321815 0
-24.99039 -36.07469 1.271815 0
-24.89039 -36.22469 1.371815 0
-24.89039 -36.17469 1.421815 0
-24.94039 -36.07469 1.421815 0
-24.89039 -36.12469 1.421815 0
-25.04039 -36.17469 1.471815 0
-24.99039 -36.17469 1.471815 0
-24.99039 -36.12469 1.471815 0
-24.94039 -36.22469 1.521815 0
-24.94039 -36.17469 1.521815 0
-24.89039 -36.17469 1.521815 0
-24.94039 -36.22469 1.571815 0
-24.89039 -36.22469 1.571815 0
-24.89039 -36.22469 1.621815 0
-24.89039 -36.17469 1.621815 0
-24.94039 -36.12469 1.471815 0
-24.94039 -36.07469 1.471815 0
-24.89039 -36.12469 1.521815 0
-24.89039 -36.07469 1.521815 0
-24.89039 -36.12469 1.571815 0
-24.84039 -36.82469 1.171815 0
-24.84039 -36.77469 1.171815 0
-24.79039 -36.82469 1.221815 0
-24.79039 -36.77469 1.221815 0
-24.84039 -36.72469 1.221815 0
-24.84039 -36.67469 1.221815 0
-24.79039 -36.82469 1.271815 0
-24.79039 -36.77469 1.271815 0
-24.79039 -36.82469 1.421815 0
-24.84039 -36.67469 1.271815 0
-24.79039 -36.67469 1.271815 0
-24.79039 -36.67469 1.321815 0
-24.74039 -36.82469 1.271815 0
-24.74039 -36.77469 1.321815 0
-24.69039 -36.82469 1.321815 0
-24.69039 -36.77469 1.371815 0
-24.74039 -36.67469 1.371815 0
-24.69039 -36.72469 1.371815 0
-24.84039 -36.77469 1.471815 0
-24.79039 -36.82469 1.471815 0
-24.79039 -36.77469 1.471815 0
-24.79039 -36.77469 1.521815 0
-24.84039 -36.67469 1.471815 0
-24.84039 -36.67469 1.521815 0
-24.79039 -36.67469 1.521815 0
-24.79039 -36.67469 1.571815 0
-24.74039 -36.77469 1.571815 0
-24.69039 -36.82469 1.571815 0
-24.74039 -36.72469 1.571815 0
-24.74039 -36.67469 1.621815 0
-24.84039 -36.62469 1.271815 0
-24.84039 -36.57469 1.321815 0
-24.79039 -36.57469 1.371815 0
-24.84039 -36.47469 1.371815 0
-24.79039 -36.52469 1.371815 0
-24.74039 -36.57469 1.371815 0
-24.84039 -36.62469 1.521815 0
-24.84039 -36.57469 1.621815 0
-24.79039 -36.57469 1.571815 0
-24.84039 -36.52469 1.571815 0
-24.79039 -36.52469 1.571815 0
-24.79039 -36.47469 1.621815 0
-24.69039 -36.57469 1.621815 0
-24.64039 -36.82469 1.321815 0
-24.64039 -36.82469 1.371815 0
-24.54039 -36.82469 1.371815 0
-24.54039 -36.77469 1.371815 0
-24.49039 -36.82469 1.371815 0
-24.64039 -36.77469 1.621815 0
-24.59039 -36.77469 1.621815 0
-24.54039 -36.77469 1.471815 0
-24.49039 -36.67469 1.521815 0
-24.64039 -36.62469 1.421815 0
-24.64039 -36.62469 1.621815 0
-24.54039 -36.62469 1.471815 0
-24.84039 -36.42469 1.371815 0
-24.84039 -36.37469 1.371815 0
-24.69039 -36.42469 1.421815 0
-24.74039 -36.27469 1.471815 0
-24.84039 -36.17469 1.621815 0
-24.79039 -36.22469 1.621815 0
-24.84039 -36.12469 1.621815 0
-24.84039 -36.07469 1.621815 0
-24.74039 -36.07469 1.621815 0
-24.59039 -36.27469 1.621815 0
-24.94039 -35.97469 0.1718147 0
-25.24039 -36.02469 0.7218148 0
-25.24039 -36.02469 0.7718147 0
-25.24039 -35.97469 0.7718147 0
-25.19039 -36.02469 0.8218147 0
-25.19039 -35.97469 0.8218147 0
-25.24039 -35.87469 0.7718147 0
-25.19039 -35.92469 0.8218147 0
-25.19039 -35.87469 0.8218147 0
-25.24039 -35.82469 0.7718147 0
-25.24039 -35.77469 0.7718147 0
-25.19039 -35.82469 0.7718147 0
-25.24039 -35.72469 0.7718147 0
-25.24039 -35.67469 0.7718147 0
-25.24039 -35.67469 0.8218147 0
-25.19039 -35.52469 0.2218147 0
-25.09039 -35.42469 0.2218147 0
-25.04039 -35.32469 0.2218147 0
-24.94039 -35.27469 0.2218147 0
-25.24039 -35.62469 0.7718147 0
-25.19039 -35.52469 0.8218147 0
-25.24039 -35.42469 0.8218147 0
-25.19039 -35.42469 0.8218147 0
-25.14039 -35.32469 0.8218147 0
-24.84039 -35.87469 0.1718147 0
-24.74039 -35.82469 0.1718147 0
-24.59039 -36.02469 0.1718147 0
-24.59039 -35.87469 0.1218147 0
-24.59039 -35.87469 0.1718147 0
-24.54039 -35.92469 0.1718147 0
-24.64039 -35.77469 0.1718147 0
-24.59039 -35.67469 0.1218147 0
-24.59039 -35.72469 0.1718147 0
-24.59039 -35.52469 0.1718147 0
-24.54039 -35.57469 0.1218147 0
-24.54039 -35.62469 0.1718147 0
-24.54039 -35.42469 0.1718147 0
-25.19039 -35.92469 0.8718147 0
-25.14039 -36.02469 0.8718147 0
-25.09039 -36.02469 0.8718147 0
-25.14039 -35.92469 0.8718147 0
-25.14039 -35.87469 0.8718147 0
-25.09039 -35.87469 0.8718147 0
-25.19039 -36.02469 1.071815 0
-25.19039 -35.97469 1.071815 0
-25.24039 -35.97469 1.221815 0
-25.19039 -35.97469 1.221815 0
-25.19039 -35.92469 1.071815 0
-25.19039 -35.87469 1.121815 0
-25.19039 -35.92469 1.221815 0
-25.19039 -35.87469 1.221815 0
-25.14039 -36.02469 1.171815 0
-25.14039 -36.02469 1.221815 0
-25.09039 -36.02469 1.171815 0
-25.09039 -36.02469 1.221815 0
-25.14039 -35.92469 1.121815 0
-25.14039 -35.92469 1.171815 0
-25.14039 -35.92469 1.221815 0
-25.14039 -35.87469 1.221815 0
-25.09039 -35.92469 1.171815 0
-25.09039 -35.92469 1.221815 0
-25.09039 -35.87469 1.171815 0
-25.09039 -35.87469 1.221815 0
-25.19039 -35.82469 0.8718147 0
-25.19039 -35.77469 0.8718147 0
-25.19039 -35.72469 0.8718147 0
-25.19039 -35.67469 0.8718147 0
-25.14039 -35.82469 0.8718147 0
-25.09039 -35.82469 0.9718148 0
-25.14039 -35.72469 0.9218147 0
-25.09039 -35.72469 0.9718148 0
-25.09039 -35.67469 0.9718148 0
-25.19039 -35.82469 1.071815 0
-25.19039 -35.77469 1.121815 0
-25.19039 -35.72469 1.071815 0
-25.19039 -35.72469 1.121815 0
-25.19039 -35.72469 1.171815 0
-25.19039 -35.67469 1.171815 0
-25.14039 -35.77469 1.071815 0
-25.14039 -35.82469 1.221815 0
-25.14039 -35.77469 1.221815 0
-25.09039 -35.82469 1.171815 0
-25.09039 -35.77469 1.171815 0
-25.14039 -35.72469 1.121815 0
-25.14039 -35.67469 1.121815 0
-25.14039 -35.72469 1.221815 0
-25.09039 -35.67469 1.171815 0
-25.09039 -35.67469 1.221815 0
-25.04039 -36.02469 0.9718148 0
-25.04039 -35.97469 0.9718148 0
-24.99039 -36.02469 0.9718148 0
-24.99039 -36.02469 1.021815 0
-24.99039 -35.97469 1.021815 0
-25.04039 -35.92469 0.9718148 0
-25.04039 -35.87469 0.9718148 0
-24.99039 -35.92469 0.9718148 0
-24.99039 -35.92469 1.021815 0
-24.99039 -35.87469 0.9718148 0
-24.94039 -35.92469 1.021815 0
-24.99039 -35.97469 1.071815 0
-25.04039 -36.02469 1.221815 0
-24.99039 -35.92469 1.071815 0
-24.99039 -35.87469 1.071815 0
-24.94039 -35.92469 1.071815 0
-24.94039 -35.87469 1.071815 0
-25.04039 -35.82469 0.9718148 0
-25.04039 -35.82469 1.021815 0
-25.04039 -35.77469 0.9718148 0
-25.04039 -35.72469 0.9718148 0
-25.04039 -35.67469 0.9718148 0
-25.04039 -35.67469 1.021815 0
-24.99039 -35.72469 1.021815 0
-24.99039 -35.82469 1.071815 0
-25.04039 -35.82469 1.221815 0
-24.99039 -35.72469 1.071815 0
-25.04039 -35.72469 1.221815 0
-25.04039 -35.67469 1.221815 0
-24.89039 -35.77469 1.121815 0
-24.94039 -35.67469 1.071815 0
-25.14039 -36.02469 1.271815 0
-25.14039 -36.02469 1.321815 0
-25.14039 -35.97469 1.271815 0
-25.09039 -36.02469 1.321815 0
