# .PCD v0.7 - Point Cloud Data file format
VERSION 0.7
FIELDS x y z intensity
SIZE 4 4 4 4
TYPE F F F F
COUNT 1 1 1 1
WIDTH 1563
HEIGHT 1
VIEWPOINT 0 0 0 1 0 0 0
POINTS 1563
DATA ascii
122.5096 -50.42469 0.2718147 0
122.5096 -50.42469 0.3718147 0
122.5096 -50.42469 0.4218147 0
122.5596 -50.32469 0.2718147 0
122.5596 -50.32469 0.3718147 0
122.5596 -50.32469 0.4218147 0
122.6596 -50.42469 0.3218147 0
122.5596 -50.22469 0.2718147 0
122.5596 -50.22469 0.3718147 0
122.5596 -50.22469 0.4718147 0
122.7596 -55.97469 0.1718147 0
122.7596 -55.87469 0.1718147 0
122.7596 -54.52469 0.1218147 0
122.8596 -54.52469 0.1218147 0
122.9596 -54.52469 0.1218147 0
123.0096 -54.52469 0.1218147 0
123.0596 -54.47469 0.1218147 0
123.1596 -54.47469 0.1218147 0
123.2596 -54.47469 0.1218147 0
123.3596 -54.47469 0.1218147 0
123.4596 -54.47469 0.1218147 0
124.0096 -55.97469 0.07181472 0
124.1096 -55.87469 0.07181472 0
124.1596 -55.77469 0.07181472 0
124.2596 -55.67469 0.07181472 0
124.3096 -55.52469 0.07181472 0
123.5596 -54.52469 0.1218147 0
123.6596 -54.57469 0.1218147 0
123.7596 -54.57469 0.1218147 0
123.8596 -54.57469 0.1718147 0
124.0096 -54.62469 0.1718147 0
124.1096 -54.62469 0.1718147 0
124.2096 -54.62469 0.1718147 0
124.2596 -54.62469 0.1718147 0
122.7596 -54.37469 0.07181472 0
122.8596 -54.27469 0.07181472 0
122.9096 -54.27469 0.1218147 0
122.8096 -54.22469 0.1218147 0
122.9096 -54.12469 0.07181472 0
123.0096 -54.32469 0.1218147 0
123.1096 -54.37469 0.1218147 0
122.8596 -53.92469 0.1218147 0
122.9096 -53.92469 0.07181472 0
122.7596 -53.77469 0.07181472 0
122.7596 -53.72469 0.07181472 0
122.7596 -53.67469 0.07181472 0
122.8096 -53.72469 0.07181472 0
122.8096 -53.72469 0.1218147 0
122.8096 -53.67469 0.1218147 0
122.8596 -53.72469 0.07181472 0
122.8596 -53.67469 0.07181472 0
122.9096 -53.72469 0.1218147 0
122.9096 -53.67469 0.07181472 0
122.9096 -53.67469 0.1218147 0
122.9596 -54.02469 0.07181472 0
123.0096 -53.87469 0.07181472 0
122.9596 -53.72469 0.07181472 0
122.9596 -53.67469 0.1218147 0
123.0096 -53.72469 0.1218147 0
123.0096 -53.67469 0.07181472 0
123.0596 -53.77469 0.07181472 0
123.0596 -53.72469 0.07181472 0
123.0596 -53.67469 0.1218147 0
123.1096 -53.72469 0.1218147 0
123.1096 -53.67469 0.07181472 0
123.1096 -53.67469 0.1218147 0
123.1596 -54.42469 0.1218147 0
123.2596 -54.42469 0.1218147 0
123.3596 -54.42469 0.1218147 0
123.4596 -54.42469 0.1218147 0
123.1596 -53.87469 0.1218147 0
123.2096 -53.92469 0.07181472 0
123.1596 -53.72469 0.07181472 0
123.1596 -53.67469 0.1218147 0
123.2096 -53.72469 0.1218147 0
123.2096 -53.67469 0.07181472 0
123.2596 -53.77469 0.07181472 0
123.3096 -53.77469 0.07181472 0
123.2596 -53.72469 0.07181472 0
123.2596 -53.67469 0.1218147 0
123.3096 -53.72469 0.1218147 0
123.3096 -53.67469 0.07181472 0
123.4096 -53.92469 0.1218147 0
123.4596 -53.92469 0.07181472 0
123.4096 -53.77469 0.07181472 0
123.3596 -53.72469 0.07181472 0
123.3596 -53.67469 0.1218147 0
123.4096 -53.72469 0.1218147 0
123.4096 -53.67469 0.07181472 0
123.4596 -53.72469 0.07181472 0
123.4596 -53.72469 0.1218147 0
123.5096 -53.72469 0.1218147 0
123.5096 -53.67469 0.07181472 0
122.8096 -53.62469 0.07181472 0
122.8596 -53.62469 0.1218147 0
122.8096 -53.42469 0.1218147 0
123.1096 -53.42469 0.1218147 0
123.2096 -53.62469 0.1718147 0
123.4096 -53.47469 0.1218147 0
123.5596 -54.37469 0.1218147 0
123.6096 -54.32469 0.1218147 0
123.6596 -54.32469 0.1718147 0
123.7596 -54.32469 0.1718147 0
123.8596 -54.27469 0.1718147 0
123.9096 -54.22469 0.1718147 0
123.6596 -53.92469 0.1218147 0
123.6096 -53.77469 0.07181472 0
123.5596 -53.72469 0.07181472 0
123.5596 -53.72469 0.1218147 0
123.5596 -53.67469 0.07181472 0
123.6096 -53.72469 0.1218147 0
123.6096 -53.67469 0.07181472 0
123.5596 -53.67469 0.1718147 0
123.6596 -53.77469 0.07181472 0
123.6596 -53.72469 0.1218147 0
123.6596 -53.67469 0.07181472 0
123.7096 -53.72469 0.1218147 0
123.7096 -53.67469 0.07181472 0
123.7096 -53.67469 0.1718147 0
123.7596 -53.92469 0.07181472 0
123.7596 -53.77469 0.07181472 0
123.7596 -53.72469 0.07181472 0
123.7596 -53.72469 0.1218147 0
123.7596 -53.67469 0.07181472 0
123.8096 -53.72469 0.1218147 0
123.8596 -53.82469 0.07181472 0
123.8596 -53.77469 0.07181472 0
123.9096 -53.77469 0.1218147 0
123.8596 -53.72469 0.07181472 0
123.8596 -53.72469 0.1218147 0
123.9096 -53.72469 0.1218147 0
123.9096 -53.67469 0.07181472 0
123.8596 -53.67469 0.1718147 0
123.9596 -54.22469 0.1718147 0
124.0596 -54.17469 0.1718147 0
124.1596 -54.12469 0.1718147 0
124.2596 -54.07469 0.1718147 0
123.9596 -53.92469 0.1218147 0
124.0096 -53.92469 0.07181472 0
123.9596 -53.77469 0.07181472 0
124.0096 -53.77469 0.07181472 0
124.0096 -53.77469 0.1218147 0
123.9596 -53.72469 0.07181472 0
123.9596 -53.72469 0.1218147 0
124.0096 -53.72469 0.07181472 0
124.0096 -53.72469 0.1218147 0
124.0096 -53.67469 0.07181472 0
124.0596 -53.77469 0.07181472 0
124.0596 -53.77469 0.1218147 0
124.1096 -53.77469 0.07181472 0
124.0596 -53.72469 0.1218147 0
124.1096 -53.72469 0.07181472 0
124.1096 -53.72469 0.1218147 0
124.1096 -53.72469 0.1718147 0
124.2096 -53.92469 0.1218147 0
124.3096 -54.02469 0.1718147 0
124.2596 -53.92469 0.1218147 0
124.1596 -53.77469 0.07181472 0
124.1596 -53.77469 0.1218147 0
124.2096 -53.77469 0.1718147 0
124.1596 -53.72469 0.07181472 0
124.1596 -53.72469 0.1218147 0
124.2096 -53.72469 0.07181472 0
124.1596 -53.72469 0.1718147 0
124.2096 -53.67469 0.1718147 0
124.2596 -53.77469 0.07181472 0
124.2596 -53.77469 0.1218147 0
124.2596 -53.82469 0.1718147 0
124.3096 -53.82469 0.1718147 0
124.2596 -53.72469 0.07181472 0
124.2596 -53.72469 0.1218147 0
124.3096 -53.72469 0.07181472 0
123.7096 -53.47469 0.1218147 0
124.0096 -53.47469 0.1218147 0
124.2596 -53.52469 0.1218147 0
124.4096 -55.42469 0.07181472 0
124.4596 -55.32469 0.07181472 0
124.5096 -55.22469 0.07181472 0
124.6096 -55.12469 0.07181472 0
124.6596 -54.97469 0.07181472 0
124.7096 -54.87469 0.07181472 0
124.3596 -54.62469 0.1718147 0
124.4596 -54.62469 0.1718147 0
124.5596 -54.62469 0.1718147 0
124.7096 -54.62469 0.1718147 0
124.7596 -54.77469 0.07181472 0
124.8596 -54.67469 0.07181472 0
124.7596 -54.62469 0.1718147 0
124.8596 -54.62469 0.1718147 0
124.9096 -54.52469 0.07181472 0
125.1096 -54.72469 0.1718147 0
124.9596 -54.62469 0.1718147 0
125.0096 -54.52469 0.1718147 0
125.0596 -54.62469 0.1718147 0
125.0596 -54.57469 0.1718147 0
125.3096 -55.32469 0.1718147 0
125.5096 -55.62469 0.1718147 0
125.4596 -55.52469 0.1718147 0
125.4096 -55.42469 0.1718147 0
125.6096 -55.87469 0.1718147 0
125.6596 -55.97469 0.1718147 0
125.5596 -55.72469 0.1718147 0
125.2096 -55.07469 0.1718147 0
125.2596 -55.17469 0.1718147 0
125.1596 -54.97469 0.1718147 0
125.1596 -54.82469 0.1718147 0
125.1596 -54.57469 0.1718147 0
125.2596 -54.57469 0.1718147 0
125.3096 -54.47469 0.1718147 0
125.3596 -54.52469 0.1718147 0
125.4096 -54.47469 0.1718147 0
125.4596 -54.52469 0.1718147 0
125.5096 -54.52469 0.1718147 0
125.6096 -54.57469 0.1718147 0
125.6096 -54.47469 0.1718147 0
125.7096 -54.57469 0.1718147 0
125.6596 -54.47469 0.1718147 0
125.8096 -54.62469 0.1718147 0
125.9096 -54.62469 0.1718147 0
124.6096 -54.07469 0.1718147 0
124.6596 -54.12469 0.1718147 0
124.3596 -54.02469 0.1718147 0
124.4096 -53.97469 0.1718147 0
124.3596 -53.87469 0.1718147 0
124.4096 -53.92469 0.1718147 0
124.4596 -53.97469 0.1718147 0
124.4596 -53.92469 0.1218147 0
124.5096 -53.92469 0.1218147 0
124.5096 -53.92469 0.1718147 0
124.3596 -53.82469 0.07181472 0
124.3596 -53.77469 0.07181472 0
124.4096 -53.77469 0.07181472 0
124.3596 -53.72469 0.07181472 0
124.4096 -53.72469 0.07181472 0
124.4096 -53.72469 0.1218147 0
124.4596 -53.82469 0.07181472 0
124.4596 -53.77469 0.07181472 0
124.4596 -53.77469 0.1218147 0
124.5096 -53.77469 0.1218147 0
124.4596 -53.72469 0.07181472 0
124.5096 -53.67469 0.1718147 0
124.5596 -54.02469 0.1718147 0
124.5596 -53.87469 0.1718147 0
124.6096 -53.87469 0.1718147 0
124.7096 -53.92469 0.1218147 0
124.5596 -53.77469 0.07181472 0
124.6096 -53.82469 0.07181472 0
124.6096 -53.77469 0.1218147 0
124.5596 -53.72469 0.07181472 0
124.6096 -53.72469 0.07181472 0
124.5596 -53.72469 0.1718147 0
124.6596 -53.77469 0.07181472 0
124.6596 -53.77469 0.1218147 0
124.7096 -53.77469 0.07181472 0
124.7096 -53.77469 0.1218147 0
124.6596 -53.82469 0.1718147 0
124.7096 -53.77469 0.1718147 0
124.6596 -53.72469 0.07181472 0
124.7096 -53.72469 0.07181472 0
124.9096 -54.27469 0.1718147 0
124.7596 -54.17469 0.1718147 0
124.8096 -54.17469 0.1718147 0
124.8596 -54.22469 0.1718147 0
124.8596 -54.12469 0.1718147 0
124.9596 -54.42469 0.07181472 0
124.9596 -54.37469 0.1718147 0
125.0096 -54.32469 0.07181472 0
125.0096 -54.32469 0.1718147 0
125.1096 -54.37469 0.1718147 0
125.0596 -54.17469 0.07181472 0
125.1096 -54.07469 0.07181472 0
124.7596 -53.92469 0.1218147 0
124.8096 -53.92469 0.1718147 0
124.9096 -53.97469 0.1218147 0
124.8596 -54.02469 0.1718147 0
124.7596 -53.77469 0.07181472 0
124.8096 -53.82469 0.07181472 0
124.8096 -53.77469 0.1218147 0
124.7596 -53.77469 0.1718147 0
124.8096 -53.72469 0.07181472 0
124.8096 -53.72469 0.1718147 0
124.8596 -53.82469 0.07181472 0
124.8596 -53.77469 0.07181472 0
124.9096 -53.82469 0.07181472 0
124.9096 -53.77469 0.07181472 0
124.9096 -53.77469 0.1218147 0
124.9096 -53.72469 0.1718147 0
125.0096 -53.97469 0.1218147 0
124.9596 -53.77469 0.07181472 0
124.9596 -53.77469 0.1218147 0
125.0096 -53.82469 0.07181472 0
125.0096 -53.72469 0.07181472 0
125.0096 -53.72469 0.1218147 0
125.0596 -53.82469 0.07181472 0
125.0596 -53.77469 0.07181472 0
125.1096 -53.82469 0.07181472 0
125.1096 -53.77469 0.07181472 0
125.1096 -53.77469 0.1218147 0
125.0596 -53.72469 0.1218147 0
125.0596 -53.72469 0.1718147 0
124.5096 -53.52469 0.1218147 0
124.7596 -53.52469 0.1218147 0
125.0096 -53.52469 0.1218147 0
125.2096 -54.37469 0.1718147 0
125.1596 -53.97469 0.07181472 0
125.1596 -53.97469 0.1218147 0
125.2596 -53.97469 0.1218147 0
125.2596 -53.87469 0.07181472 0
125.1596 -53.82469 0.07181472 0
125.1596 -53.77469 0.07181472 0
125.2096 -53.77469 0.07181472 0
125.2096 -53.77469 0.1218147 0
125.2596 -53.82469 0.07181472 0
125.2596 -53.77469 0.07181472 0
125.2596 -53.77469 0.1218147 0
125.3096 -53.82469 0.07181472 0
125.3096 -53.82469 0.1218147 0
125.3096 -53.77469 0.07181472 0
125.3096 -53.77469 0.1218147 0
125.4096 -53.97469 0.1218147 0
125.4596 -53.97469 0.1218147 0
125.3596 -53.82469 0.07181472 0
125.3596 -53.77469 0.07181472 0
125.4096 -53.82469 0.07181472 0
125.4096 -53.82469 0.1218147 0
125.4096 -53.77469 0.07181472 0
125.3596 -53.72469 0.1718147 0
125.4596 -53.82469 0.1218147 0
125.4596 -53.77469 0.07181472 0
125.4596 -53.77469 0.1218147 0
125.5096 -53.82469 0.07181472 0
125.5096 -53.77469 0.1218147 0
125.7096 -54.42469 0.1718147 0
125.8096 -54.42469 0.1718147 0
125.9096 -54.37469 0.1718147 0
125.6096 -53.97469 0.1218147 0
125.5596 -53.87469 0.07181472 0
125.6096 -53.87469 0.07181472 0
125.7096 -53.97469 0.1218147 0
125.7096 -53.87469 0.07181472 0
125.5596 -53.82469 0.1218147 0
125.5596 -53.77469 0.07181472 0
125.6096 -53.82469 0.07181472 0
125.6096 -53.77469 0.07181472 0
125.6096 -53.77469 0.1218147 0
125.6096 -53.72469 0.1718147 0
125.6596 -53.77469 0.07181472 0
125.7096 -53.82469 0.07181472 0
125.7096 -53.82469 0.1218147 0
125.7096 -53.77469 0.07181472 0
125.7096 -53.77469 0.1218147 0
125.8096 -53.87469 0.07181472 0
125.8596 -53.97469 0.1218147 0
125.9096 -53.97469 0.1218147 0
125.8596 -53.87469 0.1718147 0
125.7596 -53.77469 0.07181472 0
125.8096 -53.82469 0.07181472 0
125.8096 -53.82469 0.1218147 0
125.8096 -53.77469 0.07181472 0
125.8096 -53.77469 0.1218147 0
125.8096 -53.77469 0.1718147 0
125.8596 -53.77469 0.07181472 0
125.9096 -53.82469 0.07181472 0
125.9096 -53.82469 0.1218147 0
125.9096 -53.77469 0.07181472 0
125.2596 -53.57469 0.1218147 0
125.5096 -53.57469 0.1218147 0
125.7096 -53.57469 0.1218147 0
125.9096 -53.62469 0.1218147 0
122.8596 -50.27469 0.1718147 0
122.7596 -50.32469 0.3218147 0
122.9096 -50.17469 0.3218147 0
122.8596 -50.17469 0.3718147 0
122.9096 -50.17469 0.3718147 0
122.9096 -50.17469 0.4218147 0
122.9096 -50.17469 0.4718147 0
122.9096 -50.17469 0.5218147 0
122.8596 -49.67469 0.2718147 0
122.9096 -49.67469 0.3218147 0
122.9096 -49.67469 0.3718147 0
124.6596 -50.62469 0.3218147 0
124.6596 -50.62469 0.3718147 0
124.6596 -50.57469 0.4218147 0
124.6596 -50.52469 0.2718147 0
124.6596 -50.52469 0.3718147 0
124.6596 -50.52469 0.4218147 0
124.7596 -50.52469 0.3218147 0
124.6596 -50.42469 0.2718147 0
124.6596 -50.37469 0.2718147 0
124.6596 -50.42469 0.3718147 0
124.6596 -50.42469 0.4218147 0
124.6596 -50.32469 0.3718147 0
124.6596 -50.32469 0.4718147 0
124.8596 -50.42469 0.3218147 0
124.9596 -50.37469 0.1718147 0
124.9596 -50.32469 0.1718147 0
125.0096 -50.32469 0.3718147 0
125.0096 -50.27469 0.3718147 0
125.0096 -50.27469 0.4218147 0
125.0596 -50.32469 0.3718147 0
125.0596 -50.27469 0.4218147 0
125.0096 -50.32469 0.4718147 0
125.0096 -50.32469 0.5218147 0
125.0596 -50.32469 0.4718147 0
125.0596 -50.32469 0.5218147 0
125.3596 -49.67469 0.2718147 0
125.3596 -49.67469 0.3718147 0
125.3596 -49.67469 0.4218147 0
126.3596 -61.97469 0.07181472 0
126.4096 -61.92469 0.07181472 0
126.5096 -61.92469 0.1718147 0
126.4096 -61.82469 0.07181472 0
126.5596 -61.87469 0.1718147 0
126.5596 -61.82469 0.1218147 0
126.6096 -61.77469 0.1718147 0
126.5596 -61.72469 0.07181472 0
126.5596 -61.67469 0.07181472 0
126.6596 -61.67469 0.1218147 0
126.6596 -61.67469 0.1718147 0
126.6596 -61.62469 0.07181472 0
126.6596 -61.57469 0.07181472 0
126.7096 -61.62469 0.1718147 0
126.7596 -61.57469 0.1218147 0
126.7596 -61.57469 0.1718147 0
126.7596 -61.52469 0.07181472 0
126.7596 -61.47469 0.07181472 0
126.8096 -61.52469 0.1718147 0
126.8596 -61.47469 0.1718147 0
126.9096 -61.47469 0.1718147 0
126.8596 -61.42469 0.07181472 0
126.9096 -61.42469 0.1718147 0
126.9596 -61.42469 0.1718147 0
127.0096 -61.37469 0.1718147 0
126.9596 -61.27469 0.07181472 0
127.0096 -61.27469 0.07181472 0
127.0596 -61.32469 0.1718147 0
127.1096 -61.27469 0.1718147 0
127.1096 -61.37469 0.4218147 0
127.0096 -61.42469 0.4718147 0
127.0096 -61.37469 0.4718147 0
127.0096 -61.07469 0.07181472 0
127.1096 -61.22469 0.1718147 0
127.1096 -61.17469 0.1718147 0
127.0596 -61.02469 0.07181472 0
127.0596 -61.22469 0.4718147 0
127.0596 -61.17469 0.4718147 0
127.1096 -61.22469 0.4718147 0
127.2096 -61.27469 0.4218147 0
127.1596 -61.52469 0.4718147 0
127.2096 -61.37469 0.5718147 0
127.1596 -61.32469 0.4718147 0
127.2096 -61.32469 0.5218147 0
127.1596 -61.07469 0.1718147 0
127.1596 -61.17469 0.4218147 0
127.2596 -61.07469 0.4218147 0
127.3096 -61.07469 0.4218147 0
127.1596 -61.02469 0.1718147 0
127.5096 -60.87469 0.07181472 0
127.4096 -61.02469 0.4218147 0
127.5096 -60.97469 0.4218147 0
127.2096 -61.22469 0.4718147 0
127.2096 -61.22469 0.5718147 0
127.1596 -61.12469 0.4718147 0
127.1596 -61.07469 0.4718147 0
127.2096 -61.12469 0.5218147 0
127.2096 -61.07469 0.4718147 0
127.2096 -61.12469 0.5718147 0
127.2596 -61.12469 0.4718147 0
127.2596 -61.12469 0.5218147 0
127.3096 -61.07469 0.4718147 0
127.2596 -61.12469 0.5718147 0
127.2096 -61.02469 0.4718147 0
127.2096 -60.97469 0.5718147 0
127.2096 -60.97469 0.6218147 0
127.2596 -61.02469 0.4718147 0
127.2596 -60.97469 0.5218147 0
127.3096 -61.02469 0.4718147 0
127.3096 -60.97469 0.4718147 0
127.3096 -60.97469 0.5218147 0
127.3096 -60.97469 0.5718147 0
127.3096 -60.92469 0.4718147 0
127.2596 -60.92469 0.5718147 0
127.5096 -61.07469 0.4718147 0
127.3596 -61.02469 0.4718147 0
127.4096 -60.97469 0.4718147 0
127.3596 -60.92469 0.4718147 0
127.3596 -60.92469 0.5218147 0
127.4096 -60.92469 0.4718147 0
127.4096 -60.92469 0.5218147 0
127.4096 -60.87469 0.5218147 0
127.4096 -60.92469 0.5718147 0
127.4596 -61.02469 0.4718147 0
127.4596 -61.02469 0.5218147 0
127.4596 -61.02469 0.5718147 0
127.4596 -60.87469 0.5218147 0
127.4596 -60.87469 0.5718147 0
127.5096 -60.87469 0.5718147 0
127.1096 -61.52469 1.021815 0
127.1096 -61.47469 0.9718148 0
127.1096 -61.32469 0.9218147 0
127.1096 -61.27469 1.021815 0
127.0596 -61.47469 1.421815 0
127.1096 -61.52469 1.521815 0
127.1096 -61.27469 1.321815 0
127.1096 -61.27469 1.421815 0
127.1096 -61.27469 1.521815 0
127.1096 -61.22469 0.9218147 0
127.1096 -61.02469 1.521815 0
127.2096 -61.42469 0.8718147 0
127.2096 -61.27469 0.9718148 0
127.2096 -61.37469 1.071815 0
127.2596 -61.37469 1.171815 0
127.1596 -61.47469 1.321815 0
127.2096 -61.42469 1.371815 0
127.2096 -61.27469 1.371815 0
127.2596 -61.42469 1.271815 0
127.2096 -61.22469 0.8718147 0
127.2096 -61.22469 0.9218147 0
127.1596 -61.12469 0.9218147 0
127.2096 -61.12469 0.8718147 0
127.2596 -61.17469 0.9218147 0
127.3096 -61.17469 0.8718147 0
127.3096 -61.17469 0.9218147 0
127.2596 -61.22469 0.9718148 0
127.2596 -61.17469 1.021815 0
127.2596 -61.12469 0.9218147 0
127.3096 -61.07469 0.8718147 0
127.3096 -61.07469 0.9218147 0
127.3096 -61.12469 0.9718148 0
127.3096 -61.07469 0.9718148 0
127.3096 -61.17469 1.071815 0
127.3096 -61.02469 0.8718147 0
127.3596 -61.07469 0.9218147 0
127.4096 -61.07469 0.8718147 0
127.3596 -61.07469 1.021815 0
127.3596 -61.17469 1.171815 0
127.3596 -61.02469 0.9218147 0
127.4096 -61.02469 0.9218147 0
127.4096 -60.97469 0.8718147 0
127.4096 -60.97469 0.9718148 0
127.3596 -60.92469 0.9218147 0
127.4096 -60.87469 0.9718148 0
127.4596 -61.02469 0.9218147 0
127.4596 -60.97469 0.8718147 0
127.4596 -61.02469 0.9718148 0
127.5096 -61.02469 0.9718148 0
127.5096 -61.02469 1.021815 0
127.4596 -60.92469 0.9218147 0
127.5096 -60.92469 0.8718147 0
127.5096 -60.87469 0.9218147 0
127.5096 -60.87469 0.9718148 0
127.3596 -61.02469 1.071815 0
127.4096 -60.92469 1.221815 0
127.4096 -60.87469 1.171815 0
127.4596 -61.02469 1.171815 0
127.4596 -60.87469 1.071815 0
127.5096 -60.92469 1.221815 0
127.2096 -61.17469 1.271815 0
127.2096 -61.17469 1.321815 0
127.1596 -61.12469 1.321815 0
127.3096 -61.22469 1.271815 0
127.2596 -61.22469 1.371815 0
127.2596 -61.12469 1.271815 0
127.2596 -61.12469 1.321815 0
127.3096 -61.12469 1.271815 0
127.3096 -61.07469 1.271815 0
127.2096 -61.22469 1.521815 0
127.1596 -61.07469 1.621815 0
127.1596 -61.02469 1.421815 0
127.2596 -60.97469 1.321815 0
127.3096 -60.97469 1.271815 0
127.3096 -60.97469 1.321815 0
127.2596 -61.02469 1.371815 0
127.3096 -60.97469 1.421815 0
127.3096 -60.87469 1.371815 0
127.2096 -61.02469 1.471815 0
127.2096 -60.87469 1.621815 0
127.2596 -60.97469 1.521815 0
127.2596 -60.92469 1.621815 0
127.3096 -60.92469 1.571815 0
127.3096 -60.87469 1.621815 0
127.3596 -61.07469 1.371815 0
127.3596 -60.97469 1.321815 0
127.4096 -60.97469 1.271815 0
127.3596 -60.92469 1.271815 0
127.3596 -60.92469 1.321815 0
127.3596 -60.87469 1.321815 0
127.4096 -60.92469 1.271815 0
127.3596 -60.92469 1.371815 0
127.4096 -60.87469 1.371815 0
127.4096 -60.87469 1.421815 0
127.4596 -60.92469 1.271815 0
127.5096 -60.92469 1.321815 0
127.5096 -60.87469 1.371815 0
127.3596 -60.92469 1.471815 0
127.4096 -60.87469 1.521815 0
126.0096 -61.82469 1.871815 0
126.0096 -61.77469 1.871815 0
126.0096 -61.67469 1.971815 0
126.1096 -61.77469 2.021815 0
126.2096 -61.77469 2.021815 0
126.3096 -61.77469 2.021815 0
126.3096 -61.67469 1.871815 0
126.3096 -61.67469 1.921815 0
126.2096 -61.77469 2.221815 0
126.4096 -61.77469 2.021815 0
126.4596 -61.72469 2.021815 0
126.5596 -61.67469 1.921815 0
126.0096 -61.52469 2.121815 0
126.0596 -61.52469 2.171815 0
125.9596 -61.42469 2.271815 0
126.2596 -61.57469 2.171815 0
126.3096 -61.62469 2.221815 0
125.9596 -61.22469 2.421815 0
126.0596 -61.17469 2.271815 0
126.3096 -61.22469 2.321815 0
126.3596 -61.62469 1.921815 0
126.4596 -61.57469 2.171815 0
126.5096 -61.57469 2.221815 0
126.6596 -61.52469 2.171815 0
126.6596 -61.47469 2.221815 0
126.0596 -61.17469 2.521815 0
126.1096 -61.22469 2.471815 0
126.1096 -60.87469 2.671815 0
126.3096 -61.17469 2.471815 0
126.0096 -61.17469 2.921815 0
126.1096 -60.97469 2.921815 0
126.7596 -61.57469 1.921815 0
127.0596 -61.22469 1.771815 0
127.1096 -60.92469 1.721815 0
127.1596 -61.37469 1.721815 0
127.2096 -61.37469 1.721815 0
127.2096 -61.12469 1.771815 0
127.1596 -60.87469 1.671815 0
127.1596 -60.87469 1.721815 0
127.2096 -60.87469 1.721815 0
127.1596 -60.87469 1.771815 0
127.2096 -60.87469 1.771815 0
127.4596 -60.92469 2.421815 0
127.3096 -61.02469 2.821815 0
127.4596 -61.02469 2.621815 0
126.1096 -60.57469 1.621815 0
126.2096 -60.62469 1.621815 0
126.3096 -60.62469 1.621815 0
126.4596 -60.67469 1.621815 0
125.9596 -59.97469 1.521815 0
126.0096 -59.97469 1.571815 0
125.9596 -59.92469 1.571815 0
126.0096 -59.87469 1.571815 0
126.0096 -59.87469 1.621815 0
126.1096 -59.97469 1.571815 0
126.1096 -59.92469 1.571815 0
126.1596 -59.92469 1.621815 0
126.2096 -59.92469 1.571815 0
126.2596 -59.92469 1.621815 0
126.3596 -59.97469 1.621815 0
126.4096 -59.97469 1.621815 0
126.5596 -59.97469 1.621815 0
126.9596 -60.62469 0.07181472 0
127.1096 -60.47469 0.1718147 0
127.1096 -60.32469 0.1718147 0
126.9596 -60.22469 0.07181472 0
127.1096 -60.07469 0.1718147 0
127.1096 -60.07469 0.2218147 0
127.1596 -60.72469 0.1718147 0
127.2096 -60.52469 0.1718147 0
127.2096 -60.47469 0.2218147 0
127.2596 -60.62469 0.07181472 0
127.3096 -60.57469 0.1718147 0
127.2596 -60.52469 0.07181472 0
127.2596 -60.52469 0.1718147 0
127.2596 -60.52469 0.2218147 0
127.3096 -60.52469 0.1718147 0
127.4096 -60.77469 0.07181472 0
127.4096 -60.72469 0.07181472 0
127.4096 -60.67469 0.1718147 0
127.5096 -60.82469 0.07181472 0
127.5096 -60.77469 0.1718147 0
127.5096 -60.72469 0.07181472 0
127.4596 -60.72469 0.1718147 0
127.4596 -60.72469 0.2218147 0
127.4596 -60.67469 0.1718147 0
127.5096 -60.72469 0.1718147 0
127.4096 -60.62469 0.07181472 0
127.3596 -60.62469 0.2218147 0
127.3596 -60.57469 0.1718147 0
127.4096 -60.62469 0.1718147 0
127.4096 -60.82469 0.5718147 0
127.4096 -60.67469 0.6218147 0
127.5096 -60.82469 0.5218147 0
127.4596 -60.82469 0.6218147 0
127.5096 -60.82469 0.5718147 0
127.5096 -60.82469 0.6218147 0
127.2096 -60.37469 0.1218147 0
127.1596 -60.37469 0.1718147 0
127.2096 -60.37469 0.1718147 0
127.1596 -60.27469 0.2218147 0
127.2096 -60.27469 0.2218147 0
127.1596 -60.22469 0.1718147 0
127.1596 -60.17469 0.1718147 0
127.1596 -60.12469 0.1218147 0
127.1596 -60.12469 0.2218147 0
127.3596 -60.72469 1.221815 0
127.3096 -60.82469 1.621815 0
127.5096 -60.82469 1.271815 0
127.3596 -60.82469 1.571815 0
127.4096 -60.82469 1.571815 0
127.4096 -60.82469 1.621815 0
127.4096 -60.77469 1.621815 0
127.5096 -60.82469 1.471815 0
127.5096 -60.77469 1.571815 0
127.5096 -60.77469 1.621815 0
127.4596 -60.67469 1.621815 0
127.5096 -60.72469 1.621815 0
127.0096 -60.02469 0.07181472 0
127.1096 -59.97469 0.1718147 0
127.1096 -59.77469 0.1718147 0
127.1596 -60.02469 0.2218147 0
127.2096 -59.97469 0.1718147 0
127.1596 -59.87469 0.1218147 0
127.1596 -59.62469 0.1218147 0
126.0596 -60.47469 1.671815 0
126.1596 -60.52469 1.671815 0
126.2596 -60.47469 1.721815 0
126.3096 -60.52469 1.671815 0
126.0096 -60.32469 1.671815 0
126.1096 -60.42469 1.721815 0
126.0596 -60.22469 1.721815 0
126.1596 -60.32469 1.821815 0
126.2596 -60.42469 1.821815 0
126.0096 -60.22469 2.321815 0
125.9596 -60.12469 2.421815 0
126.0596 -60.22469 2.371815 0
126.0596 -60.12469 2.421815 0
126.4096 -60.57469 1.671815 0
126.4096 -60.47469 1.821815 0
126.5096 -60.57469 1.671815 0
126.4596 -60.52469 1.721815 0
126.5096 -60.52469 1.821815 0
126.6096 -60.62469 1.671815 0
126.6596 -60.52469 1.771815 0
126.4096 -60.27469 1.821815 0
126.6096 -60.32469 1.821815 0
126.6596 -60.42469 1.921815 0
126.6596 -60.27469 2.021815 0
126.0096 -60.12469 2.471815 0
126.0596 -60.12469 2.521815 0
126.2096 -60.12469 2.571815 0
126.2096 -60.07469 2.571815 0
126.3096 -60.07469 2.571815 0
126.3596 -60.17469 2.471815 0
126.3596 -60.12469 2.471815 0
126.3596 -60.07469 2.571815 0
126.5096 -60.07469 2.621815 0
126.6596 -60.12469 2.621815 0
126.0596 -59.87469 1.671815 0
126.0096 -59.77469 1.671815 0
126.0096 -59.77469 1.771815 0
125.9596 -59.72469 1.821815 0
125.9596 -59.67469 1.821815 0
126.0096 -59.72469 1.771815 0
126.0096 -59.67469 1.771815 0
126.0096 -59.67469 1.821815 0
126.1096 -59.77469 1.771815 0
126.1096 -59.77469 1.821815 0
126.1096 -59.72469 1.771815 0
126.1096 -59.72469 1.821815 0
126.2096 -59.92469 1.671815 0
126.1596 -59.82469 1.671815 0
126.2096 -59.77469 1.771815 0
126.1596 -59.67469 1.821815 0
126.2096 -59.72469 1.821815 0
126.2596 -59.82469 1.771815 0
126.3096 -59.82469 1.771815 0
126.3096 -59.77469 1.821815 0
125.9596 -59.87469 2.271815 0
126.0596 -59.52469 1.821815 0
125.9596 -59.57469 1.871815 0
125.9596 -59.52469 1.971815 0
125.9596 -59.47469 2.021815 0
126.0596 -59.52469 1.921815 0
126.1096 -59.52469 1.921815 0
126.0596 -59.47469 2.021815 0
126.1096 -59.52469 2.021815 0
125.9596 -59.37469 2.021815 0
126.0596 -59.37469 2.021815 0
126.1096 -59.27469 2.021815 0
126.2096 -59.57469 1.821815 0
126.2096 -59.57469 1.921815 0
126.1596 -59.52469 1.971815 0
126.2096 -59.52469 2.021815 0
126.3096 -59.62469 1.921815 0
126.2096 -59.27469 1.971815 0
126.0596 -59.62469 2.371815 0
126.0096 -59.32469 2.121815 0
126.0596 -59.27469 2.221815 0
126.1096 -59.27469 2.221815 0
126.2596 -59.62469 2.271815 0
126.2096 -59.42469 2.071815 0
126.1596 -59.27469 2.171815 0
126.2096 -59.27469 2.221815 0
126.2596 -59.42469 2.121815 0
126.2596 -59.32469 2.171815 0
126.2596 -59.42469 2.321815 0
126.2596 -59.27469 2.421815 0
126.3596 -59.92469 1.721815 0
126.3596 -59.87469 1.721815 0
126.5096 -59.97469 1.721815 0
126.5096 -59.87469 1.771815 0
126.4096 -59.82469 1.771815 0
126.4096 -59.77469 1.821815 0
126.5096 -59.82469 1.821815 0
126.5096 -59.77469 1.821815 0
126.5096 -59.67469 1.921815 0
126.5596 -59.92469 1.671815 0
126.7096 -59.97469 1.721815 0
126.6596 -59.87469 1.771815 0
126.7096 -59.87469 1.821815 0
126.6096 -59.82469 1.821815 0
126.6096 -59.67469 1.771815 0
126.7096 -59.82469 1.821815 0
126.6096 -59.67469 1.921815 0
126.7096 -59.72469 1.921815 0
126.6596 -59.67469 1.971815 0
126.7096 -59.72469 2.321815 0
126.4096 -59.62469 1.771815 0
126.4096 -59.62469 1.921815 0
126.3596 -59.57469 2.021815 0
126.5096 -59.62469 2.021815 0
126.3596 -59.47469 2.071815 0
126.4096 -59.47469 2.071815 0
126.5096 -59.52469 2.071815 0
126.4096 -59.47469 2.321815 0
126.4596 -59.62469 2.321815 0
126.3596 -59.32469 2.221815 0
126.4096 -59.32469 2.421815 0
126.4596 -59.32469 2.271815 0
126.6096 -59.57469 2.071815 0
126.7096 -59.27469 2.321815 0
125.9596 -59.97469 2.621815 0
126.1096 -60.02469 2.521815 0
126.0596 -60.02469 2.571815 0
126.0596 -59.97469 2.621815 0
126.0096 -59.92469 2.671815 0
126.0096 -59.92469 2.721815 0
125.9596 -59.87469 2.771815 0
126.0096 -59.87469 2.771815 0
126.0596 -59.97469 2.671815 0
126.1096 -59.87469 2.771815 0
125.9596 -59.77469 2.721815 0
125.9596 -59.82469 2.771815 0
126.0096 -59.82469 2.821815 0
126.0096 -59.67469 2.721815 0
126.0596 -59.82469 2.721815 0
126.1096 -59.72469 2.721815 0
126.1096 -59.72469 2.771815 0
126.1596 -60.02469 2.621815 0
126.2096 -59.97469 2.671815 0
126.2096 -59.87469 2.771815 0
126.3096 -59.97469 2.671815 0
126.1596 -59.82469 2.521815 0
126.3096 -59.82469 2.471815 0
126.1596 -59.82469 2.721815 0
126.1596 -59.77469 2.721815 0
126.2096 -59.77469 2.721815 0
126.2096 -59.72469 2.771815 0
126.3096 -59.67469 2.771815 0
126.0096 -59.67469 3.021815 0
126.0596 -59.72469 2.921815 0
126.1596 -59.67469 3.021815 0
126.2096 -59.72469 2.971815 0
126.2596 -59.67469 3.071815 0
125.9596 -59.57469 2.721815 0
126.0596 -59.57469 2.721815 0
126.1096 -59.62469 2.721815 0
125.9596 -59.42469 2.821815 0
126.1596 -59.57469 2.771815 0
126.2096 -59.62469 2.771815 0
126.3096 -59.62469 2.771815 0
125.9596 -59.62469 2.971815 0
126.0096 -59.62469 3.021815 0
126.1096 -59.47469 2.871815 0
126.0096 -59.57469 3.071815 0
126.0096 -59.62469 3.171815 0
125.9596 -59.52469 3.121815 0
126.1096 -59.62469 3.071815 0
126.0596 -59.52469 3.121815 0
126.0596 -59.52469 3.171815 0
125.9596 -59.37469 2.871815 0
126.0096 -59.42469 2.871815 0
126.0596 -59.37469 2.871815 0
126.1596 -59.47469 2.871815 0
126.2596 -59.52469 2.871815 0
126.2596 -59.47469 2.871815 0
126.2096 -59.62469 3.071815 0
126.2096 -59.57469 3.121815 0
126.1596 -59.62469 3.171815 0
126.2096 -59.52469 3.221815 0
126.3096 -59.62469 3.071815 0
126.3096 -59.57469 3.171815 0
126.3096 -59.52469 3.171815 0
126.2096 -59.42469 2.921815 0
126.3096 -59.42469 2.921815 0
126.3096 -59.42469 3.171815 0
126.2596 -59.32469 3.221815 0
126.4096 -60.02469 2.571815 0
126.4096 -59.92469 2.571815 0
126.3596 -59.92469 2.721815 0
126.4596 -59.97469 2.671815 0
126.4596 -59.97469 2.771815 0
126.5096 -59.87469 2.671815 0
126.3596 -59.82469 2.771815 0
126.4096 -59.82469 2.821815 0
126.3596 -59.67469 2.771815 0
126.4596 -59.72469 2.771815 0
126.5096 -59.72469 2.771815 0
126.5096 -59.67469 2.821815 0
126.6096 -59.87469 2.821815 0
126.7096 -59.77469 2.821815 0
126.3596 -59.72469 2.971815 0
126.5096 -59.77469 2.971815 0
126.3596 -59.67469 3.071815 0
126.6096 -59.72469 2.971815 0
126.4596 -59.47469 2.721815 0
126.6096 -59.32469 2.471815 0
126.4096 -59.57469 2.921815 0
126.4596 -59.47469 2.921815 0
126.4096 -59.57469 3.171815 0
126.4596 -59.62469 3.071815 0
126.5096 -59.57469 3.071815 0
126.4596 -59.42469 2.871815 0
126.4596 -59.27469 2.971815 0
126.3596 -59.42469 3.171815 0
126.4096 -59.32469 3.171815 0
126.5096 -59.42469 3.121815 0
126.4596 -59.32469 3.171815 0
126.5596 -59.47469 2.971815 0
126.5596 -59.52469 3.121815 0
126.6096 -59.47469 3.071815 0
126.5596 -59.32469 2.871815 0
126.5596 -59.32469 2.921815 0
126.5596 -59.27469 2.921815 0
126.6596 -59.27469 3.021815 0
126.6096 -59.37469 3.071815 0
126.7096 -59.27469 3.121815 0
126.7596 -60.62469 1.671815 0
126.8596 -60.62469 1.721815 0
126.7596 -60.47469 1.871815 0
126.8596 -60.47469 1.871815 0
126.8596 -60.47469 1.921815 0
127.0096 -60.67469 1.721815 0
126.9596 -60.47469 1.871815 0
126.9596 -60.47469 1.921815 0
127.0596 -60.52469 1.871815 0
127.0596 -60.47469 1.921815 0
127.1096 -60.47469 1.921815 0
126.7596 -60.37469 1.821815 0
126.7596 -60.42469 1.921815 0
126.7596 -60.32469 2.021815 0
126.8596 -60.32469 2.021815 0
127.0096 -60.37469 1.971815 0
127.1096 -60.42469 1.971815 0
127.1096 -60.27469 2.121815 0
127.0096 -60.22469 2.121815 0
127.2596 -60.82469 1.671815 0
127.2596 -60.82469 1.721815 0
127.3096 -60.82469 1.721815 0
127.3096 -60.77469 1.671815 0
127.3096 -60.77469 1.721815 0
127.3096 -60.72469 1.821815 0
127.2096 -60.77469 1.921815 0
127.3096 -60.72469 1.921815 0
127.3096 -60.52469 1.821815 0
127.1596 -60.52469 1.921815 0
127.2096 -60.52469 1.871815 0
127.2096 -60.47469 1.971815 0
127.2596 -60.57469 1.971815 0
127.3596 -60.82469 1.721815 0
127.4096 -60.72469 1.671815 0
127.3596 -60.72469 1.771815 0
127.4596 -60.77469 1.721815 0
127.4596 -60.72469 1.721815 0
127.5096 -60.72469 1.671815 0
127.3596 -60.72469 1.921815 0
127.4096 -60.67469 1.921815 0
127.4596 -60.72469 1.871815 0
127.5096 -60.52469 1.821815 0
127.3596 -60.47469 1.971815 0
127.4096 -60.52469 1.971815 0
127.4096 -60.52469 2.021815 0
127.4596 -60.62469 1.921815 0
127.5096 -60.62469 1.921815 0
127.4596 -60.62469 1.971815 0
127.4596 -60.57469 1.971815 0
127.5096 -60.52469 1.971815 0
127.4096 -60.72469 2.371815 0
127.1596 -60.42469 2.021815 0
127.2096 -60.42469 1.971815 0
127.3096 -60.42469 1.971815 0
127.3096 -60.42469 2.021815 0
127.2096 -60.22469 2.171815 0
127.3096 -60.22469 2.171815 0
127.1596 -60.07469 2.271815 0
127.2096 -60.07469 2.271815 0
127.3596 -60.32469 2.121815 0
127.3596 -60.27469 2.171815 0
127.4096 -60.27469 2.171815 0
127.4596 -60.37469 2.121815 0
127.4596 -60.27469 2.171815 0
127.5096 -60.27469 2.171815 0
127.4096 -60.27469 2.421815 0
127.4596 -60.12469 2.271815 0
127.1096 -60.22469 2.671815 0
127.3596 -60.72469 2.571815 0
127.5096 -60.77469 2.571815 0
127.4596 -60.47469 2.471815 0
127.5096 -60.32469 2.471815 0
127.4596 -60.17469 2.471815 0
127.4596 -60.12469 2.621815 0
127.4096 -60.07469 2.671815 0
126.8596 -59.82469 1.821815 0
126.7596 -59.82469 1.921815 0
126.8096 -59.72469 1.921815 0
126.8096 -59.72469 1.971815 0
126.9096 -59.77469 1.921815 0
126.9596 -59.87469 1.921815 0
126.9596 -59.77469 1.971815 0
127.1096 -59.67469 2.021815 0
126.9096 -60.02469 2.321815 0
127.0096 -60.02469 2.321815 0
126.9596 -59.67469 2.071815 0
126.7596 -59.57469 2.071815 0
126.8596 -59.62469 2.071815 0
127.0096 -59.62469 2.071815 0
127.0596 -59.47469 2.221815 0
127.1596 -59.92469 1.921815 0
127.2096 -59.72469 2.021815 0
127.3596 -59.97469 1.921815 0
127.1596 -59.92469 2.421815 0
127.3096 -59.97469 2.421815 0
127.2096 -59.67469 2.071815 0
127.4596 -60.02469 2.421815 0
127.4596 -59.97469 2.421815 0
127.1596 -59.62469 2.071815 0
127.5096 -59.47469 2.321815 0
127.5096 -59.37469 2.321815 0
126.8096 -59.67469 2.821815 0
126.7596 -59.62469 2.821815 0
126.7596 -59.57469 2.771815 0
126.8096 -59.47469 2.771815 0
126.7596 -59.37469 2.471815 0
126.7596 -59.37469 2.821815 0
126.8096 -59.37469 2.771815 0
127.0596 -59.27469 2.521815 0
126.7596 -59.42469 2.921815 0
126.8596 -59.32469 3.021815 0
126.8096 -59.32469 3.171815 0
127.0096 -59.37469 3.121815 0
127.3096 -59.97469 2.471815 0
127.3096 -59.92469 2.621815 0
127.2096 -59.77469 2.521815 0
127.3096 -59.72469 2.571815 0
127.3596 -60.02469 2.621815 0
127.3596 -59.77469 2.571815 0
127.5096 -59.77469 2.821815 0
127.5096 -59.72469 2.771815 0
127.2596 -59.32469 2.521815 0
127.3596 -59.62469 2.621815 0
127.4096 -59.47469 2.721815 0
127.4096 -59.47469 2.771815 0
127.4596 -59.57469 2.721815 0
127.4596 -59.62469 2.821815 0
127.5096 -59.47469 2.821815 0
127.3596 -59.42469 2.571815 0
127.3596 -59.32469 2.721815 0
127.3596 -59.32469 2.771815 0
127.4096 -59.27469 2.771815 0
127.4596 -59.37469 2.821815 0
127.4596 -59.32469 2.821815 0
127.5096 -59.32469 3.071815 0
127.8596 -61.32469 0.6218147 0
127.9096 -61.32469 0.6218147 0
127.6596 -60.92469 0.07181472 0
127.6596 -60.87469 0.07181472 0
127.5596 -60.97469 0.4218147 0
127.6596 -60.97469 0.4218147 0
127.8596 -61.12469 0.4218147 0
127.8096 -60.92469 0.07181472 0
127.9096 -60.97469 0.07181472 0
127.9096 -61.02469 0.1718147 0
127.9096 -60.97469 0.1718147 0
127.8596 -60.92469 0.2218147 0
127.8596 -60.87469 0.1718147 0
127.6596 -61.07469 0.6718147 0
127.5596 -60.97469 0.4718147 0
127.6096 -61.02469 0.4718147 0
127.5596 -60.92469 0.4718147 0
127.5596 -60.87469 0.5218147 0
127.6096 -60.87469 0.5218147 0
127.5596 -60.87469 0.5718147 0
127.6096 -60.87469 0.5718147 0
127.6096 -60.87469 0.6218147 0
127.6596 -60.97469 0.4718147 0
127.7096 -60.97469 0.4718147 0
127.6596 -60.87469 0.5218147 0
127.7096 -60.87469 0.5218147 0
127.6596 -60.87469 0.5718147 0
127.6596 -60.87469 0.6218147 0
127.7096 -60.87469 0.5718147 0
127.7596 -61.12469 0.4718147 0
127.8596 -61.12469 0.4718147 0
127.8596 -61.07469 0.5718147 0
127.8596 -61.07469 0.6218147 0
127.9096 -61.12469 0.5718147 0
127.8596 -61.07469 0.6718147 0
127.7596 -60.97469 0.6218147 0
127.8096 -60.97469 0.5718147 0
127.7596 -60.92469 0.5218147 0
127.7596 -60.87469 0.5218147 0
127.7596 -60.92469 0.6218147 0
127.7596 -60.87469 0.5718147 0
127.8096 -60.92469 0.5718147 0
127.8596 -60.97469 0.5218147 0
127.8596 -61.02469 0.6218147 0
127.8596 -60.92469 0.5218147 0
128.0096 -61.27469 0.07181472 0
128.1596 -61.32469 0.07181472 0
128.1596 -61.27469 0.1718147 0
128.2096 -61.27469 0.1718147 0
128.3096 -61.42469 0.07181472 0
128.3096 -61.32469 0.07181472 0
128.3096 -61.32469 0.1218147 0
128.2596 -61.32469 0.1718147 0
128.2596 -61.27469 0.1718147 0
128.3096 -61.32469 0.1718147 0
128.1596 -61.42469 0.6718147 0
128.0096 -61.17469 0.1718147 0
128.0096 -61.12469 0.07181472 0
128.0096 -61.12469 0.1718147 0
128.0596 -61.22469 0.1718147 0
128.1096 -61.22469 0.1718147 0
128.0596 -61.12469 0.1718147 0
127.9596 -60.97469 0.1718147 0
127.9596 -60.92469 0.1718147 0
128.1596 -61.22469 0.07181472 0
128.1596 -61.22469 0.1718147 0
127.9596 -61.17469 0.5718147 0
127.9596 -61.07469 0.5218147 0
128.0096 -61.12469 0.5218147 0
128.0596 -61.17469 0.5718147 0
128.0596 -61.17469 0.6718147 0
127.8096 -61.37469 0.9718148 0
127.8596 -61.42469 0.9718148 0
127.8096 -61.37469 1.121815 0
127.8596 -61.37469 1.171815 0
127.8596 -61.27469 1.321815 0
127.9096 -61.32469 1.271815 0
127.9096 -61.32469 1.371815 0
127.9096 -61.32469 1.571815 0
127.7096 -61.07469 0.8718147 0
127.5596 -61.02469 0.8718147 0
127.5596 -61.02469 0.9218147 0
127.6096 -61.02469 0.9218147 0
127.6096 -61.02469 0.9718148 0
127.6096 -60.92469 0.8718147 0
127.6096 -60.92469 0.9218147 0
127.5596 -60.92469 0.9718148 0
127.6596 -61.02469 0.8718147 0
127.7096 -61.02469 0.8718147 0
127.7096 -60.97469 0.9218147 0
127.6596 -60.92469 0.8718147 0
127.7096 -60.92469 0.9218147 0
127.6596 -60.92469 0.9718148 0
127.7096 -60.92469 0.9718148 0
127.5596 -60.97469 1.071815 0
127.6096 -60.87469 1.221815 0
127.6596 -60.87469 1.071815 0
127.6596 -60.87469 1.221815 0
127.8096 -61.07469 0.9218147 0
127.8596 -61.07469 0.9218147 0
127.9096 -61.12469 0.9218147 0
127.8596 -61.12469 0.9718148 0
127.9096 -61.12469 0.9718148 0
127.8096 -61.17469 1.071815 0
127.7596 -61.17469 1.221815 0
127.8096 -61.17469 1.171815 0
127.7596 -61.07469 1.171815 0
127.7596 -61.02469 0.9718148 0
127.7596 -60.92469 0.8718147 0
127.8596 -61.02469 0.9218147 0
127.7596 -61.02469 1.071815 0
127.7596 -60.97469 1.121815 0
127.7596 -60.92469 1.221815 0
127.6596 -61.07469 1.321815 0
127.5596 -60.87469 1.271815 0
127.6096 -60.87469 1.271815 0
127.7096 -61.02469 1.321815 0
127.7096 -60.97469 1.271815 0
127.6596 -61.02469 1.421815 0
127.6596 -60.92469 1.321815 0
127.7096 -60.92469 1.271815 0
127.7096 -60.92469 1.321815 0
127.7096 -60.87469 1.371815 0
127.8096 -61.17469 1.371815 0
127.7596 -61.07469 1.321815 0
127.8596 -61.07469 1.321815 0
127.8096 -61.12469 1.571815 0
127.9096 -61.17469 1.621815 0
127.8096 -60.97469 1.321815 0
127.7596 -60.97469 1.371815 0
127.7596 -60.92469 1.271815 0
127.8096 -60.92469 1.321815 0
127.8096 -60.92469 1.371815 0
127.8596 -60.97469 1.271815 0
127.8096 -60.97469 1.521815 0
127.7596 -60.97469 1.571815 0
127.8596 -60.97469 1.621815 0
127.8596 -60.92469 1.571815 0
128.1096 -61.47469 1.321815 0
128.0596 -61.17469 1.321815 0
128.7596 -61.67469 0.07181472 0
128.8096 -61.67469 0.1718147 0
128.4596 -61.47469 0.07181472 0
128.5096 -61.47469 0.1718147 0
128.4096 -61.42469 0.07181472 0
128.3596 -61.37469 0.1718147 0
128.4096 -61.42469 0.1718147 0
128.3596 -61.32469 0.1718147 0
128.4596 -61.42469 0.1718147 0
128.5096 -61.42469 0.1718147 0
128.6096 -61.57469 0.07181472 0
128.5596 -61.47469 0.07181472 0
128.5596 -61.47469 0.1718147 0
128.6096 -61.52469 0.1718147 0
128.7096 -61.57469 0.1718147 0
128.7096 -61.52469 0.07181472 0
128.6596 -61.52469 0.1718147 0
128.7096 -61.52469 0.1718147 0
128.5596 -61.42469 0.1218147 0
128.7596 -61.57469 0.1718147 0
128.8096 -61.57469 0.1718147 0
128.7596 -61.52469 0.1218147 0
128.7596 -61.52469 0.1718147 0
128.8596 -61.57469 0.07181472 0
128.8596 -61.62469 0.1718147 0
128.9096 -61.62469 0.1718147 0
128.9596 -61.62469 0.1218147 0
128.2596 -61.67469 2.021815 0
127.9096 -61.32469 1.771815 0
127.9096 -61.27469 1.821815 0
127.9096 -61.27469 2.021815 0
127.7096 -61.27469 2.071815 0
127.9096 -61.47469 2.421815 0
127.8596 -61.42469 2.221815 0
127.8596 -61.27469 2.071815 0
127.9096 -61.42469 2.421815 0
127.7096 -61.12469 1.971815 0
127.6596 -60.97469 1.821815 0
127.6096 -60.92469 2.021815 0
127.8096 -61.17469 1.771815 0
127.8096 -61.07469 1.821815 0
127.8596 -61.17469 1.671815 0
127.9096 -61.22469 1.771815 0
127.8596 -61.07469 1.671815 0
127.8096 -61.12469 1.971815 0
127.8096 -61.02469 1.671815 0
127.7596 -61.02469 1.771815 0
127.8096 -60.87469 1.671815 0
127.7596 -61.02469 2.021815 0
127.9096 -61.02469 1.971815 0
127.6596 -61.07469 2.071815 0
127.7096 -60.97469 2.421815 0
127.7596 -61.07469 2.071815 0
127.8596 -61.12469 2.171815 0
127.9096 -61.02469 2.171815 0
127.7596 -60.92469 2.321815 0
128.1096 -61.47469 1.971815 0
128.0096 -61.37469 1.671815 0
128.0096 -61.37469 1.771815 0
127.9596 -61.32469 1.721815 0
127.9596 -61.27469 1.671815 0
128.0096 -61.32469 1.671815 0
128.0096 -61.32469 2.021815 0
128.0096 -61.47469 2.121815 0
128.0596 -61.47469 2.221815 0
127.9596 -61.42469 2.071815 0
128.0096 -61.37469 2.221815 0
127.9596 -61.32469 2.071815 0
128.0596 -61.42469 2.221815 0
128.1596 -61.57469 2.221815 0
128.0096 -61.22469 1.971815 0
128.0596 -61.02469 2.321815 0
127.6096 -60.97469 2.671815 0
127.8596 -60.97469 2.671815 0
128.0596 -61.52469 2.471815 0
128.7096 -61.67469 2.121815 0
128.7596 -61.67469 2.121815 0
128.8096 -61.72469 2.071815 0
128.8096 -61.67469 2.171815 0
128.9096 -61.72469 2.171815 0
129.0596 -61.67469 2.221815 0
128.4596 -61.67469 2.471815 0
128.5096 -61.42469 2.171815 0
128.5096 -61.37469 2.171815 0
128.5596 -61.47469 2.171815 0
128.7096 -61.57469 2.171815 0
128.7096 -61.47469 2.171815 0
128.5596 -61.37469 2.221815 0
128.6096 -61.37469 2.171815 0
128.6596 -61.37469 2.171815 0
128.7096 -61.32469 2.171815 0
128.6596 -61.27469 2.421815 0
128.7096 -61.27469 2.371815 0
128.4596 -61.12469 2.421815 0
128.5096 -61.12469 2.421815 0
128.4096 -61.02469 2.421815 0
128.3596 -60.87469 2.421815 0
128.4596 -61.02469 2.371815 0
128.5596 -61.17469 2.421815 0
128.6096 -61.22469 2.371815 0
128.5596 -61.12469 2.371815 0
128.6096 -61.12469 2.371815 0
128.6596 -61.22469 2.421815 0
128.7596 -61.52469 2.171815 0
128.8596 -61.62469 2.171815 0
128.7596 -61.47469 2.271815 0
128.9096 -61.52469 2.271815 0
128.8596 -61.42469 2.171815 0
128.8096 -61.37469 2.371815 0
128.7596 -61.32469 2.421815 0
128.7596 -61.27469 2.371815 0
128.8096 -61.32469 2.421815 0
128.8596 -61.42469 2.421815 0
128.8596 -61.37469 2.421815 0
128.9096 -61.42469 2.421815 0
129.0096 -61.42469 2.271815 0
129.0096 -61.37469 2.371815 0
129.0096 -61.37469 2.421815 0
129.1096 -61.27469 2.421815 0
128.9596 -61.22469 2.371815 0
128.7096 -61.12469 2.521815 0
128.5596 -61.02469 2.521815 0
129.0096 -61.47469 2.521815 0
128.9596 -61.42469 2.471815 0
128.9596 -61.27469 2.521815 0
129.0596 -61.42469 2.471815 0
128.8596 -61.22469 2.521815 0
128.8096 -60.87469 2.621815 0
128.9096 -60.92469 2.671815 0
129.0096 -61.12469 2.571815 0
129.0096 -61.02469 2.621815 0
129.1096 -60.97469 2.721815 0
129.0596 -60.87469 2.721815 0
127.6096 -60.77469 0.1718147 0
127.5596 -60.72469 0.1718147 0
127.5596 -60.72469 0.2218147 0
127.7096 -60.77469 0.07181472 0
127.6596 -60.77469 0.1718147 0
127.6596 -60.77469 0.2218147 0
127.7096 -60.82469 0.1718147 0
127.8096 -60.82469 0.07181472 0
127.7596 -60.82469 0.1718147 0
127.7596 -60.82469 0.2218147 0
127.8096 -60.82469 0.1718147 0
127.5596 -60.82469 0.5218147 0
127.6096 -60.72469 0.6218147 0
127.7596 -60.82469 0.6218147 0
127.6096 -60.72469 1.221815 0
127.6596 -60.82469 1.121815 0
127.7596 -60.82469 1.221815 0
127.5596 -60.82469 1.271815 0
127.6096 -60.82469 1.371815 0
127.6596 -60.82469 1.271815 0
127.5596 -60.77469 1.571815 0
127.6096 -60.77469 1.571815 0
127.5596 -60.72469 1.621815 0
127.7096 -60.82469 1.521815 0
127.6596 -60.82469 1.621815 0
127.6596 -60.77469 1.571815 0
127.7096 -60.82469 1.571815 0
127.6596 -60.72469 1.621815 0
127.7596 -60.82469 1.571815 0
127.6096 -60.82469 1.721815 0
127.5596 -60.67469 1.671815 0
127.5596 -60.67469 1.721815 0
127.6096 -60.72469 1.721815 0
127.6596 -60.77469 1.721815 0
127.7096 -60.77469 1.671815 0
127.6596 -60.72469 1.721815 0
127.7096 -60.67469 1.721815 0
127.6596 -60.67469 1.821815 0
127.7096 -60.72469 1.771815 0
127.6096 -60.82469 2.021815 0
127.7096 -60.67469 1.921815 0
127.6596 -60.67469 1.971815 0
127.5596 -60.62469 1.921815 0
127.6096 -60.62469 1.921815 0
127.6096 -60.57469 1.971815 0
127.6096 -60.52469 1.971815 0
127.6596 -60.62469 1.921815 0
127.7596 -60.82469 1.671815 0
127.7596 -60.77469 1.721815 0
127.8096 -60.82469 1.671815 0
127.8596 -60.67469 1.921815 0
127.6096 -60.77469 2.171815 0
127.6596 -60.82469 2.371815 0
127.6096 -60.57469 2.121815 0
127.6096 -60.62469 2.171815 0
127.5596 -60.42469 2.121815 0
127.6096 -60.32469 2.121815 0
127.5596 -60.27469 2.221815 0
127.6096 -60.32469 2.171815 0
127.5596 -60.17469 2.271815 0
128.2596 -60.67469 2.321815 0
128.3096 -60.67469 2.271815 0
128.3096 -60.72469 2.421815 0
128.1096 -60.17469 2.021815 0
128.1096 -60.37469 2.071815 0
128.2596 -60.37469 2.271815 0
128.3096 -60.27469 2.371815 0
128.2096 -60.12469 2.221815 0
128.3096 -60.07469 2.321815 0
127.7596 -60.77469 2.671815 0
127.5596 -60.17469 2.621815 0
127.6596 -60.22469 2.571815 0
127.5596 -60.17469 2.671815 0
127.7596 -60.42469 2.571815 0
127.8596 -60.17469 2.621815 0
128.1096 -60.32469 2.521815 0
128.2096 -60.32469 2.521815 0
128.3096 -60.37469 2.521815 0
127.8096 -59.47469 1.821815 0
127.8596 -59.27469 1.821815 0
127.7596 -59.42469 1.921815 0
127.8596 -59.37469 2.021815 0
127.8596 -59.32469 2.021815 0
127.5596 -59.47469 2.321815 0
128.2596 -59.97469 2.271815 0
128.3096 -59.87469 2.321815 0
128.2096 -59.82469 2.171815 0
128.3096 -59.67469 2.271815 0
128.0096 -59.27469 1.821815 0
128.2596 -59.42469 2.421815 0
127.5596 -59.97469 2.521815 0
127.6096 -59.97469 2.771815 0
127.6596 -59.97469 2.821815 0
127.7096 -60.02469 2.771815 0
127.5596 -59.82469 2.771815 0
127.7596 -59.97469 2.821815 0
127.8596 -59.97469 2.771815 0
127.8596 -59.87469 2.771815 0
127.6096 -59.72469 2.871815 0
127.6596 -59.82469 2.921815 0
127.8096 -59.82469 2.921815 0
127.7596 -59.67469 2.971815 0
127.9096 -59.82469 2.871815 0
127.9096 -59.67469 2.971815 0
127.5596 -59.52469 2.821815 0
127.7596 -59.62469 2.721815 0
127.5596 -59.62469 2.871815 0
127.6096 -59.62469 3.121815 0
127.7096 -59.57469 3.171815 0
127.6096 -59.37469 2.871815 0
127.7096 -59.42469 3.021815 0
127.6596 -59.27469 3.021815 0
127.5596 -59.27469 3.171815 0
127.7096 -59.32469 3.221815 0
127.8096 -59.47469 3.171815 0
127.8596 -59.57469 3.071815 0
127.9096 -59.47469 3.071815 0
127.9096 -59.27469 3.021815 0
127.8596 -59.42469 3.071815 0
127.9096 -59.37469 3.071815 0
127.8596 -59.37469 3.221815 0
127.8596 -59.32469 3.171815 0
127.9596 -59.97469 2.771815 0
128.0096 -59.87469 2.771815 0
128.0596 -59.92469 2.771815 0
128.0096 -59.77469 2.921815 0
128.0596 -59.57469 2.721815 0
128.1096 -59.47469 2.721815 0
128.1596 -59.47469 2.621815 0
128.2596 -59.47469 2.471815 0
128.2096 -59.47469 2.671815 0
128.3096 -59.37469 2.621815 0
128.2096 -59.32469 2.671815 0
128.2096 -59.32469 2.721815 0
128.2596 -59.32469 2.671815 0
128.3096 -59.32469 2.671815 0
127.9596 -59.47469 2.921815 0
128.0596 -59.52469 2.871815 0
127.9596 -59.27469 3.021815 0
128.0596 -59.42469 2.921815 0
128.0596 -59.32469 2.921815 0
128.1096 -59.32469 2.971815 0
128.0596 -59.27469 3.121815 0
128.1596 -59.42469 2.871815 0
128.4596 -60.27469 2.371815 0
128.3596 -60.17469 2.371815 0
128.5596 -60.77469 2.471815 0
128.6096 -60.77469 2.621815 0
128.7096 -60.82469 2.621815 0
128.6596 -60.47469 2.621815 0
128.4096 -60.32469 2.571815 0
128.5096 -60.42469 2.521815 0
128.4596 -60.32469 2.621815 0
128.4596 -60.07469 2.521815 0
128.7096 -60.22469 2.471815 0
128.6096 -60.22469 2.721815 0
128.7596 -60.47469 2.621815 0
129.0096 -60.67469 2.471815 0
129.0596 -60.62469 2.571815 0
129.0596 -60.57469 2.621815 0
129.1096 -60.62469 2.571815 0
129.0096 -60.47469 2.921815 0
129.1096 -60.52469 2.921815 0
128.9596 -60.17469 2.471815 0
129.0596 -60.17469 2.521815 0
128.8096 -60.32469 2.921815 0
128.9096 -60.42469 2.921815 0
128.7596 -60.17469 2.921815 0
128.3596 -59.97469 2.321815 0
128.3596 -59.77469 2.321815 0
128.4596 -59.72469 2.371815 0
128.3596 -59.47469 2.371815 0
128.4096 -59.52469 2.421815 0
128.3596 -59.42469 2.321815 0
128.4096 -59.42469 2.371815 0
128.4096 -59.32469 2.371815 0
128.4596 -59.37469 2.321815 0
128.5596 -59.27469 2.321815 0
128.7596 -59.87469 2.271815 0
128.8596 -59.97469 2.271815 0
128.8096 -59.77469 2.271815 0
129.0096 -59.82469 2.421815 0
128.9596 -59.67469 2.421815 0
129.0596 -59.52469 2.421815 0
128.4596 -59.77469 2.471815 0
128.5096 -59.82469 2.521815 0
128.6596 -60.02469 2.521815 0
128.6096 -59.97469 2.671815 0
128.6096 -59.77469 2.621815 0
128.7096 -59.82469 2.471815 0
128.5596 -59.72469 2.671815 0
128.6596 -59.72469 2.771815 0
128.7096 -59.97469 2.871815 0
128.5096 -59.57469 2.471815 0
128.4096 -59.32469 2.621815 0
128.4096 -59.27469 2.571815 0
128.4096 -59.27469 2.671815 0
128.5596 -59.62469 2.621815 0
128.5596 -59.52469 2.671815 0
128.5596 -59.42469 2.571815 0
128.5596 -59.32469 2.621815 0
128.6096 -59.37469 2.721815 0
128.5596 -59.27469 3.021815 0
128.7596 -60.02469 2.521815 0
129.0096 -59.92469 2.471815 0
129.0596 -60.02469 2.471815 0
129.0596 -59.67469 2.471815 0
128.8596 -59.72469 2.971815 0
128.7596 -59.37469 2.671815 0
129.1096 -59.47469 2.521815 0
