# .PCD v0.7 - Point Cloud Data file format
VERSION 0.7
FIELDS x y z intensity
SIZE 4 4 4 4
TYPE F F F F
COUNT 1 1 1 1
WIDTH 1582
HEIGHT 1
VIEWPOINT 0 0 0 1 0 0 0
POINTS 1582
DATA ascii
50.85961 46.57531 0.1718147 0
50.90961 46.57531 0.1718147 0
50.85961 46.62531 0.4218147 0
50.90961 46.72531 0.4218147 0
50.95961 46.57531 0.1718147 0
51.00961 46.57531 0.1718147 0
51.05961 46.57531 0.1718147 0
51.10961 46.57531 0.1718147 0
50.75961 46.92531 0.07181472 0
50.90961 46.87531 0.4218147 0
50.75961 46.97531 0.07181472 0
50.90961 46.97531 0.07181472 0
51.00961 46.87531 0.07181472 0
51.10961 46.92531 0.07181472 0
51.00961 46.97531 0.07181472 0
50.95961 46.97531 0.4218147 0
51.20961 46.57531 0.1718147 0
51.30961 46.57531 0.1718147 0
51.40961 46.57531 0.1718147 0
51.50961 46.62531 0.1718147 0
51.25961 46.47531 0.4718147 0
51.30961 46.57531 0.4718147 0
51.30961 46.72531 0.4718147 0
51.20961 46.87531 0.07181472 0
51.25961 46.97531 0.07181472 0
51.35961 46.92531 0.07181472 0
51.40961 46.87531 0.07181472 0
51.40961 47.02531 0.07181472 0
51.30961 46.87531 0.4718147 0
51.60961 46.62531 0.1718147 0
51.70961 46.62531 0.1718147 0
51.80961 46.62531 0.1718147 0
51.85961 46.62531 0.1718147 0
51.55961 46.92531 0.07181472 0
51.65961 46.87531 0.07181472 0
51.75961 46.92531 0.07181472 0
51.85961 46.87531 0.07181472 0
52.00961 46.37531 0.1718147 0
52.10961 46.37531 0.1718147 0
51.95961 46.62531 0.1718147 0
52.05961 46.62531 0.1718147 0
52.20961 46.37531 0.1718147 0
52.30961 46.37531 0.1718147 0
52.15961 46.62531 0.1718147 0
52.20961 46.67531 0.1718147 0
52.30961 46.67531 0.1718147 0
51.95961 46.92531 0.07181472 0
52.05961 46.87531 0.07181472 0
52.15961 46.87531 0.07181472 0
52.25961 46.87531 0.07181472 0
50.10961 46.47531 3.821815 0
50.10961 46.47531 4.471815 0
49.90961 46.87531 5.171815 0
50.10961 46.47531 5.121815 0
49.95961 46.67531 5.171815 0
50.05961 46.47531 5.821815 0
52.35961 46.37531 0.1718147 0
52.45961 46.37531 0.1718147 0
52.50961 46.37531 0.1718147 0
52.40961 46.62531 0.1718147 0
52.45961 46.67531 0.1218147 0
52.60961 46.42531 0.1718147 0
52.70961 46.42531 0.1718147 0
52.55961 46.67531 0.1218147 0
52.65961 46.67531 0.1218147 0
52.70961 46.67531 0.1218147 0
52.35961 46.82531 0.07181472 0
52.40961 46.82531 0.07181472 0
52.35961 46.87531 0.07181472 0
52.55961 46.77531 0.07181472 0
52.60961 46.82531 0.07181472 0
52.55961 46.87531 0.1218147 0
52.80961 46.42531 0.1718147 0
52.90961 46.42531 0.1718147 0
52.95961 46.42531 0.1718147 0
53.00961 46.42531 0.1718147 0
52.75961 46.77531 0.07181472 0
52.80961 46.82531 0.07181472 0
52.75961 46.87531 0.1218147 0
52.90961 46.77531 0.07181472 0
52.90961 46.87531 0.1218147 0
52.95961 46.77531 0.07181472 0
53.00961 46.82531 0.07181472 0
53.10961 46.82531 0.1218147 0
53.15961 46.42531 0.1718147 0
53.25961 46.42531 0.1718147 0
53.20961 46.72531 0.07181472 0
53.35961 46.47531 0.1718147 0
53.40961 46.52531 0.1718147 0
53.40961 46.72531 0.07181472 0
53.50961 46.57531 0.1718147 0
53.15961 46.77531 0.07181472 0
53.15961 46.82531 0.07181472 0
53.30961 46.77531 0.07181472 0
53.25961 46.87531 0.1218147 0
53.35961 46.77531 0.07181472 0
53.35961 46.92531 0.1218147 0
53.50961 46.77531 0.07181472 0
53.45961 47.02531 0.1218147 0
53.60961 46.57531 0.1718147 0
53.60961 46.72531 0.07181472 0
53.70961 46.62531 0.1718147 0
53.65961 46.72531 0.07181472 0
53.80961 46.62531 0.1718147 0
53.80961 46.72531 0.07181472 0
53.85961 46.67531 0.07181472 0
53.90961 46.72531 0.07181472 0
53.90961 46.67531 0.1718147 0
53.55961 46.77531 0.07181472 0
53.70961 46.77531 0.07181472 0
53.70961 46.77531 0.1218147 0
53.85961 46.77531 0.1218147 0
54.00961 46.72531 0.07181472 0
54.00961 46.67531 0.1718147 0
54.05961 46.72531 0.07181472 0
54.10961 46.72531 0.1718147 0
54.20961 46.72531 0.07181472 0
54.20961 46.72531 0.1718147 0
54.25961 46.72531 0.07181472 0
54.30961 46.67531 0.07181472 0
54.30961 46.72531 0.1718147 0
54.05961 46.77531 0.1218147 0
54.20961 46.77531 0.1218147 0
54.35961 46.72531 0.1218147 0
54.40961 46.67531 0.07181472 0
54.40961 46.72531 0.07181472 0
54.40961 46.72531 0.1718147 0
54.50961 46.67531 0.07181472 0
54.50961 46.72531 0.1218147 0
54.55961 46.67531 0.07181472 0
54.60961 46.72531 0.07181472 0
54.70961 46.67531 0.07181472 0
54.70961 46.72531 0.1218147 0
54.45961 46.77531 0.1718147 0
54.50961 46.77531 0.1718147 0
54.60961 46.77531 0.1718147 0
54.70961 46.77531 0.1718147 0
54.75961 46.67531 0.07181472 0
54.75961 46.72531 0.07181472 0
54.85961 46.72531 0.1218147 0
54.90961 46.67531 0.07181472 0
55.05961 46.37531 0.1718147 0
54.95961 46.67531 0.07181472 0
55.00961 46.72531 0.1218147 0
55.10961 46.67531 0.07181472 0
55.10961 46.72531 0.07181472 0
54.80961 46.42531 0.5218147 0
54.80961 46.52531 0.5218147 0
54.85961 46.67531 0.5218147 0
55.15961 46.42531 0.1718147 0
55.20961 46.42531 0.1718147 0
55.25961 46.47531 0.1718147 0
55.15961 46.67531 0.07181472 0
55.15961 46.72531 0.1218147 0
55.25961 46.67531 0.07181472 0
55.30961 46.67531 0.07181472 0
55.30961 46.72531 0.1218147 0
55.35961 46.52531 0.1718147 0
55.35961 46.67531 0.07181472 0
55.50961 46.62531 0.07181472 0
55.45961 46.57531 0.1718147 0
55.50961 46.57531 0.1718147 0
55.45961 46.67531 0.07181472 0
55.45961 46.67531 0.1218147 0
55.95961 27.17531 0.1718147 0
56.10961 27.17531 0.1718147 0
56.20961 27.22531 0.1718147 0
56.35961 27.27531 0.1718147 0
56.45961 27.32531 0.1718147 0
56.60961 27.17531 0.1718147 0
56.60961 27.22531 0.1718147 0
56.60961 27.47531 0.1718147 0
56.60961 27.67531 0.1718147 0
56.65961 27.57531 0.1718147 0
56.65961 27.72531 0.1718147 0
56.65961 27.77531 0.1718147 0
56.65961 27.87531 0.1718147 0
57.00961 27.52531 0.1218147 0
57.10961 27.42531 0.1218147 0
57.05961 27.52531 0.1218147 0
56.90961 27.82531 0.1218147 0
56.90961 27.92531 0.1218147 0
57.00961 27.62531 0.1218147 0
56.95961 27.72531 0.1218147 0
56.95961 27.77531 0.1218147 0
56.70961 27.97531 0.1718147 0
56.70961 28.07531 0.1718147 0
56.70961 28.42531 0.1218147 0
56.70961 28.52531 0.1218147 0
56.70961 28.62531 0.1218147 0
56.70961 28.72531 0.1218147 0
56.80961 28.12531 0.1218147 0
56.75961 28.12531 0.1718147 0
56.85961 28.02531 0.1218147 0
56.80961 28.22531 0.1218147 0
56.75961 28.17531 0.1718147 0
56.75961 28.27531 0.1218147 0
56.75961 28.32531 0.1218147 0
56.75961 28.27531 0.1718147 0
56.80961 28.32531 0.1718147 0
56.75961 28.37531 0.1218147 0
56.80961 28.42531 0.1718147 0
56.85961 28.52531 0.1718147 0
56.90961 28.67531 0.1718147 0
55.55961 28.17531 3.221815 0
56.70961 28.77531 0.1218147 0
56.70961 28.82531 0.1218147 0
56.65961 28.92531 0.1218147 0
56.65961 29.02531 0.1218147 0
56.65961 29.12531 0.1718147 0
56.65961 29.22531 0.1718147 0
56.65961 29.32531 0.1718147 0
56.65961 29.42531 0.1718147 0
56.65961 29.52531 0.1718147 0
56.95961 28.77531 0.1718147 0
57.00961 28.82531 0.1718147 0
57.00961 28.87531 0.1718147 0
57.05961 28.97531 0.1718147 0
57.10961 29.02531 0.1718147 0
56.70961 29.62531 0.1718147 0
56.70961 29.72531 0.1718147 0
56.70961 29.82531 0.1718147 0
56.70961 29.92531 0.1718147 0
57.10961 29.72531 0.1218147 0
57.10961 29.82531 0.1218147 0
57.05961 29.92531 0.1218147 0
56.75961 30.02531 0.1718147 0
56.75961 30.12531 0.1718147 0
56.80961 30.22531 0.1718147 0
56.80961 30.32531 0.1718147 0
56.90961 30.27531 0.1218147 0
57.00961 29.97531 0.1218147 0
57.00961 30.02531 0.1218147 0
56.95961 30.12531 0.1218147 0
56.95961 30.17531 0.1218147 0
57.20961 27.22531 0.1218147 0
57.15961 27.32531 0.1218147 0
57.55961 27.22531 0.1218147 0
57.60961 27.22531 0.2218147 0
57.60961 27.32531 0.1218147 0
57.60961 27.32531 0.1718147 0
57.60961 27.32531 0.2218147 0
57.65961 27.27531 0.2218147 0
57.60961 27.22531 0.3218147 0
57.60961 27.32531 0.2718147 0
57.60961 27.32531 0.3218147 0
57.60961 27.32531 0.4218147 0
57.65961 27.32531 0.3718147 0
57.55961 27.42531 0.1218147 0
57.60961 27.37531 0.07181472 0
57.60961 27.42531 0.07181472 0
57.60961 27.37531 0.1718147 0
57.60961 27.42531 0.1718147 0
57.55961 27.52531 0.07181472 0
57.60961 27.42531 0.2718147 0
57.60961 27.37531 0.4218147 0
57.60961 27.42531 0.4218147 0
57.60961 27.32531 0.4718147 0
57.60961 27.32531 0.5218147 0
57.60961 27.37531 0.5218147 0
57.60961 27.42531 0.5218147 0
57.60961 27.37531 0.6218147 0
57.60961 27.42531 0.6218147 0
57.60961 27.37531 0.7718147 0
57.60961 27.42531 0.7718147 0
57.90961 27.22531 0.5218147 0
57.90961 27.22531 0.6218147 0
57.85961 27.17531 0.7718147 0
57.55961 27.62531 0.07181472 0
57.55961 27.67531 0.07181472 0
57.55961 27.72531 0.07181472 0
57.55961 27.77531 0.07181472 0
57.55961 27.82531 0.07181472 0
57.55961 27.87531 0.07181472 0
57.55961 27.92531 0.07181472 0
57.60961 27.32531 0.8718147 0
57.60961 27.32531 0.9718148 0
57.60961 27.32531 1.021815 0
57.60961 27.32531 1.121815 0
57.60961 27.37531 0.8718147 0
57.60961 27.42531 0.8718147 0
57.60961 27.37531 1.021815 0
57.60961 27.42531 1.021815 0
57.60961 27.42531 1.121815 0
57.65961 27.37531 1.121815 0
57.60961 27.32531 1.271815 0
57.60961 27.42531 1.271815 0
57.65961 27.37531 1.271815 0
57.55961 27.97531 0.07181472 0
57.55961 28.02531 0.07181472 0
57.55961 28.07531 0.07181472 0
57.55961 28.12531 0.07181472 0
57.55961 28.22531 0.07181472 0
57.60961 28.27531 0.07181472 0
57.60961 28.32531 0.07181472 0
57.55961 28.42531 0.07181472 0
57.60961 28.37531 0.07181472 0
57.60961 28.47531 0.07181472 0
57.60961 28.52531 0.07181472 0
57.60961 28.57531 0.07181472 0
57.60961 28.62531 0.07181472 0
57.60961 28.62531 0.1218147 0
57.60961 28.67531 0.07181472 0
57.60961 28.72531 0.07181472 0
57.60961 28.72531 0.1218147 0
58.00961 27.27531 0.4218147 0
58.10961 27.27531 0.4218147 0
58.15961 27.27531 0.4218147 0
58.25961 27.27531 0.4218147 0
58.10961 27.32531 0.5218147 0
58.05961 27.27531 0.6218147 0
58.00961 27.22531 0.7218148 0
58.05961 27.27531 0.7218148 0
58.15961 27.32531 0.5218147 0
58.15961 27.27531 0.6218147 0
58.20961 27.27531 0.6218147 0
58.25961 27.32531 0.5218147 0
58.30961 27.27531 0.6218147 0
58.15961 27.22531 0.8218147 0
58.15961 27.27531 0.7218148 0
58.25961 27.22531 0.8218147 0
58.30961 27.22531 0.8218147 0
58.25961 27.27531 0.7218148 0
58.35961 27.27531 0.3718147 0
58.45961 27.27531 0.3718147 0
58.35961 27.32531 0.4718147 0
58.35961 27.27531 0.5718147 0
58.45961 27.32531 0.4718147 0
58.45961 27.32531 0.5718147 0
58.35961 27.22531 0.8218147 0
58.35961 27.27531 0.7218148 0
58.40961 27.27531 0.6718147 0
58.65961 27.17531 0.5218147 0
58.65961 27.47531 0.5218147 0
57.95961 27.17531 0.8718147 0
58.00961 27.17531 0.9718148 0
58.05961 27.22531 0.8718147 0
58.05961 27.17531 0.9718148 0
58.15961 27.17531 0.9718148 0
58.25961 27.17531 0.9218147 0
58.30961 27.17531 1.021815 0
58.15961 27.17531 1.071815 0
58.35961 27.17531 0.9218147 0
57.50961 27.27531 1.771815 0
57.50961 27.27531 1.971815 0
57.50961 27.27531 2.071815 0
57.50961 27.27531 2.171815 0
57.50961 27.27531 2.371815 0
57.60961 27.27531 1.771815 0
57.55961 27.32531 2.071815 0
57.60961 27.27531 2.171815 0
57.55961 27.27531 2.321815 0
57.50961 27.22531 2.571815 0
57.50961 27.27531 2.471815 0
57.50961 27.27531 2.921815 0
57.50961 27.27531 2.971815 0
57.55961 27.22531 2.471815 0
57.60961 27.32531 2.571815 0
57.60961 27.27531 2.971815 0
57.15961 29.12531 0.1718147 0
57.50961 29.12531 0.1218147 0
57.20961 29.22531 0.1718147 0
57.25961 29.27531 0.1718147 0
57.25961 29.32531 0.1718147 0
57.30961 29.37531 0.1218147 0
57.30961 29.42531 0.1218147 0
57.30961 29.37531 0.1718147 0
57.25961 29.52531 0.1218147 0
57.40961 29.22531 0.1218147 0
57.35961 29.32531 0.1218147 0
57.35961 29.47531 0.1718147 0
57.40961 29.52531 0.1718147 0
57.60961 28.77531 0.07181472 0
57.60961 28.82531 0.07181472 0
57.60961 28.82531 0.1218147 0
57.60961 28.87531 0.07181472 0
57.60961 28.92531 0.07181472 0
57.60961 28.92531 0.1218147 0
57.55961 29.02531 0.1218147 0
57.60961 28.97531 0.07181472 0
57.60961 28.97531 0.1218147 0
57.60961 29.02531 0.07181472 0
57.55961 29.07531 0.1218147 0
57.60961 29.07531 0.07181472 0
57.60961 29.12531 0.07181472 0
57.60961 29.17531 0.07181472 0
57.60961 29.22531 0.07181472 0
57.60961 29.27531 0.1218147 0
57.60961 29.32531 0.07181472 0
57.60961 29.37531 0.07181472 0
57.60961 29.47531 0.07181472 0
57.65961 29.52531 0.1218147 0
57.15961 29.62531 0.1218147 0
57.45961 29.62531 0.1718147 0
57.50961 29.67531 0.1718147 0
57.60961 29.57531 0.07181472 0
57.60961 29.72531 0.07181472 0
57.60961 29.72531 0.1718147 0
57.65961 29.62531 0.07181472 0
57.65961 29.67531 0.07181472 0
57.60961 29.77531 0.07181472 0
57.60961 29.82531 0.1718147 0
57.60961 29.92531 0.1718147 0
57.65961 29.77531 0.07181472 0
57.65961 29.82531 0.07181472 0
57.65961 29.87531 0.07181472 0
57.65961 29.92531 0.07181472 0
57.60961 30.02531 0.1718147 0
57.65961 29.97531 0.07181472 0
57.65961 30.02531 0.07181472 0
57.65961 30.07531 0.07181472 0
57.65961 30.12531 0.07181472 0
57.65961 30.12531 0.1218147 0
57.65961 30.17531 0.07181472 0
57.65961 30.22531 0.07181472 0
57.65961 30.22531 0.1218147 0
57.65961 30.27531 0.07181472 0
57.65961 30.32531 0.07181472 0
57.65961 30.32531 0.1218147 0
56.60961 28.57531 3.771815 0
55.80961 29.17531 3.771815 0
55.75961 29.42531 3.771815 0
56.10961 28.87531 3.771815 0
56.00961 29.07531 3.771815 0
55.85961 30.32531 3.871815 0
56.00961 30.22531 3.821815 0
56.20961 30.17531 3.821815 0
56.20961 29.92531 4.271815 0
56.05961 30.07531 4.271815 0
56.35961 28.87531 3.771815 0
56.50961 28.77531 3.721815 0
56.35961 30.12531 3.821815 0
56.35961 29.82531 4.271815 0
57.50961 27.27531 3.371815 0
57.60961 27.32531 3.421815 0
57.90961 29.07531 4.171815 0
57.55961 29.17531 4.171815 0
57.75961 29.17531 4.171815 0
57.85961 29.97531 4.021815 0
57.80961 30.17531 4.021815 0
56.85961 30.42531 0.1218147 0
56.90961 30.37531 0.1218147 0
56.85961 30.42531 0.1718147 0
56.85961 30.47531 0.1218147 0
56.85961 30.47531 0.1718147 0
56.90961 30.52531 0.1718147 0
56.80961 30.67531 0.1218147 0
56.85961 30.57531 0.1218147 0
56.95961 30.62531 0.1718147 0
56.95961 30.72531 0.1718147 0
56.80961 30.77531 0.1218147 0
56.80961 30.82531 0.1218147 0
56.75961 30.92531 0.1218147 0
56.75961 30.97531 0.1218147 0
56.75961 31.02531 0.1218147 0
57.00961 30.82531 0.1718147 0
57.05961 30.92531 0.1718147 0
57.10961 30.97531 0.1718147 0
57.10961 31.02531 0.1718147 0
56.40961 31.72531 0.07181472 0
56.55961 31.72531 0.07181472 0
56.65961 31.72531 0.07181472 0
56.75961 31.17531 0.1218147 0
56.75961 31.27531 0.1218147 0
56.75961 31.37531 0.1218147 0
56.75961 31.47531 0.1218147 0
56.75961 31.57531 0.1218147 0
56.75961 31.67531 0.1218147 0
56.80961 31.67531 0.07181472 0
56.90961 31.67531 0.07181472 0
56.75961 31.77531 0.1218147 0
56.75961 31.87531 0.1218147 0
56.80961 31.92531 0.1218147 0
57.00961 31.67531 0.07181472 0
56.95961 31.92531 0.1218147 0
57.05961 31.87531 0.1218147 0
56.00961 32.62531 0.07181472 0
56.15961 32.62531 0.07181472 0
56.25961 32.62531 0.07181472 0
56.70961 31.97531 0.1218147 0
56.35961 32.62531 0.07181472 0
56.45961 32.67531 0.07181472 0
56.55961 32.67531 0.07181472 0
56.65961 32.67531 0.07181472 0
56.75961 31.97531 0.1218147 0
56.80961 32.07531 0.1218147 0
56.80961 32.17531 0.1218147 0
56.80961 32.27531 0.1218147 0
57.10961 32.22531 0.1218147 0
57.10961 32.27531 0.1218147 0
56.85961 32.37531 0.1218147 0
56.90961 32.47531 0.1218147 0
56.80961 32.72531 0.07181472 0
56.90961 32.57531 0.1218147 0
56.90961 32.72531 0.07181472 0
57.00961 32.52531 0.1218147 0
57.05961 32.37531 0.1218147 0
57.05961 32.42531 0.1218147 0
57.00961 32.62531 0.1218147 0
56.95961 32.67531 0.1218147 0
56.95961 32.72531 0.1218147 0
56.90961 32.92531 0.1218147 0
56.90961 33.02531 0.1218147 0
56.90961 33.12531 0.1218147 0
56.95961 32.82531 0.1218147 0
57.00961 32.77531 0.07181472 0
57.00961 32.77531 0.1218147 0
57.00961 32.82531 0.1718147 0
57.00961 32.87531 0.1218147 0
57.10961 32.77531 0.07181472 0
57.10961 32.77531 0.1718147 0
57.05961 32.97531 0.1218147 0
57.05961 33.02531 0.1218147 0
57.10961 33.02531 0.1218147 0
57.05961 33.07531 0.1218147 0
56.90961 33.07531 0.6218147 0
56.85961 33.22531 0.1218147 0
56.85961 33.32531 0.1218147 0
56.85961 33.42531 0.1218147 0
56.85961 33.52531 0.1218147 0
57.15961 31.12531 0.1718147 0
57.65961 30.42531 0.07181472 0
57.65961 30.42531 0.1218147 0
57.65961 30.47531 0.07181472 0
57.65961 30.52531 0.07181472 0
57.65961 30.52531 0.1218147 0
57.65961 30.57531 0.07181472 0
57.65961 30.62531 0.07181472 0
57.65961 30.62531 0.1218147 0
57.65961 30.67531 0.07181472 0
57.65961 30.72531 0.07181472 0
57.65961 30.72531 0.1218147 0
57.70961 30.72531 0.07181472 0
57.65961 30.77531 0.07181472 0
57.65961 30.77531 0.1218147 0
57.70961 30.82531 0.07181472 0
57.65961 30.87531 0.07181472 0
57.65961 30.87531 0.1218147 0
57.70961 30.87531 0.07181472 0
57.70961 30.87531 0.1218147 0
57.70961 30.92531 0.07181472 0
57.65961 31.02531 0.1218147 0
57.70961 30.97531 0.1218147 0
57.70961 31.02531 0.07181472 0
57.65961 31.07531 0.1218147 0
57.65961 31.12531 0.1218147 0
57.70961 31.07531 0.07181472 0
57.70961 31.12531 0.07181472 0
57.70961 31.12531 0.1218147 0
57.20961 31.22531 0.1718147 0
57.25961 31.22531 0.1718147 0
57.25961 31.32531 0.1718147 0
57.30961 31.37531 0.1718147 0
57.35961 31.42531 0.1718147 0
57.40961 31.47531 0.1718147 0
57.50961 31.42531 0.1218147 0
57.50961 31.52531 0.1218147 0
57.15961 31.67531 0.07181472 0
57.25961 31.67531 0.07181472 0
57.15961 31.87531 0.1218147 0
57.30961 31.82531 0.1218147 0
57.25961 31.87531 0.1218147 0
57.40961 31.62531 0.1218147 0
57.40961 31.67531 0.07181472 0
57.40961 31.67531 0.1218147 0
57.45961 31.57531 0.1218147 0
57.50961 31.57531 0.1718147 0
57.50961 31.67531 0.07181472 0
57.35961 31.77531 0.1218147 0
57.40961 31.77531 0.1218147 0
57.60961 31.32531 0.1218147 0
57.65961 31.17531 0.1218147 0
57.65961 31.22531 0.1218147 0
57.70961 31.17531 0.07181472 0
57.70961 31.22531 0.07181472 0
57.65961 31.27531 0.1218147 0
57.65961 31.32531 0.1218147 0
57.70961 31.32531 0.07181472 0
57.60961 31.37531 0.1218147 0
57.65961 31.42531 0.1218147 0
57.70961 31.42531 0.07181472 0
57.65961 31.52531 0.07181472 0
57.70961 31.52531 0.07181472 0
57.55961 31.67531 0.1718147 0
57.65961 31.62531 0.07181472 0
57.70961 31.62531 0.07181472 0
57.65961 31.67531 0.07181472 0
57.70961 31.67531 0.07181472 0
57.70961 31.72531 0.07181472 0
57.55961 31.77531 0.1218147 0
57.60961 31.77531 0.1718147 0
57.65961 31.77531 0.1218147 0
57.70961 31.82531 0.07181472 0
57.65961 31.82531 0.1718147 0
57.70961 31.87531 0.07181472 0
57.70961 31.92531 0.07181472 0
57.70961 31.87531 0.1718147 0
57.75961 31.67531 0.07181472 0
57.80961 31.72531 0.1218147 0
57.85961 31.67531 0.07181472 0
57.90961 31.72531 0.1218147 0
57.75961 31.92531 0.07181472 0
58.00961 31.67531 0.07181472 0
58.05961 31.67531 0.1218147 0
58.10961 31.72531 0.07181472 0
58.15961 31.67531 0.1218147 0
58.25961 31.72531 0.07181472 0
58.30961 31.67531 0.1218147 0
58.40961 31.62531 0.1218147 0
58.35961 31.72531 0.07181472 0
58.50961 31.62531 0.07181472 0
58.50961 31.72531 0.07181472 0
58.60961 31.72531 0.07181472 0
58.65961 31.62531 0.07181472 0
58.70961 31.72531 0.07181472 0
57.20961 32.02531 0.1218147 0
57.15961 32.07531 0.1218147 0
57.25961 31.97531 0.1218147 0
57.15961 32.17531 0.1218147 0
57.20961 32.72531 0.1718147 0
57.30961 32.62531 0.1718147 0
57.45961 32.62531 0.1718147 0
57.70961 32.02531 0.07181472 0
57.70961 31.97531 0.1718147 0
57.70961 32.07531 0.07181472 0
57.70961 32.07531 0.1218147 0
57.70961 32.12531 0.07181472 0
57.70961 32.17531 0.07181472 0
57.70961 32.17531 0.1218147 0
57.70961 32.27531 0.07181472 0
57.75961 31.97531 0.07181472 0
57.75961 32.07531 0.07181472 0
57.75961 32.22531 0.07181472 0
57.75961 32.27531 0.07181472 0
57.75961 32.27531 0.1218147 0
57.75961 32.32531 0.07181472 0
57.70961 32.42531 0.07181472 0
57.65961 32.52531 0.1718147 0
57.55961 32.57531 0.1718147 0
57.70961 32.57531 0.07181472 0
57.75961 32.37531 0.07181472 0
57.75961 32.42531 0.07181472 0
57.75961 32.42531 0.1218147 0
57.75961 32.47531 0.07181472 0
57.75961 32.47531 0.1218147 0
57.75961 32.52531 0.07181472 0
57.75961 32.47531 0.1718147 0
57.90961 32.42531 0.1718147 0
57.75961 32.57531 0.07181472 0
57.75961 32.57531 0.1218147 0
57.75961 32.67531 0.07181472 0
57.75961 32.67531 0.1218147 0
57.75961 32.72531 0.07181472 0
57.20961 32.77531 0.07181472 0
57.30961 32.82531 0.07181472 0
57.15961 33.12531 0.1218147 0
57.40961 32.87531 0.07181472 0
57.50961 32.87531 0.07181472 0
57.15961 33.22531 0.1218147 0
57.20961 33.27531 0.1218147 0
57.25961 33.32531 0.1218147 0
57.30961 33.42531 0.1218147 0
57.35961 33.52531 0.1218147 0
57.35961 33.22531 0.5718147 0
57.65961 32.87531 0.07181472 0
57.75961 32.77531 0.07181472 0
57.75961 32.77531 0.1218147 0
57.75961 32.82531 0.07181472 0
57.75961 32.87531 0.07181472 0
57.75961 32.87531 0.1218147 0
57.75961 32.92531 0.07181472 0
57.75961 32.97531 0.07181472 0
57.75961 32.97531 0.1218147 0
57.75961 33.02531 0.07181472 0
57.80961 32.97531 0.07181472 0
57.75961 33.07531 0.07181472 0
57.75961 33.12531 0.07181472 0
57.75961 33.12531 0.1218147 0
57.75961 33.12531 0.1718147 0
57.85961 32.97531 0.07181472 0
57.75961 33.17531 0.07181472 0
57.75961 33.17531 0.1218147 0
57.75961 33.22531 0.07181472 0
57.75961 33.17531 0.1718147 0
57.75961 33.27531 0.1218147 0
57.75961 33.32531 0.07181472 0
57.80961 33.27531 0.07181472 0
57.75961 33.27531 0.1718147 0
57.75961 33.32531 0.1718147 0
57.75961 33.37531 0.07181472 0
57.80961 33.37531 0.07181472 0
57.75961 33.42531 0.1718147 0
57.80961 33.47531 0.07181472 0
57.75961 33.52531 0.1718147 0
57.75961 33.32531 0.5718147 0
58.10961 32.32531 0.1718147 0
58.25961 32.32531 0.1718147 0
58.00961 32.37531 0.1718147 0
58.35961 32.22531 0.1718147 0
58.45961 32.22531 0.1718147 0
58.60961 32.17531 0.1718147 0
58.70961 32.17531 0.1218147 0
57.95961 32.97531 0.07181472 0
58.05961 33.02531 0.07181472 0
58.15961 33.02531 0.07181472 0
58.25961 33.07531 0.07181472 0
58.15961 33.47531 0.5718147 0
58.35961 33.12531 0.07181472 0
58.45961 33.17531 0.07181472 0
58.55961 33.17531 0.07181472 0
58.65961 33.22531 0.07181472 0
55.70961 30.37531 3.871815 0
55.60961 30.57531 3.871815 0
55.55961 30.77531 3.821815 0
55.95961 30.57531 3.571815 0
56.10961 31.02531 3.521815 0
56.10961 31.02531 3.821815 0
55.95961 31.12531 3.871815 0
56.25961 31.12531 4.271815 0
55.55961 31.27531 3.871815 0
55.70961 31.22531 3.871815 0
55.80961 31.17531 3.871815 0
55.65961 31.87531 3.871815 0
55.90961 31.72531 3.871815 0
55.80961 31.82531 3.871815 0
55.85961 31.47531 4.271815 0
55.75961 31.57531 4.271815 0
56.00961 31.37531 4.271815 0
56.15961 31.27531 4.221815 0
55.65961 32.32531 4.171815 0
55.80961 32.22531 4.171815 0
55.55961 32.42531 4.171815 0
57.40961 30.62531 3.971815 0
57.70961 30.42531 3.971815 0
57.65961 30.67531 3.921815 0
58.90961 27.22531 0.3718147 0
58.85961 27.22531 0.4718147 0
58.85961 27.42531 0.4718147 0
59.10961 27.22531 0.5218147 0
58.85961 27.87531 0.5218147 0
59.10961 27.72531 0.4718147 0
59.00961 27.87531 0.4718147 0
59.05961 27.87531 0.4718147 0
59.10961 27.92531 0.5218147 0
59.15961 27.22531 0.4218147 0
59.25961 27.17531 0.3718147 0
59.30961 27.22531 0.5218147 0
59.35961 27.17531 0.4718147 0
59.35961 27.17531 0.5218147 0
59.40961 27.17531 0.4718147 0
59.35961 27.17531 0.6218147 0
59.40961 27.17531 0.5718147 0
59.20961 27.92531 0.4718147 0
59.25961 27.82531 0.4718147 0
59.35961 27.62531 0.4718147 0
59.50961 27.72531 0.4718147 0
59.35961 27.92531 0.5218147 0
59.40961 27.87531 0.4718147 0
59.40961 27.92531 0.4718147 0
58.90961 27.17531 1.221815 0
59.10961 27.57531 1.171815 0
59.25961 27.42531 1.071815 0
59.50961 27.32531 1.021815 0
59.20961 27.62531 1.121815 0
59.35961 27.62531 1.021815 0
59.40961 27.62531 1.121815 0
59.40961 27.57531 1.221815 0
58.75961 27.97531 0.4718147 0
59.60961 27.32531 0.4718147 0
59.70961 27.57531 0.4718147 0
59.60961 27.87531 0.4718147 0
59.70961 27.77531 0.4718147 0
59.85961 27.67531 0.4718147 0
59.80961 27.92531 0.4718147 0
59.85961 27.82531 0.4718147 0
60.10961 27.37531 0.4718147 0
60.25961 27.42531 0.4718147 0
60.00961 27.67531 0.4718147 0
60.00961 27.92531 0.4718147 0
60.05961 27.82531 0.4718147 0
60.20961 27.67531 0.4718147 0
60.15961 27.92531 0.4718147 0
60.25961 27.87531 0.4718147 0
60.25961 27.92531 0.4718147 0
59.80961 27.27531 1.021815 0
59.90961 27.47531 1.021815 0
59.60961 27.57531 1.021815 0
59.55961 27.62531 1.071815 0
59.60961 27.67531 1.121815 0
59.65961 27.57531 1.221815 0
59.80961 27.57531 1.021815 0
59.75961 27.67531 1.071815 0
59.85961 27.67531 1.121815 0
60.10961 27.52531 1.021815 0
60.30961 27.22531 1.021815 0
60.25961 27.52531 1.021815 0
59.95961 27.62531 1.021815 0
59.95961 27.67531 1.071815 0
60.15961 27.62531 1.021815 0
60.20961 27.67531 1.071815 0
59.60961 27.97531 0.5218147 0
59.65961 27.97531 0.4718147 0
59.85961 27.97531 0.4718147 0
59.25961 29.37531 0.07181472 0
59.35961 29.37531 0.07181472 0
59.45961 29.37531 0.07181472 0
59.55961 29.42531 0.07181472 0
59.65961 29.42531 0.07181472 0
59.75961 29.42531 0.07181472 0
59.80961 29.42531 0.07181472 0
59.90961 29.42531 0.07181472 0
59.95961 29.42531 0.07181472 0
60.00961 29.42531 0.07181472 0
60.10961 29.42531 0.07181472 0
60.15961 29.47531 0.07181472 0
60.25961 29.42531 0.07181472 0
60.45961 27.47531 0.4718147 0
60.60961 27.52531 0.4718147 0
60.35961 27.72531 0.4718147 0
60.45961 27.87531 0.4718147 0
60.45961 27.92531 0.4718147 0
60.55961 27.72531 0.4718147 0
60.70961 27.77531 0.4718147 0
60.65961 27.87531 0.4718147 0
60.75961 27.17531 0.5218147 0
60.75961 27.52531 0.4718147 0
60.95961 27.22531 0.5218147 0
61.10961 27.27531 0.5218147 0
60.90961 27.72531 0.4718147 0
60.75961 27.87531 0.4718147 0
60.85961 27.87531 0.4718147 0
60.95961 27.57531 0.4718147 0
61.10961 27.57531 0.4718147 0
61.10961 27.72531 0.4718147 0
60.50961 27.27531 1.021815 0
60.45961 27.52531 1.021815 0
60.65961 27.32531 1.021815 0
60.35961 27.62531 1.021815 0
60.40961 27.67531 1.071815 0
60.55961 27.62531 1.021815 0
60.60961 27.57531 1.021815 0
60.85961 27.37531 1.021815 0
61.00961 27.37531 1.021815 0
61.00961 27.52531 1.021815 0
60.75961 27.62531 1.021815 0
60.80961 27.57531 1.021815 0
61.00961 28.67531 0.3218147 0
61.00961 28.67531 0.3718147 0
61.00961 28.67531 0.4218147 0
61.00961 28.72531 0.3718147 0
61.00961 28.67531 0.4718147 0
61.00961 28.67531 0.5218147 0
61.00961 28.72531 0.4718147 0
61.25961 27.32531 0.5218147 0
61.45961 27.32531 0.5218147 0
61.30961 27.57531 0.4718147 0
61.30961 27.62531 0.4718147 0
61.45961 27.62531 0.4718147 0
61.60961 27.32531 0.5218147 0
61.80961 27.37531 0.4718147 0
61.65961 27.57531 0.4718147 0
61.20961 27.37531 1.021815 0
61.35961 27.42531 1.021815 0
61.55961 27.37531 1.021815 0
61.85961 28.12531 0.1218147 0
61.75961 28.47531 0.1718147 0
60.65961 29.07531 0.3218147 0
60.65961 29.07531 0.3718147 0
60.70961 29.07531 0.4218147 0
60.35961 29.42531 0.07181472 0
60.45961 29.42531 0.07181472 0
60.55961 29.42531 0.07181472 0
60.65961 29.42531 0.07181472 0
60.90961 28.77531 0.1718147 0
60.75961 28.92531 0.3218147 0
60.85961 28.82531 0.3218147 0
60.75961 29.07531 0.2718147 0
60.75961 29.07531 0.3718147 0
60.75961 29.07531 0.4218147 0
60.85961 29.02531 0.4218147 0
60.85961 29.07531 0.2718147 0
60.85961 29.07531 0.3718147 0
60.95961 28.77531 0.1718147 0
60.95961 29.02531 0.2718147 0
60.95961 29.02531 0.3718147 0
60.95961 29.02531 0.4718147 0
60.75961 29.42531 0.07181472 0
60.80961 29.42531 0.07181472 0
60.90961 29.37531 0.07181472 0
61.00961 29.27531 0.07181472 0
60.95961 29.42531 0.07181472 0
61.05961 29.42531 0.07181472 0
60.90961 29.72531 0.07181472 0
60.85961 30.17531 0.1218147 0
61.15961 29.37531 0.07181472 0
61.25961 29.37531 0.07181472 0
61.65961 28.87531 0.1718147 0
61.60961 29.22531 0.1718147 0
61.50961 29.57531 0.1718147 0
61.45961 29.87531 0.1718147 0
61.35961 30.17531 0.1718147 0
61.90961 30.17531 0.2718147 0
58.75961 31.57531 0.07181472 0
58.90961 31.57531 0.07181472 0
58.85961 31.72531 0.07181472 0
59.00961 31.57531 0.07181472 0
58.95961 31.77531 0.07181472 0
59.10961 31.77531 0.07181472 0
59.15961 31.57531 0.07181472 0
59.25961 31.57531 0.07181472 0
59.20961 31.82531 0.07181472 0
59.40961 31.57531 0.07181472 0
59.45961 31.92531 0.1218147 0
59.65961 31.52531 0.07181472 0
59.55961 31.57531 0.07181472 0
59.55961 31.92531 0.1218147 0
59.70961 31.87531 0.1218147 0
59.80961 31.87531 0.1218147 0
59.95961 31.87531 0.1218147 0
60.05961 31.82531 0.1218147 0
60.15961 31.57531 0.1218147 0
58.85961 32.07531 0.1218147 0
58.95961 32.07531 0.1218147 0
59.05961 32.02531 0.1218147 0
59.20961 32.02531 0.1218147 0
59.30961 31.97531 0.1218147 0
58.75961 33.27531 0.07181472 0
58.90961 33.32531 0.07181472 0
59.70961 33.52531 0.2218147 0
59.80961 33.52531 0.2218147 0
59.90961 33.47531 0.2218147 0
60.30961 32.77531 0.1718147 0
60.25961 33.07531 0.1718147 0
60.00961 33.47531 0.2218147 0
60.20961 33.32531 0.1718147 0
60.15961 33.42531 0.1718147 0
60.70961 30.92531 0.1218147 0
60.75961 30.52531 0.1218147 0
61.10961 30.92531 0.3218147 0
61.05961 30.92531 0.3718147 0
61.00961 30.97531 0.1718147 0
61.05961 31.02531 0.1718147 0
60.95961 31.07531 0.3218147 0
61.05961 30.92531 0.4718147 0
61.05961 30.92531 0.5218147 0
61.10961 30.87531 0.4718147 0
61.10961 30.92531 0.4718147 0
61.10961 30.92531 0.5218147 0
60.60961 31.27531 0.1218147 0
60.50961 31.92531 0.1718147 0
60.55961 31.62531 0.1218147 0
60.80961 31.22531 0.3218147 0
60.75961 31.27531 0.3218147 0
60.75961 31.27531 0.3718147 0
60.80961 31.27531 0.4218147 0
60.85961 31.17531 0.3218147 0
60.85961 31.27531 0.2718147 0
60.85961 31.27531 0.3718147 0
60.85961 31.27531 0.4218147 0
61.10961 31.32531 0.2218147 0
60.95961 31.27531 0.2718147 0
61.00961 31.27531 0.2718147 0
60.95961 31.27531 0.3718147 0
60.95961 31.27531 0.4218147 0
61.05961 31.27531 0.3718147 0
61.05961 31.27531 0.4718147 0
61.05961 31.57531 0.2218147 0
60.95961 31.82531 0.2218147 0
61.30961 30.47531 0.2218147 0
61.20961 30.72531 0.2218147 0
61.15961 31.02531 0.2218147 0
61.80961 30.42531 0.2718147 0
61.75961 30.67531 0.3218147 0
61.70961 30.92531 0.3218147 0
61.60961 31.12531 0.3218147 0
61.50961 31.57531 0.3218147 0
61.45961 31.77531 0.3218147 0
61.55961 31.37531 0.3218147 0
61.90961 31.27531 0.3718147 0
61.85961 31.52531 0.3718147 0
61.70961 31.87531 0.4218147 0
61.75961 31.67531 0.3718147 0
60.45961 32.22531 0.1718147 0
60.40961 32.52531 0.1718147 0
60.90961 32.07531 0.2218147 0
60.85961 32.27531 0.2718147 0
60.80961 32.52531 0.2718147 0
60.75961 32.72531 0.2718147 0
60.70961 32.97531 0.2718147 0
60.65961 33.17531 0.2718147 0
60.60961 33.37531 0.2718147 0
60.55961 33.52531 0.2718147 0
61.10961 32.97531 0.3718147 0
60.85961 33.52531 0.2718147 0
60.85961 33.52531 0.3718147 0
60.90961 33.52531 0.4218147 0
61.00961 33.32531 0.3718147 0
61.05961 33.17531 0.3718147 0
61.05961 33.32531 0.3218147 0
60.95961 33.42531 0.3218147 0
60.95961 33.52531 0.2718147 0
60.95961 33.52531 0.3718147 0
60.95961 33.52531 0.4218147 0
61.05961 33.52531 0.2718147 0
61.05961 33.52531 0.3718147 0
61.05961 33.52531 0.4218147 0
61.30961 32.22531 0.3218147 0
61.40961 32.02531 0.3218147 0
61.25961 32.42531 0.3218147 0
61.20961 32.62531 0.3718147 0
61.50961 32.47531 0.4218147 0
61.45961 32.62531 0.4218147 0
61.65961 32.07531 0.4218147 0
61.55961 32.27531 0.4218147 0
61.15961 32.77531 0.3718147 0
61.20961 33.12531 0.3718147 0
61.20961 33.12531 0.4218147 0
61.30961 33.02531 0.4218147 0
61.40961 32.82531 0.4218147 0
61.15961 33.22531 0.1718147 0
61.15961 33.27531 0.1718147 0
61.20961 33.17531 0.3218147 0
61.20961 33.17531 0.3718147 0
61.20961 33.32531 0.4218147 0
61.25961 33.17531 0.4218147 0
61.15961 33.52531 0.2718147 0
61.15961 33.52531 0.3718147 0
61.15961 33.52531 0.4218147 0
61.20961 33.17531 0.4718147 0
61.20961 33.17531 0.5218147 0
55.75961 34.62531 0.5218147 0
56.30961 35.12531 0.3218147 0
56.10961 34.77531 0.5218147 0
56.80961 33.62531 0.1218147 0
56.85961 33.72531 0.1218147 0
56.85961 33.82531 0.1218147 0
56.85961 33.92531 0.1218147 0
56.85961 34.02531 0.1218147 0
56.85961 34.12531 0.1218147 0
56.85961 34.22531 0.1218147 0
56.90961 34.32531 0.1218147 0
56.40961 35.07531 0.3218147 0
56.50961 35.02531 0.3218147 0
56.60961 34.92531 0.2718147 0
56.70961 34.87531 0.2718147 0
56.50961 34.87531 0.5218147 0
56.90961 34.42531 0.1218147 0
56.90961 34.52531 0.1218147 0
56.95961 34.57531 0.1218147 0
56.95961 34.62531 0.1218147 0
56.95961 34.67531 0.1218147 0
57.10961 34.67531 0.1718147 0
57.00961 34.67531 0.2718147 0
57.10961 34.67531 0.2718147 0
56.80961 34.82531 0.2718147 0
56.90961 34.77531 0.2718147 0
57.00961 34.77531 0.1218147 0
57.05961 34.77531 0.1718147 0
57.05961 34.87531 0.1218147 0
57.05961 34.87531 0.1718147 0
57.00961 34.97531 0.1718147 0
57.00961 35.07531 0.1718147 0
57.05961 34.97531 0.1218147 0
57.10961 35.02531 0.1218147 0
57.10961 35.12531 0.1218147 0
56.85961 34.97531 0.5218147 0
55.85961 35.47531 0.3218147 0
55.55961 35.72531 0.3218147 0
55.65961 35.62531 0.3218147 0
55.75961 35.57531 0.3218147 0
56.10961 35.27531 0.3218147 0
55.95961 35.42531 0.3218147 0
56.05961 35.37531 0.3218147 0
56.20961 35.22531 0.3218147 0
55.75961 36.02531 0.4218147 0
56.00961 36.07531 0.4218147 0
56.30961 36.12531 0.4218147 0
56.60961 35.72531 0.2218147 0
56.90961 35.47531 0.1718147 0
56.95961 35.17531 0.1718147 0
56.95961 35.27531 0.1718147 0
56.95961 35.37531 0.1718147 0
56.90961 35.57531 0.1718147 0
56.90961 35.67531 0.1718147 0
56.75961 35.77531 0.2218147 0
56.85961 35.82531 0.2218147 0
56.90961 35.77531 0.1718147 0
56.90961 35.87531 0.1718147 0
56.95961 35.82531 0.2218147 0
57.10961 35.87531 0.2218147 0
56.55961 36.22531 0.4218147 0
56.90961 35.97531 0.1718147 0
56.90961 36.07531 0.1718147 0
56.90961 36.17531 0.1718147 0
56.90961 36.27531 0.1718147 0
56.85961 36.27531 0.4218147 0
57.05961 36.32531 0.4218147 0
56.95961 36.37531 0.1718147 0
56.95961 36.47531 0.1718147 0
56.95961 36.57531 0.1718147 0
56.95961 36.67531 0.1718147 0
57.40961 33.57531 0.1218147 0
57.40961 33.62531 0.1218147 0
57.50961 33.72531 0.1218147 0
57.50961 33.82531 0.1718147 0
57.45961 33.87531 0.1718147 0
57.25961 34.27531 0.1718147 0
57.40961 34.02531 0.1718147 0
57.35961 34.12531 0.1718147 0
57.40961 34.07531 0.1718147 0
57.45961 33.97531 0.1718147 0
57.60961 33.67531 0.1718147 0
57.65961 33.57531 0.1718147 0
57.65961 33.62531 0.1718147 0
57.55961 33.82531 0.1218147 0
57.55961 33.77531 0.1718147 0
57.60961 33.87531 0.1218147 0
57.65961 33.92531 0.1218147 0
57.80961 33.57531 0.07181472 0
57.80961 33.67531 0.07181472 0
57.80961 33.77531 0.07181472 0
57.80961 33.87531 0.07181472 0
57.80961 33.92531 0.07181472 0
57.70961 34.02531 0.1218147 0
57.75961 34.02531 0.1218147 0
57.80961 33.97531 0.07181472 0
57.80961 34.02531 0.07181472 0
57.80961 34.07531 0.07181472 0
57.80961 34.12531 0.07181472 0
57.80961 34.12531 0.1218147 0
57.80961 34.17531 0.07181472 0
57.80961 34.22531 0.07181472 0
57.80961 34.22531 0.1218147 0
57.80961 34.27531 0.07181472 0
57.80961 34.32531 0.07181472 0
57.80961 34.32531 0.1218147 0
57.75961 34.32531 0.2718147 0
57.85961 34.27531 0.2718147 0
57.20961 34.42531 0.1718147 0
57.20961 34.47531 0.1718147 0
57.25961 34.37531 0.1718147 0
57.15961 34.57531 0.1718147 0
57.20961 34.57531 0.2718147 0
57.35961 34.52531 0.2718147 0
57.40961 34.47531 0.2718147 0
57.20961 35.07531 0.5218147 0
57.55961 34.42531 0.2718147 0
57.65961 34.37531 0.2718147 0
57.80961 34.37531 0.07181472 0
57.80961 34.42531 0.07181472 0
57.80961 34.42531 0.1218147 0
57.80961 34.47531 0.07181472 0
57.80961 34.47531 0.1218147 0
57.80961 34.52531 0.07181472 0
57.85961 34.47531 0.07181472 0
57.80961 34.57531 0.07181472 0
57.80961 34.62531 0.07181472 0
57.80961 34.72531 0.07181472 0
57.85961 34.62531 0.1218147 0
57.85961 34.67531 0.07181472 0
57.85961 34.72531 0.1218147 0
57.80961 34.82531 0.07181472 0
57.80961 34.92531 0.07181472 0
57.85961 34.77531 0.07181472 0
57.85961 34.77531 0.1218147 0
57.85961 34.87531 0.07181472 0
57.85961 34.92531 0.1218147 0
57.85961 34.97531 0.07181472 0
57.85961 35.02531 0.07181472 0
57.85961 35.02531 0.1218147 0
57.85961 35.07531 0.07181472 0
57.85961 35.12531 0.1218147 0
57.95961 34.22531 0.2718147 0
58.05961 34.17531 0.2718147 0
58.15961 34.12531 0.2718147 0
58.25961 34.02531 0.2718147 0
58.60961 33.92531 0.2218147 0
58.70961 33.87531 0.2218147 0
58.50961 33.62531 0.5718147 0
58.35961 34.02531 0.2218147 0
58.50961 33.97531 0.2218147 0
58.40961 35.12531 0.3718147 0
58.45961 35.02531 0.3718147 0
58.55961 34.92531 0.3718147 0
58.65961 34.87531 0.3718147 0
57.15961 35.22531 0.1218147 0
57.15961 35.27531 0.1218147 0
57.20961 35.32531 0.1218147 0
57.25961 35.37531 0.1218147 0
57.25961 35.47531 0.1218147 0
57.50961 35.17531 0.5218147 0
57.20961 35.92531 0.2218147 0
57.35961 35.57531 0.1218147 0
57.40961 35.67531 0.1218147 0
57.45961 35.72531 0.1218147 0
57.45961 35.77531 0.1218147 0
57.50961 35.87531 0.1218147 0
57.50961 35.92531 0.3718147 0
57.80961 35.22531 0.1218147 0
57.85961 35.17531 0.07181472 0
57.85961 35.22531 0.1218147 0
57.85961 35.27531 0.07181472 0
57.85961 35.32531 0.1218147 0
57.80961 35.37531 0.1218147 0
57.85961 35.37531 0.07181472 0
57.85961 35.42531 0.07181472 0
57.85961 35.42531 0.1218147 0
57.85961 35.47531 0.1218147 0
57.85961 35.52531 0.07181472 0
57.85961 35.52531 0.1218147 0
57.80961 35.22531 0.4718147 0
57.55961 35.92531 0.1218147 0
57.60961 35.82531 0.3718147 0
57.70961 35.77531 0.3718147 0
57.85961 35.57531 0.07181472 0
57.85961 35.62531 0.1218147 0
57.85961 35.57531 0.1718147 0
57.85961 35.62531 0.1718147 0
57.85961 35.67531 0.07181472 0
57.85961 35.72531 0.1218147 0
57.90961 35.72531 0.1218147 0
57.85961 35.67531 0.1718147 0
57.75961 35.67531 0.3718147 0
57.85961 35.57531 0.3718147 0
57.80961 35.77531 0.1718147 0
57.80961 35.82531 0.1718147 0
57.75961 35.87531 0.1718147 0
57.85961 35.77531 0.07181472 0
57.85961 35.82531 0.1218147 0
57.85961 35.87531 0.07181472 0
57.85961 35.92531 0.1218147 0
57.30961 35.97531 0.2218147 0
57.20961 36.27531 0.4218147 0
57.30961 36.22531 0.4218147 0
57.45961 35.97531 0.2218147 0
57.35961 36.12531 0.3718147 0
57.45961 36.02531 0.3718147 0
57.45961 36.32531 0.1718147 0
57.50961 36.27531 0.1718147 0
57.30961 36.72531 0.1718147 0
57.40961 36.52531 0.1718147 0
57.45961 36.42531 0.1718147 0
57.35961 36.57531 0.1718147 0
57.60961 35.97531 0.1218147 0
57.55961 36.02531 0.2218147 0
57.60961 36.07531 0.1718147 0
57.65961 36.02531 0.1718147 0
57.70961 35.97531 0.1718147 0
57.65961 36.07531 0.1218147 0
57.70961 36.12531 0.1218147 0
57.70961 36.07531 0.2218147 0
57.55961 36.22531 0.1718147 0
57.60961 36.17531 0.1718147 0
57.80961 36.12531 0.2218147 0
57.85961 36.02531 0.1218147 0
57.90961 35.97531 0.07181472 0
57.90961 36.07531 0.07181472 0
57.90961 36.12531 0.1218147 0
57.75961 36.17531 0.1218147 0
57.80961 36.27531 0.1218147 0
57.90961 36.22531 0.07181472 0
57.90961 36.22531 0.1218147 0
57.85961 36.27531 0.1218147 0
57.90961 36.32531 0.07181472 0
57.90961 36.32531 0.1218147 0
57.90961 36.37531 0.07181472 0
57.90961 36.42531 0.07181472 0
57.90961 36.42531 0.1218147 0
57.90961 36.47531 0.07181472 0
57.90961 36.52531 0.1218147 0
57.90961 36.57531 0.07181472 0
57.90961 36.57531 0.1218147 0
57.90961 36.62531 0.1218147 0
57.90961 36.67531 0.07181472 0
57.90961 36.72531 0.1218147 0
58.10961 35.32531 0.3718147 0
58.00961 35.42531 0.3718147 0
57.95961 35.52531 0.3718147 0
58.20961 35.27531 0.3718147 0
58.30961 35.17531 0.3718147 0
58.10961 35.32531 0.4718147 0
58.40961 35.42531 0.4718147 0
58.65961 35.47531 0.4718147 0
57.95961 36.67531 0.1218147 0
55.60961 37.57531 0.1718147 0
55.75961 37.62531 0.1718147 0
55.85961 37.67531 0.1718147 0
55.55961 38.32531 0.07181472 0
55.65961 38.32531 0.07181472 0
55.75961 38.32531 0.07181472 0
55.90961 38.32531 0.07181472 0
55.95961 37.72531 0.1718147 0
56.05961 37.77531 0.1718147 0
56.15961 37.82531 0.1718147 0
56.30961 37.87531 0.1718147 0
57.00961 36.77531 0.1718147 0
57.00961 36.87531 0.1718147 0
57.05961 36.92531 0.1718147 0
57.05961 37.02531 0.1718147 0
57.05961 37.07531 0.1718147 0
57.10961 37.17531 0.1718147 0
57.10961 37.22531 0.1718147 0
57.10961 37.32531 0.1718147 0
57.05961 37.42531 0.1218147 0
57.05961 37.52531 0.1218147 0
56.40961 37.92531 0.1718147 0
56.50961 37.97531 0.1718147 0
56.65961 38.02531 0.1718147 0
57.00961 37.72531 0.1218147 0
57.05961 37.57531 0.1218147 0
57.05961 37.67531 0.1218147 0
57.00961 37.82531 0.1218147 0
57.00961 37.92531 0.1218147 0
56.75961 38.07531 0.1718147 0
56.85961 38.12531 0.1718147 0
57.00961 38.02531 0.1218147 0
57.00961 38.12531 0.1218147 0
57.00961 38.22531 0.1218147 0
56.95961 38.17531 0.1718147 0
56.95961 38.32531 0.07181472 0
57.00961 38.32531 0.1218147 0
57.10961 38.22531 0.07181472 0
57.10961 38.22531 0.1718147 0
55.55961 38.72531 0.1218147 0
55.65961 38.72531 0.1218147 0
55.85961 38.37531 0.07181472 0
55.75961 38.72531 0.1218147 0
55.85961 38.72531 0.1218147 0
55.55961 39.02531 0.1218147 0
55.65961 39.02531 0.1218147 0
55.75961 39.02531 0.1218147 0
55.75961 39.12531 0.07181472 0
55.85961 39.02531 0.1218147 0
56.00961 38.37531 0.07181472 0
56.15961 38.37531 0.07181472 0
56.20961 38.42531 0.07181472 0
56.30961 38.42531 0.07181472 0
55.95961 38.77531 0.1218147 0
56.00961 38.77531 0.1218147 0
56.05961 38.77531 0.1218147 0
56.00961 39.02531 0.1218147 0
55.95961 39.12531 0.07181472 0
56.10961 39.07531 0.1218147 0
56.10961 39.12531 0.07181472 0
56.15961 38.77531 0.1218147 0
56.20961 38.77531 0.1218147 0
56.20961 39.07531 0.1218147 0
56.20961 39.12531 0.07181472 0
56.25961 39.02531 0.07181472 0
56.30961 38.97531 0.07181472 0
56.30961 39.07531 0.07181472 0
56.30961 39.07531 0.1218147 0
55.55961 39.22531 0.07181472 0
55.60961 39.22531 0.07181472 0
55.70961 39.22531 0.07181472 0
55.85961 39.27531 0.07181472 0
55.90961 39.42531 0.1218147 0
55.90961 39.52531 0.1218147 0
55.60961 39.92531 0.1218147 0
55.65961 39.77531 0.1218147 0
55.65961 39.82531 0.1218147 0
55.80961 39.62531 0.1218147 0
55.75961 39.67531 0.1218147 0
55.85961 39.57531 0.1218147 0
55.95961 39.27531 0.07181472 0
56.00961 39.27531 0.07181472 0
56.10961 39.17531 0.07181472 0
56.05961 39.27531 0.07181472 0
56.00961 39.37531 0.1218147 0
56.35961 38.42531 0.07181472 0
56.45961 38.42531 0.07181472 0
56.55961 38.42531 0.07181472 0
56.65961 38.42531 0.07181472 0
56.70961 38.52531 0.07181472 0
56.55961 38.72531 0.07181472 0
56.65961 38.62531 0.07181472 0
56.35961 38.77531 0.1218147 0
56.40961 38.82531 0.07181472 0
56.35961 38.92531 0.07181472 0
56.40961 38.87531 0.07181472 0
56.45961 38.77531 0.07181472 0
56.45961 38.82531 0.1218147 0
56.40961 39.07531 0.07181472 0
56.45961 39.07531 0.07181472 0
56.50961 39.07531 0.07181472 0
56.55961 38.82531 0.1218147 0
56.65961 38.82531 0.1218147 0
56.60961 39.07531 0.07181472 0
56.70961 39.07531 0.07181472 0
56.75961 38.47531 0.07181472 0
56.80961 38.47531 0.07181472 0
56.90961 38.37531 0.07181472 0
56.85961 38.47531 0.07181472 0
57.00961 38.42531 0.1218147 0
56.95961 38.47531 0.07181472 0
57.05961 38.52531 0.07181472 0
57.05961 38.52531 0.1218147 0
57.05961 38.62531 0.1218147 0
57.05961 38.72531 0.1218147 0
56.75961 38.82531 0.1218147 0
56.85961 38.87531 0.1218147 0
56.75961 39.07531 0.1218147 0
56.80961 39.07531 0.07181472 0
56.85961 39.07531 0.1218147 0
56.85961 39.12531 0.07181472 0
56.90961 39.12531 0.07181472 0
56.95961 38.87531 0.1218147 0
57.05961 38.82531 0.1218147 0
57.05961 38.87531 0.1218147 0
57.10961 38.92531 0.1218147 0
56.95961 39.07531 0.07181472 0
57.00961 39.07531 0.07181472 0
57.00961 39.07531 0.1218147 0
57.00961 39.12531 0.07181472 0
57.10961 38.97531 0.1218147 0
57.10961 39.02531 0.1218147 0
57.10961 39.07531 0.07181472 0
57.10961 39.12531 0.07181472 0
57.20961 36.92531 0.1718147 0
57.25961 36.82531 0.1718147 0
57.25961 36.87531 0.1718147 0
57.15961 37.02531 0.1718147 0
57.15961 37.12531 0.1718147 0
57.15961 37.17531 0.1718147 0
57.15961 37.27531 0.1718147 0
57.20961 37.37531 0.1718147 0
57.25961 37.47531 0.1718147 0
57.25961 37.52531 0.1718147 0
57.90961 36.77531 0.07181472 0
57.90961 36.82531 0.07181472 0
57.90961 36.87531 0.07181472 0
57.90961 36.92531 0.07181472 0
57.90961 36.97531 0.07181472 0
57.90961 37.07531 0.07181472 0
57.90961 37.17531 0.07181472 0
57.90961 37.37531 0.07181472 0
57.30961 37.62531 0.1718147 0
57.30961 37.67531 0.1718147 0
57.35961 37.77531 0.1718147 0
57.40961 37.87531 0.1718147 0
57.45961 37.92531 0.1718147 0
57.25961 38.07531 0.07181472 0
57.15961 38.17531 0.07181472 0
57.20961 38.27531 0.1718147 0
57.40961 38.02531 0.07181472 0
57.50961 37.97531 0.1718147 0
57.35961 38.32531 0.1718147 0
57.45961 38.32531 0.1718147 0
57.90961 37.67531 0.1218147 0
57.90961 37.72531 0.1218147 0
57.90961 37.87531 0.1218147 0
57.55961 38.07531 0.07181472 0
57.60961 38.07531 0.07181472 0
57.55961 38.07531 0.1718147 0
57.60961 38.12531 0.1718147 0
57.70961 38.07531 0.07181472 0
57.60961 38.17531 0.1718147 0
57.65961 38.22531 0.1718147 0
57.80961 38.12531 0.07181472 0
57.90961 38.02531 0.1218147 0
57.85961 38.12531 0.1218147 0
57.90961 38.12531 0.07181472 0
57.75961 38.22531 0.1218147 0
57.75961 38.27531 0.1218147 0
57.75961 38.32531 0.1718147 0
57.85961 38.17531 0.1218147 0
57.95961 36.77531 0.1218147 0
57.95961 36.87531 0.1218147 0
57.95961 36.97531 0.1218147 0
57.95961 37.02531 0.07181472 0
57.95961 37.07531 0.1218147 0
57.95961 37.12531 0.07181472 0
57.95961 37.17531 0.1218147 0
57.95961 37.22531 0.07181472 0
57.95961 37.22531 0.1218147 0
57.95961 37.27531 0.07181472 0
57.95961 37.32531 0.07181472 0
57.95961 37.37531 0.07181472 0
57.95961 37.42531 0.07181472 0
57.95961 37.47531 0.07181472 0
57.95961 37.52531 0.07181472 0
57.95961 37.57531 0.07181472 0
57.95961 37.62531 0.07181472 0
57.95961 37.67531 0.07181472 0
57.95961 37.72531 0.07181472 0
58.00961 37.72531 0.07181472 0
57.95961 37.77531 0.07181472 0
57.95961 37.82531 0.07181472 0
58.00961 37.82531 0.07181472 0
57.95961 37.87531 0.07181472 0
57.95961 37.92531 0.07181472 0
57.95961 37.92531 0.1218147 0
58.00961 37.92531 0.07181472 0
57.95961 37.97531 0.07181472 0
57.95961 38.02531 0.07181472 0
58.00961 38.02531 0.07181472 0
57.95961 38.07531 0.07181472 0
57.95961 38.12531 0.07181472 0
58.00961 38.12531 0.07181472 0
58.05961 38.12531 0.07181472 0
57.95961 38.17531 0.07181472 0
58.00961 38.22531 0.07181472 0
58.00961 38.27531 0.07181472 0
58.00961 38.32531 0.07181472 0
58.20961 38.17531 0.07181472 0
58.30961 38.17531 0.07181472 0
58.40961 38.17531 0.07181472 0
58.45961 38.17531 0.07181472 0
58.60961 38.22531 0.07181472 0
58.70961 38.22531 0.07181472 0
57.15961 38.52531 0.07181472 0
57.25961 38.52531 0.07181472 0
57.30961 38.52531 0.07181472 0
57.45961 38.57531 0.07181472 0
57.50961 38.67531 0.1218147 0
57.15961 38.87531 0.1218147 0
57.20961 38.87531 0.1218147 0
57.25961 38.87531 0.1218147 0
57.20961 39.02531 0.1218147 0
57.20961 39.12531 0.07181472 0
57.30961 39.02531 0.1218147 0
57.30961 39.12531 0.07181472 0
57.35961 38.92531 0.1218147 0
57.40961 38.87531 0.1218147 0
57.40961 38.92531 0.1218147 0
57.45961 38.77531 0.1218147 0
57.45961 38.92531 0.1218147 0
57.35961 38.97531 0.1218147 0
57.40961 39.12531 0.07181472 0
57.55961 38.37531 0.1718147 0
57.60961 38.52531 0.1218147 0
57.70961 38.37531 0.1218147 0
57.70961 38.42531 0.1718147 0
57.65961 38.47531 0.1218147 0
57.55961 38.57531 0.07181472 0
57.55961 38.62531 0.1218147 0
57.65961 38.57531 0.07181472 0
57.70961 38.57531 0.07181472 0
57.80961 38.42531 0.1718147 0
57.80961 38.47531 0.1718147 0
57.85961 38.47531 0.1718147 0
57.90961 38.52531 0.1718147 0
57.85961 38.62531 0.1218147 0
57.55961 38.92531 0.1218147 0
57.65961 38.92531 0.07181472 0
57.65961 38.92531 0.1218147 0
57.75961 38.92531 0.07181472 0
57.90961 38.77531 0.1218147 0
57.90961 38.82531 0.07181472 0
57.85961 38.87531 0.07181472 0
57.85961 38.97531 0.07181472 0
57.50961 39.17531 0.07181472 0
57.60961 39.17531 0.07181472 0
57.90961 39.72531 0.1218147 0
57.75961 39.92531 0.1218147 0
57.85961 39.77531 0.1218147 0
57.85961 39.82531 0.1218147 0
58.00961 38.37531 0.07181472 0
58.00961 38.42531 0.07181472 0
58.00961 38.47531 0.07181472 0
57.95961 38.62531 0.1218147 0
58.00961 38.57531 0.07181472 0
57.95961 38.57531 0.1718147 0
57.95961 38.62531 0.1718147 0
57.95961 38.67531 0.07181472 0
57.95961 38.72531 0.07181472 0
58.05961 38.62531 0.1218147 0
58.15961 38.62531 0.07181472 0
58.25961 38.67531 0.1218147 0
57.95961 38.97531 0.07181472 0
58.05961 38.97531 0.07181472 0
58.15961 38.97531 0.07181472 0
58.20961 38.97531 0.07181472 0
58.30961 38.97531 0.07181472 0
58.35961 38.67531 0.07181472 0
58.45961 38.67531 0.07181472 0
58.55961 38.62531 0.07181472 0
58.60961 38.72531 0.07181472 0
58.65961 38.57531 0.07181472 0
58.35961 38.92531 0.07181472 0
58.50961 38.82531 0.07181472 0
58.45961 38.92531 0.07181472 0
