# .PCD v0.7 - Point Cloud Data file format
VERSION 0.7
FIELDS x y z intensity
SIZE 4 4 4 4
TYPE F F F F
COUNT 1 1 1 1
WIDTH 1627
HEIGHT 1
VIEWPOINT 0 0 0 1 0 0 0
POINTS 1627
DATA ascii
82.90961 2.925312 1.371815 0
82.75961 2.775311 1.471815 0
82.75961 2.775311 1.621815 0
82.75961 2.875312 1.471815 0
82.80962 2.875312 1.471815 0
82.80962 2.925312 1.471815 0
82.85961 2.925312 1.471815 0
82.85961 2.975312 1.371815 0
82.85961 2.975312 1.421815 0
82.90961 2.975312 1.421815 0
82.80962 2.975312 1.471815 0
82.80962 2.975312 1.621815 0
84.00961 1.825312 0.1218147 0
84.05962 1.925311 0.1218147 0
84.10961 2.025311 0.1218147 0
84.20961 2.125312 0.1218147 0
84.25961 2.225312 0.1218147 0
84.30962 2.475312 0.1718147 0
84.20961 2.725312 0.1718147 0
84.25961 2.575311 0.1718147 0
84.10961 2.925312 0.1718147 0
84.05962 3.025311 0.1718147 0
84.15961 2.825311 0.1718147 0
82.75961 2.825311 1.671815 0
82.80962 2.825311 1.671815 0
82.75961 2.875312 1.721815 0
82.80962 2.875312 1.671815 0
82.80962 2.925312 1.721815 0
82.75961 2.875312 1.821815 0
82.85961 2.875312 1.671815 0
82.85961 2.925312 1.721815 0
82.75961 2.775311 1.871815 0
82.75961 2.825311 1.921815 0
82.80962 2.825311 1.871815 0
82.75961 2.825311 1.971815 0
82.75961 2.825311 2.021815 0
82.75961 2.925312 1.921815 0
82.80962 2.875312 1.921815 0
82.75961 2.875312 1.971815 0
82.80962 2.925312 2.021815 0
82.85961 2.875312 1.871815 0
82.85961 2.925312 1.921815 0
82.80962 2.975312 1.771815 0
82.85961 2.975312 1.671815 0
82.85961 2.975312 1.721815 0
82.90961 2.975312 1.671815 0
82.85961 2.975312 1.821815 0
82.90961 2.975312 1.921815 0
82.85961 2.975312 1.971815 0
82.75961 2.775311 2.121815 0
82.80962 2.825311 2.121815 0
82.75961 2.825311 2.221815 0
82.75961 2.875312 2.071815 0
82.75961 2.875312 2.121815 0
82.85961 2.875312 2.121815 0
82.85961 2.875312 2.221815 0
82.85961 2.925312 2.221815 0
82.75961 2.825311 2.271815 0
82.75961 2.875312 2.321815 0
82.80962 2.925312 2.321815 0
82.75961 2.875312 2.371815 0
82.80962 2.925312 2.371815 0
82.80962 2.925312 2.421815 0
82.80962 2.975312 2.171815 0
82.85961 2.975312 2.071815 0
82.85961 2.975312 2.171815 0
82.90961 2.975312 2.171815 0
82.80962 2.975312 2.271815 0
82.80962 2.975312 2.371815 0
82.85961 2.975312 2.371815 0
82.80962 2.775311 2.521815 0
82.75961 2.825311 2.571815 0
82.80962 2.875312 2.471815 0
82.80962 2.875312 2.521815 0
82.75961 2.875312 2.621815 0
82.90961 2.925312 2.521815 0
82.85961 2.925312 2.621815 0
82.75961 2.825311 2.671815 0
82.75961 2.875312 2.671815 0
82.80962 2.925312 2.671815 0
82.75961 2.875312 2.821815 0
82.80962 2.975312 2.471815 0
82.80962 2.975312 2.721815 0
82.80962 2.975312 2.821815 0
83.90961 3.275311 0.1718147 0
83.95961 3.175312 0.1718147 0
84.65961 1.675311 0.1718147 0
84.60961 1.775311 0.1718147 0
84.55962 1.875311 0.1718147 0
84.50961 2.025311 0.1718147 0
84.45961 2.125312 0.1718147 0
84.40961 2.225312 0.1718147 0
84.35961 2.325311 0.1218147 0
84.40961 2.425312 0.1218147 0
84.35961 2.375312 0.1718147 0
84.50961 2.525311 0.1218147 0
84.55962 2.625312 0.1218147 0
84.65961 2.725312 0.1218147 0
84.70961 2.825311 0.1218147 0
84.80962 2.925312 0.1218147 0
84.90961 2.975312 0.1218147 0
84.95961 3.075311 0.1218147 0
85.00961 3.225312 0.1218147 0
86.30962 1.625311 0.1218147 0
86.40961 1.725312 0.1218147 0
86.45961 1.825312 0.1218147 0
86.50961 1.925311 0.1218147 0
86.70961 1.625311 0.1218147 0
86.65961 1.725312 0.1218147 0
86.60961 1.875311 0.1218147 0
86.50961 2.075311 0.1218147 0
86.40961 2.325311 0.1218147 0
86.50961 2.225312 0.1218147 0
86.55962 1.975312 0.1218147 0
86.60961 2.025311 0.1218147 0
86.65961 2.125312 0.1218147 0
86.70961 2.225312 0.1218147 0
86.10961 3.025311 0.1218147 0
86.05962 3.125312 0.1218147 0
86.20961 2.775311 0.1218147 0
86.15961 2.925312 0.1218147 0
86.40961 2.425312 0.1218147 0
86.80962 2.325311 0.1218147 0
86.85961 2.425312 0.1218147 0
86.90961 2.525311 0.1218147 0
87.00961 2.625312 0.1218147 0
87.10961 2.725312 0.1218147 0
87.15961 2.825311 0.1218147 0
87.25961 2.925312 0.1218147 0
87.30962 3.025311 0.1218147 0
87.40961 3.125312 0.1218147 0
86.00961 3.225312 0.1218147 0
87.25961 6.125311 0.1218147 0
87.25961 6.125311 0.2218147 0
87.30962 6.125311 0.1718147 0
87.30962 6.125311 0.2218147 0
87.25961 6.225312 0.1218147 0
87.30962 6.175312 0.1218147 0
87.25961 6.175312 0.1718147 0
87.25961 6.225312 0.1718147 0
87.25961 6.275311 0.1218147 0
87.25961 6.275311 0.1718147 0
87.35961 6.125311 0.07181472 0
87.40961 6.125311 0.1218147 0
87.35961 6.125311 0.2218147 0
87.40961 6.125311 0.1718147 0
87.40961 6.125311 0.2218147 0
87.45961 6.125311 0.1718147 0
87.45961 6.125311 0.2218147 0
87.50961 6.125311 0.2218147 0
87.35961 6.175312 0.1718147 0
87.40961 6.175312 0.1718147 0
87.45961 6.175312 0.1218147 0
87.50961 6.175312 0.1218147 0
87.30962 6.125311 0.5218147 0
87.25961 6.125311 0.6218147 0
87.30962 6.125311 0.5718147 0
87.25961 6.225312 0.5218147 0
87.25961 6.175312 0.5718147 0
87.30962 6.175312 0.5718147 0
87.25961 6.275311 0.5218147 0
87.25961 6.275311 0.5718147 0
87.35961 6.125311 0.5218147 0
87.40961 6.125311 0.5218147 0
87.35961 6.125311 0.5718147 0
87.40961 6.125311 0.5718147 0
87.40961 6.125311 0.6218147 0
87.45961 6.125311 0.5218147 0
87.50961 6.125311 0.5218147 0
87.45961 6.125311 0.5718147 0
87.50961 6.125311 0.5718147 0
87.30962 6.125311 0.8718147 0
87.30962 6.125311 0.9218147 0
87.25961 6.125311 0.9718148 0
87.30962 6.125311 1.171815 0
87.30962 6.125311 1.221815 0
87.25961 6.225312 0.8718147 0
87.25961 6.175312 0.9718148 0
87.25961 6.325312 0.9218147 0
87.25961 6.225312 1.221815 0
87.35961 6.125311 0.8718147 0
87.35961 6.125311 0.9218147 0
87.40961 6.125311 0.8718147 0
87.40961 6.125311 0.9718148 0
87.40961 6.125311 1.021815 0
87.45961 6.125311 0.8718147 0
87.45961 6.125311 0.9218147 0
87.50961 6.125311 0.8718147 0
87.35961 6.125311 1.071815 0
87.35961 6.125311 1.171815 0
87.35961 6.125311 1.221815 0
87.40961 6.125311 1.171815 0
87.45961 6.125311 1.221815 0
87.50961 6.125311 1.171815 0
87.40961 6.175312 0.9718148 0
87.25961 6.125311 1.321815 0
87.30962 6.125311 1.271815 0
87.30962 6.125311 1.321815 0
87.30962 6.125311 1.471815 0
87.30962 6.125311 1.521815 0
87.30962 6.125311 1.571815 0
87.30962 6.125311 1.621815 0
87.25961 6.175312 1.371815 0
87.25961 6.175312 1.421815 0
87.25961 6.325312 1.271815 0
87.25961 6.225312 1.521815 0
87.25961 6.275311 1.471815 0
87.40961 6.125311 1.321815 0
87.40961 6.125311 1.371815 0
87.40961 6.125311 1.421815 0
87.45961 6.125311 1.271815 0
87.45961 6.125311 1.321815 0
87.35961 6.125311 1.521815 0
87.40961 6.125311 1.471815 0
87.40961 6.125311 1.521815 0
87.35961 6.125311 1.571815 0
87.45961 6.125311 1.521815 0
87.50961 6.125311 1.471815 0
87.50961 6.125311 1.521815 0
87.45961 6.125311 1.571815 0
87.45961 6.125311 1.621815 0
87.25961 6.125311 1.721815 0
87.30962 6.125311 1.821815 0
87.30962 6.125311 1.971815 0
87.30962 6.125311 2.021815 0
87.30962 6.175312 1.721815 0
87.25961 6.175312 1.771815 0
87.25961 6.275311 1.671815 0
87.25961 6.175312 1.871815 0
87.25961 6.225312 1.871815 0
87.30962 6.175312 1.921815 0
87.25961 6.275311 1.921815 0
87.25961 6.275311 2.021815 0
87.40961 6.125311 1.721815 0
87.40961 6.125311 1.771815 0
87.40961 6.125311 1.821815 0
87.45961 6.125311 1.721815 0
87.50961 6.125311 1.821815 0
87.35961 6.125311 1.871815 0
87.35961 6.125311 1.921815 0
87.40961 6.125311 1.871815 0
87.35961 6.125311 2.021815 0
87.45961 6.125311 1.871815 0
87.45961 6.125311 1.921815 0
87.45961 6.125311 1.971815 0
87.45961 6.125311 2.021815 0
87.50961 6.125311 1.971815 0
87.25961 6.125311 2.121815 0
87.30962 6.125311 2.121815 0
87.30962 6.125311 2.171815 0
87.25961 6.125311 2.321815 0
87.30962 6.125311 2.321815 0
87.30962 6.125311 2.371815 0
87.25961 6.175312 2.171815 0
87.25961 6.225312 2.221815 0
87.30962 6.175312 2.371815 0
87.25961 6.325312 2.421815 0
87.40961 6.125311 2.071815 0
87.40961 6.125311 2.121815 0
87.35961 6.125311 2.221815 0
87.40961 6.125311 2.171815 0
87.45961 6.125311 2.221815 0
87.50961 6.125311 2.171815 0
87.35961 6.125311 2.271815 0
87.40961 6.125311 2.271815 0
87.45961 6.125311 2.321815 0
87.50961 6.125311 2.271815 0
87.45961 6.125311 2.371815 0
87.50961 6.125311 2.421815 0
87.40961 6.175312 2.271815 0
87.30962 6.125311 2.471815 0
87.30962 6.125311 2.521815 0
87.30962 6.125311 2.671815 0
87.30962 6.125311 2.771815 0
87.30962 6.125311 2.821815 0
87.25961 6.175312 2.571815 0
87.25961 6.225312 2.571815 0
87.25961 6.175312 2.771815 0
87.25961 6.275311 2.771815 0
87.35961 6.125311 2.521815 0
87.40961 6.125311 2.471815 0
87.40961 6.125311 2.521815 0
87.35961 6.125311 2.571815 0
87.35961 6.125311 2.621815 0
87.40961 6.125311 2.621815 0
87.50961 6.125311 2.471815 0
87.50961 6.125311 2.521815 0
87.45961 6.125311 2.571815 0
87.45961 6.125311 2.621815 0
87.40961 6.125311 2.721815 0
87.40961 6.125311 2.821815 0
87.45961 6.125311 2.671815 0
87.45961 6.125311 2.771815 0
87.50961 6.125311 2.821815 0
87.35961 6.175312 2.671815 0
87.30962 6.125311 2.871815 0
87.30962 6.125311 2.921815 0
87.30962 6.125311 3.071815 0
87.30962 6.125311 3.121815 0
87.25961 6.175312 3.021815 0
87.25961 6.225312 2.971815 0
87.25961 6.275311 2.871815 0
87.25961 6.175312 3.221815 0
87.25961 6.275311 3.171815 0
87.35961 6.125311 2.921815 0
87.40961 6.125311 2.871815 0
87.35961 6.125311 3.021815 0
87.40961 6.125311 3.021815 0
87.45961 6.125311 2.921815 0
87.50961 6.125311 2.871815 0
87.45961 6.125311 3.021815 0
87.50961 6.125311 2.971815 0
87.40961 6.125311 3.121815 0
87.35961 6.125311 3.221815 0
87.40961 6.125311 3.171815 0
87.45961 6.125311 3.171815 0
87.25961 6.425312 0.1218147 0
87.25961 6.375311 0.1718147 0
87.25961 6.525311 0.1218147 0
87.30962 6.525311 0.1718147 0
87.25961 6.625311 0.1218147 0
87.25961 6.575312 0.1718147 0
87.25961 6.725312 0.1218147 0
87.25961 6.375311 0.5718147 0
87.25961 6.475312 0.5718147 0
87.25961 6.525311 0.5718147 0
87.30962 6.575312 0.5218147 0
87.30962 6.575312 0.5718147 0
87.25961 6.725312 0.5718147 0
87.25961 6.825312 0.1218147 0
87.30962 6.775311 0.1218147 0
87.30962 6.775311 0.1718147 0
87.30962 6.925312 0.1218147 0
87.25961 7.025311 0.1218147 0
87.30962 7.025311 0.1218147 0
87.30962 6.975312 0.1718147 0
87.30962 7.125311 0.1218147 0
87.30962 7.075312 0.1718147 0
87.30962 6.825312 0.5218147 0
87.30962 6.775311 0.5718147 0
87.30962 6.975312 0.5218147 0
87.30962 7.025311 0.5718147 0
87.25961 6.375311 0.9718148 0
87.25961 6.525311 0.9218147 0
87.25961 6.575312 0.8718147 0
87.30962 6.575312 0.9718148 0
87.30962 6.575312 1.221815 0
87.30962 6.375311 1.371815 0
87.30962 6.525311 1.321815 0
87.25961 6.525311 1.521815 0
87.30962 6.575312 1.371815 0
87.25961 6.575312 1.571815 0
87.30962 6.775311 0.9218147 0
87.30962 6.825312 0.8718147 0
87.30962 6.775311 0.9718148 0
87.30962 6.925312 0.9218147 0
87.30962 6.825312 1.221815 0
87.30962 7.025311 0.9718148 0
87.30962 6.775311 1.321815 0
87.30962 6.825312 1.421815 0
87.30962 6.825312 1.571815 0
87.30962 6.975312 1.271815 0
87.30962 7.025311 1.321815 0
87.30962 7.025311 1.421815 0
87.30962 6.975312 1.621815 0
87.30962 7.225312 0.1218147 0
87.25961 7.275311 0.1218147 0
87.30962 7.325312 0.1218147 0
87.30962 7.325312 0.1718147 0
87.30962 7.375311 0.1718147 0
87.25961 7.475312 0.1218147 0
87.30962 7.475312 0.1218147 0
87.30962 7.225312 0.5718147 0
87.30962 7.325312 0.5718147 0
87.30962 7.375311 0.5718147 0
87.30962 7.475312 0.5718147 0
87.30962 7.575312 0.1218147 0
87.30962 7.625311 0.1718147 0
87.30962 7.725312 0.07181472 0
87.30962 7.725312 0.1218147 0
87.30962 7.775311 0.1218147 0
87.30962 7.775311 0.1718147 0
87.30962 7.925312 0.07181472 0
87.35961 7.925312 0.1718147 0
87.30962 7.575312 0.5718147 0
87.30962 7.725312 0.5718147 0
87.30962 7.775311 0.5718147 0
87.35961 7.925312 0.5718147 0
87.30962 7.225312 1.021815 0
87.30962 7.325312 0.9218147 0
87.30962 7.325312 0.9718148 0
87.30962 7.475312 1.021815 0
87.30962 7.325312 1.321815 0
87.30962 7.275311 1.421815 0
87.30962 7.325312 1.371815 0
87.30962 7.475312 1.471815 0
87.30962 7.625311 0.9718148 0
87.30962 7.725312 1.021815 0
87.35961 7.775311 0.9718148 0
87.35961 7.925312 0.9718148 0
87.30962 7.625311 1.371815 0
87.30962 7.775311 1.321815 0
87.35961 7.725312 1.471815 0
87.35961 7.875311 1.421815 0
87.25961 6.375311 1.771815 0
87.25961 6.525311 1.671815 0
87.25961 6.475312 1.971815 0
87.30962 6.575312 1.821815 0
87.25961 6.575312 1.921815 0
87.25961 6.375311 2.221815 0
87.30962 6.525311 2.071815 0
87.25961 6.475312 2.421815 0
87.30962 6.525311 2.421815 0
87.30962 6.575312 2.221815 0
87.25961 6.575312 2.321815 0
87.30962 6.775311 1.721815 0
87.30962 6.775311 1.821815 0
87.30962 6.825312 1.921815 0
87.30962 7.025311 1.721815 0
87.30962 7.025311 1.871815 0
87.30962 6.975312 2.021815 0
87.30962 6.775311 2.071815 0
87.30962 6.775311 2.271815 0
87.30962 6.825312 2.271815 0
87.30962 6.925312 2.371815 0
87.30962 7.025311 2.121815 0
87.30962 7.025311 2.271815 0
87.25961 6.375311 2.621815 0
87.30962 6.525311 2.821815 0
87.25961 6.575312 2.671815 0
87.30962 6.575312 2.671815 0
87.25961 6.375311 3.021815 0
87.25961 6.475312 2.871815 0
87.25961 6.525311 3.221815 0
87.25961 6.575312 3.021815 0
87.30962 6.575312 3.071815 0
87.30962 6.775311 2.471815 0
87.30962 6.825312 2.621815 0
87.30962 6.775311 2.671815 0
87.30962 6.925312 2.721815 0
87.30962 7.025311 2.521815 0
87.30962 7.025311 2.721815 0
87.30962 6.775311 2.871815 0
87.30962 6.775311 3.121815 0
87.30962 6.925312 3.121815 0
87.30962 7.025311 2.921815 0
87.30962 7.025311 3.171815 0
87.30962 7.325312 1.671815 0
87.30962 7.325312 1.771815 0
87.30962 7.225312 1.871815 0
87.30962 7.475312 1.921815 0
87.30962 7.325312 2.071815 0
87.30962 7.325312 2.171815 0
87.30962 7.225312 2.321815 0
87.30962 7.325312 2.421815 0
87.30962 7.475312 2.371815 0
87.30962 7.625311 1.821815 0
87.30962 7.725312 1.921815 0
87.30962 7.775311 1.721815 0
87.35961 7.925312 1.821815 0
87.30962 7.575312 2.221815 0
87.30962 7.725312 2.371815 0
87.30962 7.775311 2.121815 0
87.35961 7.875311 2.271815 0
87.30962 7.325312 2.571815 0
87.30962 7.225312 2.771815 0
87.30962 7.325312 2.821815 0
87.30962 7.475312 2.821815 0
87.30962 7.325312 3.021815 0
87.30962 7.225312 3.221815 0
87.30962 7.325312 3.221815 0
87.30962 7.625311 2.621815 0
87.30962 7.725312 2.821815 0
87.30962 7.775311 2.521815 0
87.35961 7.925312 2.671815 0
87.30962 7.575312 3.071815 0
87.30962 7.775311 2.921815 0
87.35961 7.875311 3.121815 0
87.25961 6.125311 3.271815 0
87.30962 6.125311 3.321815 0
87.30962 6.175312 3.321815 0
87.25961 6.175312 3.421815 0
87.25961 6.275311 3.321815 0
87.40961 6.125311 3.271815 0
87.40961 6.125311 3.321815 0
87.50961 6.125311 3.371815 0
87.35961 6.125311 3.521815 0
87.40961 6.125311 3.471815 0
87.40961 6.125311 3.571815 0
87.40961 6.175312 3.621815 0
87.25961 6.125311 3.671815 0
87.30962 6.125311 3.821815 0
87.25961 6.275311 3.821815 0
87.35961 6.125311 3.721815 0
87.50961 6.125311 3.821815 0
87.35961 6.125311 4.021815 0
87.30962 5.775311 4.621815 0
87.35961 6.125311 4.271815 0
87.25961 6.525311 3.371815 0
87.25961 6.375311 3.471815 0
87.30962 6.575312 3.521815 0
87.25961 6.475312 3.871815 0
87.30962 6.775311 3.271815 0
87.30962 6.775311 3.571815 0
87.30962 7.025311 3.371815 0
87.30962 7.025311 3.621815 0
87.30962 7.325312 3.421815 0
87.30962 7.475312 3.271815 0
87.30962 7.225312 3.671815 0
87.30962 7.475312 3.721815 0
87.30962 7.725312 3.321815 0
87.30962 7.575312 3.471815 0
87.30962 7.775311 3.321815 0
87.35961 7.875311 3.571815 0
87.30962 7.725312 3.771815 0
81.15961 12.12531 0.1218147 0
81.20961 12.12531 0.07181472 0
81.20961 12.12531 0.1218147 0
81.25961 12.12531 0.07181472 0
81.30962 12.12531 0.07181472 0
81.30962 12.12531 0.1218147 0
81.30962 12.17531 0.07181472 0
81.35961 12.12531 0.1218147 0
81.40961 12.12531 0.07181472 0
81.40961 12.12531 0.1218147 0
81.45961 12.12531 0.07181472 0
81.50961 12.07531 0.1218147 0
81.50961 12.12531 0.07181472 0
81.50961 12.12531 0.1218147 0
81.15961 12.12531 0.6218147 0
81.15961 12.12531 0.6718147 0
81.20961 12.12531 0.6718147 0
81.20961 12.12531 0.7218148 0
81.30962 12.12531 0.7718147 0
81.30962 12.12531 0.8218147 0
81.35961 12.07531 0.6218147 0
81.50961 12.12531 0.6218147 0
81.35961 12.12531 0.6718147 0
81.40961 12.07531 0.6718147 0
81.40961 12.12531 0.6718147 0
81.40961 12.12531 0.7218148 0
81.50961 12.12531 0.7718147 0
81.55962 12.07531 0.07181472 0
81.55962 12.07531 0.1218147 0
81.55962 12.12531 0.1218147 0
81.60961 12.12531 0.07181472 0
81.65961 12.07531 0.1218147 0
81.65961 12.12531 0.07181472 0
81.70961 12.12531 0.07181472 0
81.70961 12.12531 0.1218147 0
81.55962 12.17531 0.07181472 0
81.75961 12.07531 0.07181472 0
81.75961 12.07531 0.1218147 0
81.80962 12.07531 0.07181472 0
81.80962 12.07531 0.1218147 0
81.85961 12.07531 0.1218147 0
81.85961 12.12531 0.07181472 0
81.85961 12.12531 0.1218147 0
81.90961 12.07531 0.1218147 0
81.90961 12.12531 0.07181472 0
81.90961 12.12531 0.1218147 0
81.80962 12.17531 0.07181472 0
81.65961 12.07531 0.6218147 0
81.55962 12.07531 0.6718147 0
81.55962 12.07531 0.7218148 0
81.60961 12.07531 0.6718147 0
81.60961 12.12531 0.6718147 0
81.55962 12.07531 0.7718147 0
81.75961 12.07531 0.6218147 0
81.85961 12.07531 0.6218147 0
81.90961 12.07531 0.6218147 0
81.75961 12.07531 0.6718147 0
81.75961 12.07531 0.7218148 0
81.80962 12.07531 0.6718147 0
81.75961 12.07531 0.7718147 0
81.80962 12.07531 0.7718147 0
81.85961 12.12531 0.6718147 0
81.90961 12.07531 0.6718147 0
81.15961 12.27531 1.221815 0
81.30962 12.27531 1.171815 0
81.35961 12.22531 1.221815 0
81.50961 12.22531 1.221815 0
81.45961 12.27531 1.171815 0
81.20961 12.22531 1.371815 0
81.25961 12.22531 1.271815 0
81.30962 12.22531 1.321815 0
81.30962 12.27531 1.271815 0
81.25961 12.27531 1.371815 0
81.15961 12.22531 1.471815 0
81.50961 12.22531 1.271815 0
81.50961 12.22531 1.321815 0
81.45961 12.22531 1.371815 0
81.50961 12.27531 1.321815 0
81.45961 12.22531 1.471815 0
81.70961 12.22531 1.221815 0
81.65961 12.27531 1.171815 0
81.80962 12.22531 1.171815 0
81.90961 12.22531 1.221815 0
81.55962 12.22531 1.271815 0
81.70961 12.22531 1.271815 0
81.70961 12.22531 1.321815 0
81.65961 12.22531 1.371815 0
81.70961 12.22531 1.471815 0
81.75961 12.22531 1.271815 0
81.75961 12.27531 1.321815 0
81.90961 12.22531 1.271815 0
81.90961 12.22531 1.371815 0
81.95961 12.07531 0.07181472 0
81.95961 12.07531 0.1218147 0
82.00961 12.07531 0.07181472 0
82.00961 12.07531 0.1218147 0
82.05962 12.07531 0.07181472 0
82.05962 12.07531 0.1218147 0
82.05962 12.12531 0.1218147 0
82.10961 12.07531 0.1218147 0
82.10961 12.12531 0.07181472 0
82.15961 12.07531 0.07181472 0
82.15961 12.07531 0.1218147 0
82.15961 12.12531 0.07181472 0
82.20961 12.07531 0.07181472 0
82.20961 12.07531 0.1218147 0
82.25961 12.07531 0.07181472 0
82.25961 12.07531 0.1218147 0
82.30962 12.07531 0.1218147 0
82.30962 12.12531 0.07181472 0
82.00961 12.07531 0.6218147 0
82.05962 12.12531 0.6218147 0
81.95961 12.07531 0.6718147 0
81.95961 12.07531 0.7218148 0
82.00961 12.07531 0.6718147 0
82.00961 12.07531 0.8218147 0
82.10961 12.07531 0.6718147 0
82.05962 12.07531 0.7718147 0
82.15961 12.07531 0.6218147 0
82.20961 12.07531 0.6218147 0
82.30962 12.07531 0.6218147 0
82.15961 12.07531 0.6718147 0
82.15961 12.07531 0.7218148 0
82.20961 12.07531 0.7218148 0
82.25961 12.07531 0.6718147 0
82.30962 12.07531 0.6718147 0
82.25961 12.07531 0.8218147 0
82.30962 12.07531 0.7718147 0
82.35961 12.07531 0.07181472 0
82.35961 12.07531 0.1218147 0
82.40961 12.07531 0.07181472 0
82.40961 12.07531 0.1218147 0
82.35961 12.07531 0.1718147 0
82.45961 12.07531 0.1218147 0
82.50961 12.07531 0.07181472 0
82.50961 12.07531 0.1218147 0
82.55962 12.07531 0.1218147 0
82.60961 12.07531 0.07181472 0
82.60961 12.07531 0.1218147 0
82.55962 12.07531 0.1718147 0
82.70961 12.02531 0.1718147 0
82.65961 12.07531 0.1218147 0
82.70961 12.07531 0.07181472 0
82.70961 12.07531 0.1218147 0
82.40961 12.07531 0.6218147 0
82.45961 12.07531 0.6218147 0
82.50961 12.07531 0.6218147 0
82.35961 12.07531 0.6718147 0
82.35961 12.07531 0.7218148 0
82.40961 12.07531 0.7218148 0
82.45961 12.07531 0.6718147 0
82.50961 12.07531 0.6718147 0
82.55962 12.07531 0.6218147 0
82.70961 12.02531 0.6218147 0
82.65961 12.07531 0.6218147 0
82.55962 12.02531 0.7218148 0
82.55962 12.07531 0.6718147 0
82.60961 12.07531 0.6718147 0
82.60961 12.07531 0.7218148 0
82.55962 12.07531 0.7718147 0
82.70961 12.02531 0.6718147 0
82.65961 12.07531 0.6718147 0
82.70961 12.07531 0.6718147 0
82.70961 12.07531 0.7218148 0
81.95961 12.22531 1.171815 0
82.05962 12.22531 1.221815 0
82.15961 12.22531 1.171815 0
82.25961 12.22531 1.221815 0
82.30962 12.22531 1.171815 0
81.95961 12.22531 1.271815 0
81.95961 12.22531 1.421815 0
82.00961 12.27531 1.321815 0
82.10961 12.22531 1.271815 0
82.10961 12.22531 1.371815 0
82.15961 12.22531 1.271815 0
82.20961 12.22531 1.421815 0
82.25961 12.22531 1.321815 0
82.30962 12.17531 1.271815 0
82.30962 12.22531 1.271815 0
82.30962 12.22531 1.371815 0
82.40961 12.22531 1.221815 0
82.45961 12.17531 1.171815 0
82.60961 12.17531 1.221815 0
82.65961 12.17531 1.171815 0
82.35961 12.22531 1.271815 0
82.50961 12.22531 1.271815 0
82.50961 12.22531 1.321815 0
82.45961 12.17531 1.421815 0
82.55962 12.22531 1.321815 0
82.60961 12.22531 1.271815 0
82.65961 12.22531 1.271815 0
82.70961 12.17531 1.271815 0
82.70961 12.22531 1.321815 0
82.70961 12.17531 1.421815 0
81.15961 12.27531 1.821815 0
81.30962 12.22531 1.721815 0
81.20961 12.22531 2.021815 0
81.15961 12.32531 2.021815 0
81.25961 12.22531 1.921815 0
81.30962 12.22531 1.921815 0
81.30962 12.27531 1.921815 0
81.25961 12.27531 2.021815 0
81.35961 12.22531 1.771815 0
81.50961 12.22531 1.721815 0
81.50961 12.22531 1.771815 0
81.50961 12.22531 1.871815 0
81.50961 12.22531 1.921815 0
81.45961 12.22531 2.021815 0
81.50961 12.27531 2.021815 0
81.20961 12.22531 2.121815 0
81.15961 12.27531 2.371815 0
81.30962 12.22531 2.271815 0
81.45961 12.22531 2.121815 0
81.35961 12.22531 2.371815 0
81.50961 12.22531 2.271815 0
81.50961 12.22531 2.321815 0
81.65961 12.22531 1.721815 0
81.70961 12.22531 1.771815 0
81.55962 12.22531 1.921815 0
81.70961 12.22531 1.871815 0
81.65961 12.22531 1.971815 0
81.80962 12.22531 1.721815 0
81.90961 12.22531 1.771815 0
81.75961 12.22531 1.871815 0
81.75961 12.27531 2.021815 0
81.90961 12.22531 1.871815 0
81.90961 12.22531 1.971815 0
81.70961 12.22531 2.121815 0
81.65961 12.22531 2.221815 0
81.70961 12.22531 2.321815 0
81.80962 12.22531 2.221815 0
81.90961 12.22531 2.321815 0
81.20961 12.22531 2.621815 0
81.30962 12.22531 2.471815 0
81.25961 12.27531 2.521815 0
81.30962 12.27531 2.521815 0
81.15961 12.22531 2.821815 0
81.15961 12.32531 2.671815 0
81.25961 12.27531 2.721815 0
81.30962 12.27531 2.821815 0
81.50961 12.22531 2.471815 0
81.50961 12.22531 2.521815 0
81.45961 12.22531 2.621815 0
81.40961 12.32531 2.721815 0
81.45961 12.22531 2.771815 0
81.45961 12.22531 2.821815 0
81.50961 12.27531 2.671815 0
81.15961 12.22531 2.921815 0
81.30962 12.22531 3.071815 0
81.25961 12.27531 3.171815 0
81.30962 12.27531 3.171815 0
81.35961 12.22531 2.921815 0
81.50961 12.22531 2.921815 0
81.50961 12.22531 3.071815 0
81.50961 12.22531 3.171815 0
81.45961 12.27531 3.171815 0
81.45961 12.32531 3.171815 0
81.70961 12.22531 2.471815 0
81.70961 12.22531 2.521815 0
81.65961 12.22531 2.621815 0
81.65961 12.22531 2.771815 0
81.70961 12.22531 2.771815 0
81.65961 12.32531 2.721815 0
81.75961 12.22531 2.521815 0
81.90961 12.22531 2.471815 0
81.90961 12.22531 2.521815 0
81.90961 12.22531 2.621815 0
81.75961 12.22531 2.671815 0
81.80962 12.22531 2.771815 0
81.70961 12.22531 2.871815 0
81.70961 12.22531 3.071815 0
81.70961 12.22531 3.121815 0
81.65961 12.22531 3.221815 0
81.70961 12.27531 3.171815 0
81.90961 12.22531 2.871815 0
81.90961 12.22531 3.021815 0
81.75961 12.22531 3.121815 0
81.90961 12.22531 3.121815 0
81.90961 12.22531 3.221815 0
81.90961 12.27531 3.221815 0
81.95961 12.22531 1.721815 0
82.05962 12.22531 1.771815 0
81.95961 12.22531 1.871815 0
82.00961 12.22531 1.971815 0
82.10961 12.22531 1.871815 0
82.10961 12.22531 1.971815 0
82.15961 12.22531 1.721815 0
82.30962 12.22531 1.721815 0
82.25961 12.22531 1.771815 0
82.15961 12.22531 1.871815 0
82.30962 12.22531 1.871815 0
82.30962 12.22531 1.921815 0
82.25961 12.22531 1.971815 0
82.30962 12.22531 1.971815 0
81.95961 12.22531 2.121815 0
81.95961 12.22531 2.221815 0
82.05962 12.22531 2.321815 0
82.10961 12.22531 2.421815 0
82.20961 12.22531 2.071815 0
82.15961 12.22531 2.221815 0
82.30962 12.22531 2.221815 0
82.25961 12.22531 2.321815 0
82.30962 12.17531 2.421815 0
82.40961 12.17531 1.771815 0
82.45961 12.22531 1.671815 0
82.35961 12.22531 1.871815 0
82.50961 12.22531 1.871815 0
82.50961 12.22531 1.921815 0
82.45961 12.22531 1.971815 0
82.60961 12.17531 1.771815 0
82.65961 12.22531 1.671815 0
82.65961 12.17531 1.821815 0
82.60961 12.22531 1.871815 0
82.55962 12.22531 1.971815 0
82.65961 12.22531 1.871815 0
82.70961 12.17531 1.921815 0
82.70961 12.22531 1.971815 0
82.45961 12.17531 2.071815 0
82.45961 12.22531 2.221815 0
82.40961 12.22531 2.321815 0
82.50961 12.17531 2.421815 0
82.70961 12.17531 2.071815 0
82.65961 12.17531 2.221815 0
82.60961 12.17531 2.321815 0
82.65961 12.17531 2.421815 0
81.95961 12.22531 2.521815 0
82.10961 12.22531 2.521815 0
82.10961 12.22531 2.571815 0
82.00961 12.22531 2.671815 0
81.95961 12.22531 2.771815 0
81.95961 12.32531 2.771815 0
82.15961 12.22531 2.471815 0
82.30962 12.22531 2.471815 0
82.30962 12.22531 2.521815 0
82.20961 12.17531 2.721815 0
82.15961 12.22531 2.771815 0
82.20961 12.32531 2.771815 0
82.25961 12.22531 2.671815 0
82.30962 12.22531 2.771815 0
82.05962 12.22531 2.871815 0
82.10961 12.22531 3.021815 0
81.95961 12.22531 3.121815 0
82.10961 12.22531 3.121815 0
82.10961 12.22531 3.221815 0
82.25961 12.17531 2.871815 0
82.30962 12.22531 3.021815 0
82.15961 12.22531 3.121815 0
82.15961 12.27531 3.221815 0
82.30962 12.22531 3.121815 0
82.30962 12.22531 3.171815 0
82.35961 12.22531 2.471815 0
82.35961 12.17531 2.571815 0
82.50961 12.17531 2.521815 0
82.50961 12.22531 2.471815 0
82.45961 12.22531 2.621815 0
82.45961 12.17531 2.721815 0
82.45961 12.22531 2.771815 0
82.45961 12.27531 2.771815 0
82.55962 12.22531 2.471815 0
82.55962 12.17531 2.571815 0
82.65961 12.17531 2.471815 0
82.70961 12.17531 2.521815 0
82.70961 12.22531 2.621815 0
82.70961 12.17531 2.721815 0
82.65961 12.17531 2.771815 0
82.40961 12.22531 2.871815 0
82.50961 12.17531 3.021815 0
82.35961 12.22531 3.121815 0
82.50961 12.22531 3.121815 0
82.50961 12.17531 3.171815 0
82.55962 12.22531 2.871815 0
82.65961 12.17531 2.971815 0
82.55962 12.22531 3.071815 0
82.55962 12.17531 3.171815 0
82.65961 12.17531 3.071815 0
82.70961 12.17531 3.171815 0
82.80962 12.02531 0.07181472 0
82.80962 12.02531 0.1718147 0
82.75961 12.07531 0.07181472 0
82.75961 12.07531 0.1218147 0
82.80962 12.07531 0.1218147 0
82.85961 12.02531 0.07181472 0
82.90961 12.02531 0.07181472 0
82.90961 12.02531 0.1718147 0
82.85961 12.07531 0.1218147 0
82.90961 12.07531 0.07181472 0
82.90961 12.07531 0.1218147 0
82.95961 12.02531 0.1218147 0
83.00961 12.02531 0.07181472 0
83.00961 12.02531 0.1218147 0
83.00961 12.02531 0.1718147 0
82.95961 12.07531 0.07181472 0
82.95961 12.07531 0.1218147 0
83.00961 12.07531 0.1218147 0
83.10961 12.02531 0.07181472 0
83.10961 12.02531 0.1218147 0
83.10961 12.02531 0.1718147 0
83.05962 12.07531 0.07181472 0
83.05962 12.07531 0.1218147 0
83.10961 12.07531 0.07181472 0
83.10961 12.07531 0.1218147 0
82.80962 12.07531 0.6218147 0
82.85961 12.02531 0.6218147 0
82.85961 12.07531 0.6218147 0
82.75961 12.02531 0.7718147 0
82.75961 12.07531 0.6718147 0
82.80962 12.07531 0.6718147 0
82.80962 12.07531 0.7218148 0
82.90961 12.02531 0.6718147 0
82.90961 12.02531 0.7218148 0
82.90961 12.07531 0.6718147 0
82.95961 12.02531 0.6218147 0
83.00961 12.07531 0.6218147 0
83.05962 12.02531 0.6218147 0
83.10961 12.02531 0.6218147 0
83.00961 12.02531 0.7718147 0
82.95961 12.07531 0.6718147 0
83.00961 12.07531 0.6718147 0
83.05962 12.02531 0.7218148 0
83.10961 12.02531 0.6718147 0
83.10961 12.02531 0.7218148 0
83.15961 12.02531 0.07181472 0
83.15961 12.07531 0.1218147 0
83.20961 12.12531 0.1218147 0
83.20961 12.12531 0.1718147 0
83.15961 12.27531 0.07181472 0
83.20961 12.27531 0.1718147 0
83.15961 12.02531 0.6218147 0
83.15961 12.12531 0.6718147 0
83.20961 12.12531 0.7218148 0
83.20961 12.07531 0.7718147 0
83.15961 12.22531 0.6718147 0
83.15961 12.27531 0.6718147 0
83.20961 12.27531 0.7218148 0
83.20961 12.42531 0.1218147 0
83.20961 12.47531 0.1218147 0
83.20961 12.42531 0.6718147 0
83.20961 12.42531 0.7718147 0
83.15961 12.47531 0.6718147 0
83.20961 12.47531 0.7218148 0
83.15961 12.62531 0.6718147 0
82.75961 12.17531 1.221815 0
82.80962 12.17531 1.171815 0
82.90961 12.17531 1.221815 0
82.95961 12.17531 1.171815 0
83.00961 12.17531 1.221815 0
83.05962 12.27531 1.221815 0
82.75961 12.22531 1.321815 0
82.80962 12.22531 1.271815 0
82.85961 12.17531 1.271815 0
82.90961 12.17531 1.271815 0
82.90961 12.17531 1.421815 0
82.95961 12.17531 1.321815 0
83.05962 12.17531 1.271815 0
83.05962 12.27531 1.421815 0
83.05962 12.37531 1.321815 0
83.05962 12.47531 1.321815 0
83.05962 12.57531 1.271815 0
83.10961 12.62531 1.271815 0
83.10961 12.67531 1.421815 0
82.80962 12.17531 1.671815 0
82.75961 12.17531 1.771815 0
82.85961 12.17531 1.821815 0
82.90961 12.17531 1.771815 0
82.75961 12.17531 1.921815 0
82.80962 12.17531 1.871815 0
82.85961 12.17531 1.871815 0
82.90961 12.17531 1.921815 0
82.95961 12.17531 1.671815 0
83.05962 12.17531 1.821815 0
83.05962 12.27531 1.771815 0
82.95961 12.17531 1.921815 0
83.00961 12.22531 1.871815 0
82.95961 12.17531 1.971815 0
82.95961 12.17531 2.021815 0
83.10961 12.27531 2.021815 0
82.80962 12.17531 2.221815 0
82.75961 12.22531 2.321815 0
82.90961 12.17531 2.271815 0
82.85961 12.17531 2.421815 0
82.95961 12.17531 2.221815 0
83.05962 12.22531 2.271815 0
83.05962 12.17531 2.421815 0
83.00961 12.47531 1.971815 0
83.10961 12.37531 1.921815 0
83.05962 12.57531 1.871815 0
83.10961 12.62531 1.871815 0
83.10961 12.67531 2.071815 0
82.75961 12.17531 2.521815 0
82.80962 12.17531 2.471815 0
82.85961 12.17531 2.471815 0
82.90961 12.17531 2.521815 0
82.80962 12.17531 2.771815 0
82.90961 12.17531 2.821815 0
82.95961 12.17531 2.521815 0
83.00961 12.17531 2.471815 0
82.95961 12.22531 2.621815 0
83.10961 12.32531 2.521815 0
82.95961 12.17531 2.671815 0
82.95961 12.17531 2.771815 0
83.10961 12.27531 2.671815 0
82.75961 12.17531 2.871815 0
82.85961 12.17531 2.971815 0
82.80962 12.17531 3.071815 0
82.75961 12.17531 3.171815 0
82.85961 12.17531 3.071815 0
82.90961 12.22531 3.171815 0
83.05962 12.17531 2.971815 0
83.05962 12.27531 2.871815 0
82.95961 12.17531 3.121815 0
83.00961 12.17531 3.071815 0
83.00961 12.47531 2.621815 0
83.05962 12.57531 2.471815 0
83.10961 12.62531 2.471815 0
83.10961 12.72531 2.571815 0
83.10961 12.62531 2.721815 0
83.10961 12.37531 3.171815 0
83.10961 12.62531 3.021815 0
83.05962 12.57531 3.121815 0
83.10961 12.72531 3.221815 0
83.20961 12.92531 0.1218147 0
83.25961 12.87531 0.7718147 0
83.20961 13.07531 0.6718147 0
83.25961 13.32531 0.1218147 0
83.25961 13.32531 0.7718147 0
83.20961 13.52531 0.6718147 0
83.10961 12.77531 1.371815 0
83.05962 12.87531 1.321815 0
83.10961 13.17531 1.371815 0
83.05962 13.32531 1.371815 0
83.25961 13.77531 0.1218147 0
83.25961 13.77531 0.7718147 0
83.30962 14.22531 0.1218147 0
83.25961 14.27531 0.7718147 0
83.10961 13.62531 1.421815 0
83.15961 14.02531 1.421815 0
83.10961 12.77531 1.971815 0
83.05962 12.87531 2.021815 0
83.10961 13.17531 2.021815 0
83.05962 13.32531 2.021815 0
83.05962 12.87531 2.671815 0
83.10961 13.17531 2.621815 0
83.05962 13.27531 2.721815 0
83.15961 13.57531 2.021815 0
83.15961 14.07531 2.071815 0
83.15961 13.57531 2.671815 0
83.15961 14.02531 2.721815 0
81.30962 11.87531 3.621815 0
81.50961 11.82531 3.621815 0
81.65961 11.87531 3.571815 0
81.80962 11.92531 3.721815 0
81.90961 11.92531 3.721815 0
81.85961 11.92531 3.821815 0
81.20961 12.22531 3.271815 0
81.15961 12.32531 3.371815 0
81.25961 12.27531 3.421815 0
81.30962 12.27531 3.371815 0
81.20961 12.22531 3.521815 0
81.15961 12.27531 3.521815 0
81.40961 12.32531 3.371815 0
81.45961 12.22531 3.271815 0
81.45961 12.22531 3.321815 0
81.50961 12.27531 3.371815 0
81.35961 12.22531 3.471815 0
81.45961 12.22531 3.471815 0
81.15961 11.97531 3.771815 0
81.20961 12.02531 3.771815 0
81.25961 11.97531 3.721815 0
81.35961 11.97531 3.771815 0
81.45961 12.02531 3.771815 0
81.50961 12.02531 3.771815 0
81.50961 12.02531 3.821815 0
81.35961 11.97531 3.871815 0
81.35961 12.02531 3.871815 0
81.65961 12.22531 3.321815 0
81.65961 12.32531 3.421815 0
81.55962 12.22531 3.471815 0
81.70961 12.22531 3.471815 0
81.85961 11.97531 3.571815 0
81.80962 12.22531 3.321815 0
81.75961 12.22531 3.371815 0
81.90961 12.22531 3.471815 0
81.60961 11.97531 3.721815 0
81.60961 11.97531 3.821815 0
81.65961 11.97531 3.721815 0
81.65961 12.02531 3.821815 0
81.55962 12.17531 4.021815 0
81.75961 12.02531 3.821815 0
81.85961 11.97531 3.821815 0
81.90961 12.12531 4.021815 0
81.75961 12.17531 4.021815 0
81.15961 12.22531 4.071815 0
81.15961 12.27531 4.221815 0
81.35961 12.17531 4.071815 0
81.45961 12.22531 4.171815 0
81.25961 12.47531 4.221815 0
81.20961 12.47531 4.371815 0
81.45961 12.37531 4.071815 0
81.45961 12.42531 4.321815 0
81.50961 12.47531 4.271815 0
81.50961 12.72531 4.571815 0
81.70961 12.17531 4.121815 0
81.70961 12.27531 4.071815 0
81.65961 12.42531 4.321815 0
81.85961 12.37531 4.271815 0
81.60961 12.72531 4.621815 0
81.70961 12.72531 4.521815 0
81.75961 12.72531 4.571815 0
81.90961 12.72531 4.521815 0
81.85961 12.67531 4.621815 0
81.90961 12.72531 4.571815 0
82.25961 11.57531 3.621815 0
82.30962 11.57531 3.621815 0
82.00961 11.92531 3.721815 0
82.25961 11.57531 3.721815 0
82.45961 11.57531 3.621815 0
82.50961 11.57531 3.621815 0
82.65961 11.57531 3.571815 0
82.65961 11.57531 3.621815 0
82.45961 11.57531 3.671815 0
82.35961 11.92531 3.771815 0
82.35961 11.92531 3.821815 0
82.50961 11.92531 3.771815 0
82.65961 11.57531 3.671815 0
82.55962 11.92531 3.771815 0
82.65961 11.92531 3.771815 0
82.70961 11.92531 3.771815 0
82.00961 12.02531 3.571815 0
81.95961 12.22531 3.321815 0
82.00961 12.22531 3.321815 0
81.95961 12.17531 3.421815 0
81.95961 12.32531 3.421815 0
82.05962 12.22531 3.421815 0
82.15961 12.07531 3.571815 0
82.15961 12.22531 3.321815 0
82.20961 12.22531 3.421815 0
82.25961 12.22531 3.321815 0
82.30962 12.22531 3.321815 0
82.25961 12.22531 3.421815 0
82.20961 12.32531 3.471815 0
82.30962 12.17531 3.571815 0
82.00961 11.97531 3.821815 0
82.00961 12.02531 3.821815 0
82.10961 12.12531 3.971815 0
82.00961 12.27531 4.021815 0
82.15961 11.97531 3.821815 0
82.25961 12.07531 3.871815 0
82.25961 12.07531 3.971815 0
82.30962 12.07531 4.021815 0
82.25961 12.22531 3.971815 0
82.40961 12.22531 3.421815 0
82.45961 12.17531 3.321815 0
82.45961 12.22531 3.321815 0
82.45961 12.17531 3.371815 0
82.50961 12.17531 3.571815 0
82.55962 12.22531 3.421815 0
82.65961 12.17531 3.321815 0
82.70961 12.22531 3.271815 0
82.70961 12.17531 3.371815 0
82.65961 12.17531 3.571815 0
82.50961 12.07531 3.921815 0
82.45961 12.07531 3.971815 0
82.50961 12.17531 3.971815 0
82.55962 12.02531 4.021815 0
82.60961 12.07531 3.921815 0
82.00961 12.12531 4.071815 0
82.05962 12.32531 4.271815 0
82.25961 12.32531 4.221815 0
81.95961 12.72531 4.521815 0
82.10961 12.62531 4.571815 0
82.10961 12.72531 4.571815 0
82.15961 12.67531 4.471815 0
82.25961 12.72531 4.571815 0
82.45961 12.27531 4.221815 0
82.65961 12.27531 4.171815 0
82.40961 12.62531 4.421815 0
82.60961 12.57531 4.421815 0
82.35961 12.57531 4.521815 0
82.35961 12.62531 4.471815 0
82.40961 12.67531 4.521815 0
82.50961 12.72531 4.571815 0
82.55962 12.52531 4.471815 0
82.55962 12.62531 4.471815 0
82.60961 12.67531 4.521815 0
82.70961 12.72531 4.571815 0
81.20961 12.77531 4.621815 0
81.25961 12.82531 4.571815 0
81.30962 12.77531 4.571815 0
81.40961 12.77531 4.621815 0
81.50961 12.77531 4.571815 0
81.35961 12.77531 4.671815 0
81.50961 12.97531 4.821815 0
81.55962 12.77531 4.571815 0
81.70961 12.92531 4.821815 0
81.90961 12.87531 4.771815 0
82.05962 12.87531 4.771815 0
82.30962 12.77531 4.571815 0
82.25961 12.82531 4.721815 0
82.45961 12.82531 4.721815 0
82.50961 12.87531 4.821815 0
82.60961 12.82531 4.721815 0
82.60961 12.92531 4.721815 0
81.30962 12.97531 4.871815 0
81.25961 13.27531 5.171815 0
81.50961 13.22531 5.171815 0
81.70961 13.17531 5.121815 0
81.90961 13.17531 5.071815 0
81.85961 13.52531 5.471815 0
81.20961 13.67531 5.471815 0
81.30962 13.62531 5.571815 0
81.40961 13.67531 5.471815 0
81.65961 13.62531 5.421815 0
81.55962 13.57531 5.521815 0
81.55962 13.62531 5.471815 0
81.75961 13.57531 5.421815 0
81.85961 13.57531 5.421815 0
82.20961 12.92531 4.871815 0
82.15961 13.12531 5.071815 0
82.00961 13.52531 5.371815 0
82.10961 13.47531 5.421815 0
82.25961 13.52531 5.321815 0
82.30962 13.52531 5.371815 0
82.35961 13.07531 5.021815 0
82.55962 13.07531 5.021815 0
82.35961 13.42531 5.371815 0
82.45961 13.47531 5.321815 0
82.50961 13.47531 5.321815 0
82.60961 13.37531 5.321815 0
82.65961 13.42531 5.271815 0
82.70961 13.42531 5.271815 0
82.05962 13.57531 5.371815 0
82.25961 13.67531 5.521815 0
82.45961 13.62531 5.521815 0
82.65961 13.62531 5.471815 0
83.05962 11.52531 3.571815 0
82.85961 11.57531 3.571815 0
83.05962 11.57531 3.571815 0
83.05962 11.57531 3.621815 0
82.85961 11.57531 3.671815 0
82.80962 11.92531 3.771815 0
82.90961 11.92531 3.721815 0
82.95961 11.92531 3.771815 0
83.10961 11.87531 3.721815 0
83.20961 11.57531 3.571815 0
83.25961 11.57531 3.621815 0
83.15961 11.87531 3.771815 0
83.30962 11.87531 3.671815 0
82.80962 12.17531 3.321815 0
82.75961 12.17531 3.421815 0
82.90961 12.17531 3.321815 0
82.90961 12.17531 3.371815 0
82.85961 12.17531 3.571815 0
82.95961 12.17531 3.271815 0
82.95961 12.22531 3.271815 0
83.10961 12.22531 3.421815 0
83.10961 12.27531 3.321815 0
83.05962 12.17531 3.521815 0
82.80962 12.02531 3.921815 0
82.80962 12.02531 3.971815 0
82.80962 12.12531 3.921815 0
82.75961 12.17531 3.921815 0
82.95961 12.02531 3.921815 0
82.95961 12.12531 3.921815 0
83.05962 11.97531 3.921815 0
83.10961 11.97531 3.921815 0
83.05962 12.42531 3.271815 0
83.10961 12.62531 3.371815 0
83.10961 12.62531 3.621815 0
83.25961 12.02531 3.621815 0
83.30962 12.02531 3.821815 0
83.30962 12.12531 3.771815 0
83.20961 12.07531 3.871815 0
83.30962 11.97531 3.871815 0
82.85961 12.22531 4.171815 0
83.05962 12.17531 4.121815 0
82.85961 12.52531 4.371815 0
82.75961 12.57531 4.421815 0
83.00961 12.47531 4.421815 0
83.05962 12.52531 4.371815 0
82.80962 12.47531 4.471815 0
82.75961 12.62531 4.521815 0
82.90961 12.62531 4.521815 0
82.90961 12.72531 4.571815 0
83.10961 12.62531 4.521815 0
83.10961 12.72531 4.571815 0
83.25961 12.17531 4.121815 0
83.25961 12.42531 4.371815 0
83.25961 12.52531 4.371815 0
83.25961 12.62531 4.521815 0
83.25961 12.72531 4.571815 0
83.15961 12.72531 4.671815 0
83.35961 12.72531 4.671815 0
83.05962 12.87531 3.371815 0
83.10961 13.17531 3.271815 0
83.10961 13.17531 3.921815 0
82.80962 12.77531 4.671815 0
82.75961 12.82531 4.771815 0
82.90961 12.92531 4.771815 0
82.75961 12.97531 4.771815 0
82.95961 12.77531 4.671815 0
83.00961 12.77531 4.771815 0
83.00961 12.92531 4.721815 0
83.15961 13.57531 3.321815 0
83.15961 13.57531 3.971815 0
83.15961 14.02531 3.421815 0
83.15961 13.57531 4.671815 0
83.15961 14.07531 4.071815 0
83.15961 14.02531 4.771815 0
82.75961 13.02531 4.971815 0
82.95961 12.97531 4.921815 0
82.80962 13.32531 5.321815 0
82.90961 13.37531 5.271815 0
82.90961 13.47531 5.321815 0
83.05962 13.27531 5.271815 0
83.15961 12.97531 4.921815 0
83.35961 12.97531 4.921815 0
83.30962 13.22531 5.221815 0
83.15961 13.37531 5.221815 0
83.15961 13.47531 5.371815 0
83.30962 13.52531 5.271815 0
82.85961 13.62531 5.471815 0
83.05962 13.62531 5.471815 0
83.25961 13.57531 5.471815 0
87.30962 7.975312 0.1218147 0
87.30962 8.025311 0.1218147 0
87.35961 8.225311 0.1218147 0
87.35961 8.225311 0.1718147 0
87.35961 8.275311 0.1218147 0
87.35961 7.975312 0.5718147 0
87.35961 8.125312 0.5718147 0
87.35961 8.225311 0.5718147 0
87.35961 8.525311 0.1218147 0
87.35961 8.525311 0.1718147 0
87.35961 8.725311 0.1718147 0
87.35961 8.525311 0.5718147 0
87.35961 8.725311 0.5718147 0
87.35961 7.975312 1.021815 0
87.35961 8.175312 0.9718148 0
87.35961 8.225311 0.9718148 0
87.35961 8.225311 1.021815 0
87.35961 8.225311 1.071815 0
87.35961 7.975312 1.471815 0
87.35961 8.175312 1.371815 0
87.35961 8.225311 1.371815 0
87.35961 8.225311 1.421815 0
87.35961 8.225311 1.521815 0
87.35961 8.525311 1.021815 0
87.35961 8.525311 1.071815 0
87.35961 8.725311 1.021815 0
87.35961 8.525311 1.471815 0
87.35961 8.525311 1.521815 0
87.35961 8.725311 1.421815 0
87.35961 8.775311 0.1218147 0
87.35961 8.875312 0.1218147 0
87.35961 9.025311 0.1218147 0
87.35961 8.775311 0.6218147 0
87.35961 8.875312 0.5718147 0
87.40961 9.225311 0.1218147 0
87.35961 9.325312 0.07181472 0
87.40961 9.275311 0.5718147 0
87.40961 9.275311 0.6218147 0
87.35961 8.875312 1.021815 0
87.35961 8.775311 1.071815 0
87.35961 8.775311 1.571815 0
87.35961 8.875312 1.471815 0
87.40961 9.275311 1.021815 0
87.40961 9.225311 1.071815 0
87.40961 9.225311 1.521815 0
87.35961 9.275311 1.471815 0
87.30962 7.975312 1.971815 0
87.35961 8.125312 1.721815 0
87.35961 8.225311 1.771815 0
87.35961 8.225311 1.871815 0
87.35961 8.225311 1.971815 0
87.35961 8.125312 2.121815 0
87.35961 7.975312 2.421815 0
87.35961 8.225311 2.171815 0
87.35961 8.225311 2.321815 0
87.35961 8.525311 1.921815 0
87.35961 8.525311 2.021815 0
87.35961 8.725311 1.821815 0
87.35961 8.525311 2.371815 0
87.35961 8.725311 2.271815 0
87.35961 8.125312 2.521815 0
87.35961 8.225311 2.471815 0
87.35961 8.225311 2.621815 0
87.35961 8.225311 2.721815 0
87.35961 7.975312 2.871815 0
87.35961 8.125312 2.921815 0
87.35961 8.225311 2.921815 0
87.35961 8.225311 3.021815 0
87.35961 8.175312 3.171815 0
87.35961 8.525311 2.471815 0
87.35961 8.525311 2.821815 0
87.35961 8.725311 2.721815 0
87.35961 8.475311 2.971815 0
87.35961 8.725311 3.121815 0
87.35961 8.775311 2.021815 0
87.35961 8.875312 1.921815 0
87.35961 8.875312 2.421815 0
87.40961 9.275311 1.921815 0
87.40961 9.275311 1.971815 0
87.40961 9.275311 2.371815 0
87.35961 8.775311 2.521815 0
87.35961 8.775311 3.021815 0
87.35961 8.875312 2.871815 0
87.40961 9.225311 2.471815 0
87.40961 9.275311 2.821815 0
87.40961 9.225311 2.921815 0
87.40961 9.575312 0.07181472 0
87.40961 9.625312 0.1218147 0
87.35961 9.875312 0.07181472 0
87.40961 9.875312 0.07181472 0
87.40961 9.625312 0.6218147 0
87.40961 9.875312 0.6218147 0
87.40961 10.02531 0.1218147 0
87.40961 10.17531 0.07181472 0
87.40961 10.02531 0.6218147 0
87.40961 9.625312 1.071815 0
87.40961 9.875312 1.071815 0
87.40961 9.925312 1.071815 0
87.40961 9.625312 1.571815 0
87.40961 9.875312 1.521815 0
87.40961 10.02531 1.121815 0
87.40961 10.02531 1.571815 0
87.40961 10.47531 0.07181472 0
87.45961 10.47531 0.1218147 0
87.45961 10.47531 0.6218147 0
87.45961 10.52531 0.6218147 0
87.45961 10.82531 0.07181472 0
87.45961 10.87531 0.1218147 0
87.45961 11.07531 0.07181472 0
87.45961 11.12531 0.07181472 0
87.45961 10.87531 0.6218147 0
87.45961 11.07531 0.6218147 0
87.40961 10.42531 1.121815 0
87.45961 10.52531 1.071815 0
87.40961 10.42531 1.621815 0
87.45961 10.52531 1.571815 0
87.45961 10.92531 1.121815 0
87.40961 9.625312 2.021815 0
87.40961 9.875312 1.971815 0
87.40961 9.925312 2.421815 0
87.40961 10.02531 2.071815 0
87.40961 9.625312 2.521815 0
87.40961 9.875312 2.471815 0
87.40961 9.625312 3.021815 0
87.40961 9.875312 2.871815 0
87.40961 9.875312 2.921815 0
87.40961 10.02531 2.571815 0
87.40961 10.02531 3.071815 0
87.45961 10.42531 2.121815 0
87.45961 10.52531 2.071815 0
87.45961 10.87531 1.671815 0
87.45961 11.07531 1.721815 0
87.45961 11.07531 2.271815 0
87.45961 10.42531 2.621815 0
87.45961 10.52531 2.571815 0
87.45961 10.42531 3.171815 0
87.45961 10.87531 2.721815 0
87.45961 10.87531 3.221815 0
87.45961 11.07531 2.871815 0
87.35961 7.975312 3.371815 0
87.35961 8.225311 3.421815 0
87.35961 8.225311 3.471815 0
87.35961 8.225311 3.621815 0
87.35961 7.975312 3.821815 0
87.35961 8.225311 3.921815 0
87.35961 8.525311 3.271815 0
87.35961 8.525311 3.471815 0
87.35961 8.525311 3.721815 0
87.35961 8.525311 3.971815 0
87.35961 8.875312 3.321815 0
87.35961 8.875312 3.821815 0
87.40961 9.225311 3.421815 0
87.40961 9.275311 3.271815 0
87.40961 9.225311 3.871815 0
87.40961 9.625312 3.471815 0
87.40961 9.875312 3.371815 0
87.40961 9.875312 3.421815 0
87.40961 9.625312 3.971815 0
87.40961 10.02531 3.571815 0
87.40961 10.02531 4.071815 0
87.40961 10.42531 3.671815 0
87.45961 11.07531 3.421815 0
87.45961 10.87531 3.771815 0
87.45961 11.07531 3.971815 0
87.40961 10.42531 4.221815 0
87.45961 10.87531 4.321815 0
87.45961 11.07531 4.571815 0
87.45961 11.47531 0.07181472 0
87.45961 11.47531 0.6218147 0
87.45961 11.82531 0.07181472 0
87.50961 11.87531 0.6718147 0
87.45961 12.17531 0.07181472 0
87.50961 12.27531 0.07181472 0
87.50961 12.27531 0.6718147 0
87.45961 12.47531 0.07181472 0
87.50961 12.57531 0.07181472 0
87.50961 12.72531 0.07181472 0
87.50961 12.72531 0.6718147 0
87.50961 14.07531 2.571815 0
87.40961 12.07531 4.621815 0
87.55962 1.625311 0.1218147 0
87.60961 1.775311 0.1218147 0
87.70961 1.875311 0.1218147 0
87.75961 1.975312 0.1218147 0
87.80962 2.075311 0.1218147 0
87.90961 2.175312 0.1218147 0
87.95961 2.275311 0.1218147 0
88.00961 2.425312 0.1218147 0
88.10961 2.525311 0.1218147 0
88.30962 2.525311 0.1218147 0
88.15961 2.625312 0.1218147 0
88.25961 2.675312 0.1218147 0
88.25961 2.725312 0.1218147 0
88.00961 3.125312 0.1218147 0
88.10961 3.025311 0.1218147 0
88.20961 2.775311 0.1218147 0
88.15961 2.875312 0.1218147 0
88.30962 2.825311 0.1218147 0
88.70961 1.625311 0.1218147 0
88.65961 1.725312 0.1218147 0
88.60961 1.875311 0.1218147 0
88.50961 2.075311 0.1218147 0
88.40961 2.325311 0.1218147 0
88.45961 2.225312 0.1218147 0
88.55962 1.975312 0.1218147 0
88.35961 2.425312 0.1218147 0
88.35961 2.925312 0.1218147 0
88.45961 3.025311 0.1218147 0
90.25961 1.625311 0.1218147 0
90.30962 1.725312 0.1218147 0
90.40961 1.825312 0.1218147 0
90.45961 1.925311 0.1218147 0
90.70961 1.675311 0.1218147 0
90.60961 1.875311 0.1218147 0
90.65961 1.775311 0.1218147 0
90.55962 2.025311 0.1218147 0
90.60961 2.125312 0.1218147 0
90.65961 2.225312 0.1218147 0
90.30962 2.575311 0.1218147 0
90.25961 2.675312 0.1218147 0
90.05962 3.025311 0.1218147 0
90.20961 2.825311 0.1218147 0
90.15961 2.925312 0.1218147 0
90.40961 2.375312 0.1218147 0
90.35961 2.475312 0.1218147 0
87.55962 6.125311 0.07181472 0
87.55962 6.125311 0.1218147 0
87.60961 6.125311 0.07181472 0
87.55962 6.125311 0.1718147 0
87.55962 6.125311 0.2218147 0
87.60961 6.125311 0.2218147 0
87.70961 6.125311 0.1218147 0
87.65961 6.125311 0.1718147 0
87.65961 6.125311 0.2218147 0
87.70961 6.125311 0.1718147 0
87.70961 6.125311 0.2218147 0
87.70961 6.175312 0.1218147 0
87.75961 6.125311 0.07181472 0
87.75961 6.125311 0.1718147 0
87.80962 6.125311 0.1718147 0
87.80962 6.125311 0.2218147 0
87.90961 6.025311 0.07181472 0
87.90961 6.025311 0.1218147 0
87.90961 6.025311 0.1718147 0
87.90961 6.025311 0.2218147 0
87.90961 6.125311 0.1218147 0
87.85961 6.125311 0.1718147 0
87.85961 6.125311 0.2218147 0
87.90961 6.125311 0.1718147 0
87.90961 6.125311 0.2218147 0
87.55962 6.125311 0.5218147 0
87.60961 6.125311 0.5218147 0
87.55962 6.125311 0.5718147 0
87.55962 6.125311 0.6218147 0
87.60961 6.125311 0.5718147 0
87.65961 6.125311 0.5218147 0
87.70961 6.125311 0.5218147 0
87.65961 6.125311 0.5718147 0
87.70961 6.125311 0.5718147 0
87.70961 6.125311 0.6218147 0
87.65961 6.125311 0.6718147 0
87.75961 6.125311 0.5218147 0
87.80962 6.125311 0.5218147 0
87.75961 6.125311 0.5718147 0
87.80962 6.125311 0.5718147 0
87.90961 6.025311 0.5218147 0
87.90961 6.025311 0.5718147 0
87.85961 6.125311 0.5218147 0
87.90961 6.125311 0.5218147 0
87.90961 6.125311 0.5718147 0
87.90961 6.025311 0.6718147 0
87.85961 6.125311 0.6718147 0
87.95961 6.025311 0.1218147 0
88.00961 6.025311 0.1218147 0
87.95961 6.025311 0.1718147 0
87.95961 6.025311 0.2218147 0
88.00961 6.025311 0.1718147 0
88.00961 6.025311 0.2218147 0
88.05962 6.025311 0.1218147 0
88.10961 6.025311 0.07181472 0
88.05962 6.025311 0.1718147 0
88.05962 6.025311 0.2218147 0
88.10961 6.025311 0.1718147 0
88.10961 6.025311 0.2218147 0
88.10961 6.075312 0.07181472 0
88.15961 6.025311 0.1218147 0
88.20961 6.025311 0.1218147 0
88.15961 6.025311 0.2218147 0
88.20961 6.025311 0.1718147 0
