# .PCD v0.7 - Point Cloud Data file format
VERSION 0.7
FIELDS x y z intensity
SIZE 4 4 4 4
TYPE F F F F
COUNT 1 1 1 1
WIDTH 1570
HEIGHT 1
VIEWPOINT 0 0 0 1 0 0 0
POINTS 1570
DATA ascii
6.509612 -31.22469 1.671815 0
6.509612 -31.17469 1.721815 0
6.559612 -31.12469 1.671815 0
7.009612 -31.77469 2.421815 0
6.759612 -31.32469 1.821815 0
6.859612 -31.37469 1.971815 0
7.059612 -31.47469 1.821815 0
7.009612 -31.32469 2.021815 0
7.109612 -31.27469 2.021815 0
6.759612 -31.57469 2.171815 0
6.909612 -31.47469 2.071815 0
6.859612 -31.62469 2.271815 0
6.909612 -31.47469 2.371815 0
6.859612 -31.42469 2.371815 0
6.959612 -31.57469 2.221815 0
7.009612 -31.47469 2.121815 0
7.009612 -31.57469 2.271815 0
7.009612 -31.57469 2.421815 0
7.109612 -31.62469 2.421815 0
7.009612 -31.42469 2.121815 0
7.359612 -31.67469 1.671815 0
7.259612 -31.27469 1.971815 0
7.159612 -31.52469 2.271815 0
7.209612 -31.47469 2.271815 0
7.309612 -31.52469 2.321815 0
7.159612 -31.42469 2.121815 0
7.309612 -31.37469 2.121815 0
7.459612 -31.32469 2.171815 0
7.109612 -31.77469 2.471815 0
6.809612 -31.77469 3.171815 0
6.859612 -31.82469 3.221815 0
7.009612 -31.77469 3.171815 0
6.759612 -31.62469 2.621815 0
6.759612 -31.57469 2.771815 0
6.859612 -31.57469 2.671815 0
7.009612 -31.57469 2.721815 0
6.959612 -31.62469 2.771815 0
6.959612 -31.62469 2.821815 0
7.209612 -31.77469 2.521815 0
7.309612 -31.72469 2.771815 0
7.309612 -31.77469 2.871815 0
7.259612 -31.72469 2.871815 0
6.809612 -31.22469 1.871815 0
6.559612 -32.87469 3.321815 0
6.559612 -32.87469 3.371815 0
6.659612 -32.87469 3.321815 0
6.709612 -32.92469 3.321815 0
6.659612 -32.92469 3.371815 0
6.659612 -32.87469 3.421815 0
6.559612 -32.92469 3.621815 0
6.609612 -32.92469 3.621815 0
6.659612 -32.97469 3.621815 0
6.459612 -32.87469 3.671815 0
6.509612 -32.87469 3.721815 0
6.659612 -32.87469 3.671815 0
6.709612 -32.87469 3.721815 0
6.309612 -32.67469 3.421815 0
6.309612 -32.42469 3.371815 0
6.409612 -32.72469 3.271815 0
6.509612 -32.77469 3.321815 0
6.509612 -32.67469 3.371815 0
6.459612 -32.77469 3.621815 0
6.359612 -32.57469 3.321815 0
6.509612 -32.62469 3.421815 0
6.709612 -32.77469 3.271815 0
6.609612 -32.67469 3.471815 0
6.459612 -32.67469 3.771815 0
6.509612 -32.52469 3.671815 0
6.509612 -32.47469 3.671815 0
6.459612 -32.47469 3.971815 0
6.509612 -32.52469 4.021815 0
6.609612 -32.67469 3.771815 0
6.709612 -32.77469 3.721815 0
6.559612 -32.77469 3.871815 0
6.709612 -32.72469 3.871815 0
6.659612 -32.72469 3.971815 0
6.559612 -32.62469 3.971815 0
6.509612 -32.42469 3.421815 0
6.509612 -32.27469 3.371815 0
6.459612 -32.12469 3.621815 0
6.609612 -32.37469 3.521815 0
6.609612 -32.12469 3.621815 0
6.459612 -32.32469 3.671815 0
6.659612 -32.32469 3.871815 0
6.559612 -32.22469 3.871815 0
6.609612 -32.22469 4.021815 0
6.659612 -32.62469 4.071815 0
6.659612 -32.52469 4.221815 0
6.659612 -32.62469 4.321815 0
6.709612 -32.57469 4.321815 0
6.609612 -32.42469 4.371815 0
6.709612 -32.32469 4.371815 0
6.809612 -32.92469 3.321815 0
6.759612 -32.87469 3.371815 0
6.909612 -32.97469 3.271815 0
6.759612 -32.97469 3.571815 0
6.759612 -32.92469 3.621815 0
6.859612 -32.97469 3.571815 0
6.909612 -32.97469 3.571815 0
6.959612 -33.07469 3.421815 0
6.959612 -32.97469 3.321815 0
7.009612 -32.87469 3.421815 0
7.059612 -32.97469 3.271815 0
7.109612 -32.92469 3.321815 0
7.009612 -32.97469 3.571815 0
7.059612 -33.02469 3.521815 0
6.859612 -32.87469 3.771815 0
6.959612 -32.87469 3.671815 0
7.259612 -32.97469 3.271815 0
7.159612 -33.02469 3.471815 0
7.159612 -32.92469 3.571815 0
7.209612 -32.92469 3.571815 0
7.259612 -32.87469 3.571815 0
7.209612 -32.87469 3.721815 0
7.209612 -32.87469 3.771815 0
6.809612 -32.82469 3.471815 0
6.959612 -32.82469 3.471815 0
6.859612 -32.77469 3.771815 0
6.859612 -32.77469 3.821815 0
6.859612 -32.77469 3.971815 0
7.059612 -32.82469 3.821815 0
7.109612 -32.67469 3.821815 0
7.309612 -32.77469 3.321815 0
7.309612 -32.82469 3.571815 0
7.309612 -32.57469 3.621815 0
7.409612 -32.57469 3.371815 0
7.509612 -32.52469 3.371815 0
7.309612 -32.77469 3.821815 0
7.309612 -32.57469 3.671815 0
7.409612 -32.62469 3.821815 0
7.209612 -32.07469 4.021815 0
6.759612 -32.67469 4.221815 0
6.909612 -32.72469 4.071815 0
6.859612 -32.72469 4.171815 0
6.909612 -32.72469 4.221815 0
6.809612 -32.67469 4.371815 0
6.909612 -32.62469 4.371815 0
7.009612 -32.67469 4.121815 0
7.059612 -32.62469 4.371815 0
7.159612 -32.57469 4.121815 0
7.159612 -32.32469 4.221815 0
6.609612 -31.92469 3.571815 0
6.759612 -31.92469 3.621815 0
6.909612 -31.87469 3.621815 0
6.759612 -31.97469 3.971815 0
6.959612 -32.02469 4.021815 0
7.159612 -31.92469 3.271815 0
7.609612 -36.17469 0.8218147 0
7.759612 -36.32469 0.8218147 0
7.859612 -36.37469 0.8218147 0
7.909612 -36.42469 0.8218147 0
8.109612 -36.77469 0.8218147 0
8.059612 -36.72469 0.7718147 0
8.059612 -36.67469 0.8218147 0
8.009612 -36.62469 0.8218147 0
8.009612 -36.52469 0.8218147 0
7.659612 -36.77469 1.021815 0
7.709612 -36.52469 0.9718148 0
7.709612 -36.52469 1.021815 0
7.609612 -36.52469 1.121815 0
7.609612 -36.47469 1.071815 0
7.659612 -36.52469 1.071815 0
7.809612 -36.67469 1.021815 0
7.859612 -36.77469 0.9718148 0
7.909612 -36.77469 1.021815 0
7.859612 -36.67469 1.021815 0
7.909612 -36.67469 0.9718148 0
7.759612 -36.52469 1.021815 0
7.759612 -36.47469 0.9718148 0
7.859612 -36.47469 0.9218147 0
7.909612 -36.52469 0.9218147 0
7.759612 -36.62469 1.071815 0
7.909612 -36.72469 1.271815 0
7.859612 -36.57469 1.371815 0
7.859612 -36.52469 1.271815 0
7.559612 -36.37469 1.021815 0
7.609612 -36.42469 0.9718148 0
7.559612 -36.27469 0.8718147 0
7.559612 -36.32469 0.9718148 0
7.659612 -36.42469 0.9718148 0
7.659612 -36.32469 0.8718147 0
7.659612 -36.27469 0.9218147 0
7.559612 -36.22469 0.9218147 0
7.609612 -36.22469 0.8718147 0
7.559612 -36.12469 0.8718147 0
7.659612 -36.22469 0.8718147 0
7.759612 -36.42469 0.8718147 0
7.759612 -36.37469 0.9218147 0
7.809612 -36.37469 0.8718147 0
7.759612 -36.27469 0.8718147 0
7.859612 -36.37469 0.8718147 0
7.909612 -36.42469 0.8718147 0
8.009612 -36.77469 0.8718147 0
7.959612 -36.82469 0.9718148 0
7.959612 -36.82469 1.021815 0
7.959612 -36.67469 0.8718147 0
8.009612 -36.72469 0.9218147 0
8.009612 -36.67469 0.8718147 0
8.059612 -36.82469 0.8718147 0
7.959612 -36.62469 0.9218147 0
7.959612 -36.52469 0.8718147 0
8.009612 -36.52469 0.8718147 0
7.959612 -36.77469 1.371815 0
7.559612 -36.82469 1.821815 0
7.559612 -33.77469 0.8718147 0
7.609612 -33.77469 0.8718147 0
7.559612 -33.72469 0.9218147 0
7.559612 -33.67469 0.9218147 0
7.559612 -33.67469 1.021815 0
7.609612 -33.72469 0.9718148 0
7.709612 -33.72469 0.8718147 0
7.709612 -33.72469 0.9218147 0
7.709612 -33.67469 0.9718148 0
7.809612 -33.67469 0.8718147 0
7.809612 -33.67469 0.9218147 0
7.559612 -33.72469 1.421815 0
10.45961 -36.82469 0.8718147 0
10.45961 -36.77469 0.9218147 0
10.50961 -36.82469 0.9218147 0
10.50961 -36.67469 0.9218147 0
10.55961 -36.82469 0.8718147 0
10.55961 -36.82469 0.9718148 0
10.55961 -36.77469 1.021815 0
10.55961 -36.72469 0.8718147 0
10.60961 -36.67469 0.9218147 0
10.60961 -36.67469 0.9718148 0
10.65961 -36.82469 1.021815 0
10.60961 -36.57469 1.021815 0
10.65961 -36.57469 0.8718147 0
10.70961 -36.57469 0.9718148 0
10.70961 -36.47469 0.8718147 0
10.70961 -36.47469 1.071815 0
10.55961 -36.82469 1.421815 0
10.55961 -36.77469 1.371815 0
10.55961 -36.67469 1.371815 0
10.60961 -36.72469 1.371815 0
10.65961 -36.72469 1.421815 0
10.70961 -36.57469 1.371815 0
9.509612 -33.87469 0.1218147 0
9.459612 -33.82469 0.1218147 0
9.509612 -33.77469 0.1218147 0
9.459612 -33.77469 0.1718147 0
9.509612 -33.82469 0.1718147 0
9.459612 -33.67469 0.1218147 0
9.509612 -33.72469 0.1218147 0
9.509612 -33.67469 0.1218147 0
9.459612 -33.67469 0.1718147 0
9.509612 -33.72469 0.1718147 0
9.509612 -33.87469 0.5218147 0
9.509612 -33.87469 0.6218147 0
9.509612 -33.82469 0.5218147 0
9.509612 -33.77469 0.5218147 0
9.459612 -33.82469 0.5718147 0
9.459612 -33.77469 0.5718147 0
9.509612 -33.82469 0.6218147 0
9.509612 -33.77469 0.5718147 0
9.509612 -33.77469 0.6218147 0
9.459612 -33.67469 0.5218147 0
9.509612 -33.72469 0.5218147 0
9.509612 -33.67469 0.5218147 0
9.509612 -33.72469 0.5718147 0
9.459612 -33.72469 0.6718147 0
9.559612 -33.87469 0.1218147 0
9.559612 -33.87469 0.1718147 0
9.609612 -33.87469 0.1718147 0
9.659612 -33.92469 0.1218147 0
9.659612 -33.87469 0.1218147 0
9.659612 -33.92469 0.1718147 0
9.659612 -33.87469 0.1718147 0
9.709612 -33.87469 0.1718147 0
9.559612 -33.67469 0.1218147 0
9.559612 -33.67469 0.1718147 0
9.759612 -33.92469 0.07181472 0
9.759612 -33.87469 0.1218147 0
9.809612 -33.92469 0.1218147 0
9.809612 -33.87469 0.1218147 0
9.759612 -33.92469 0.1718147 0
9.809612 -33.92469 0.1718147 0
9.859612 -33.92469 0.1218147 0
9.909612 -33.87469 0.1218147 0
9.859612 -33.92469 0.1718147 0
9.909612 -33.92469 0.1718147 0
9.909612 -33.87469 0.1718147 0
9.559612 -33.92469 0.5218147 0
9.609612 -33.92469 0.5218147 0
9.559612 -33.87469 0.5718147 0
9.559612 -33.87469 0.6218147 0
9.609612 -33.92469 0.5718147 0
9.609612 -33.87469 0.5718147 0
9.659612 -33.92469 0.5218147 0
9.709612 -33.92469 0.5218147 0
9.659612 -33.92469 0.6218147 0
9.659612 -33.87469 0.5718147 0
9.659612 -33.87469 0.6218147 0
9.709612 -33.92469 0.5718147 0
9.709612 -33.92469 0.6218147 0
9.709612 -33.87469 0.5718147 0
9.709612 -33.87469 0.6218147 0
9.559612 -33.82469 0.5718147 0
9.559612 -33.67469 0.5218147 0
9.759612 -33.92469 0.5218147 0
9.759612 -33.87469 0.5218147 0
9.809612 -33.92469 0.5218147 0
9.759612 -33.87469 0.6218147 0
9.809612 -33.92469 0.5718147 0
9.859612 -33.92469 0.5218147 0
9.909612 -33.92469 0.5218147 0
9.859612 -33.92469 0.5718147 0
9.859612 -33.92469 0.6218147 0
9.909612 -33.87469 0.5718147 0
9.909612 -33.87469 0.6218147 0
9.459612 -33.77469 0.9218147 0
9.509612 -33.82469 0.9218147 0
9.509612 -33.77469 0.8718147 0
9.459612 -33.77469 1.021815 0
9.509612 -33.77469 0.9718148 0
9.459612 -33.67469 0.9218147 0
9.509612 -33.72469 0.8718147 0
9.509612 -33.67469 0.8718147 0
9.459612 -33.72469 0.9718148 0
9.459612 -33.67469 1.021815 0
9.509612 -33.87469 1.271815 0
9.459612 -33.77469 1.271815 0
9.459612 -33.82469 1.421815 0
9.459612 -33.67469 1.271815 0
9.509612 -33.67469 1.271815 0
9.459612 -33.72469 1.371815 0
9.459612 -33.77469 1.621815 0
9.559612 -33.92469 0.9218147 0
9.609612 -33.92469 0.9218147 0
9.559612 -33.87469 0.9718148 0
9.659612 -33.92469 0.9218147 0
9.709612 -33.92469 0.9218147 0
9.709612 -33.87469 0.9218147 0
9.659612 -33.87469 1.021815 0
9.559612 -33.82469 0.9718148 0
9.559612 -33.67469 0.9218147 0
9.759612 -33.92469 0.9218147 0
9.809612 -33.92469 0.9218147 0
9.809612 -33.87469 0.9218147 0
9.859612 -33.92469 0.9218147 0
9.909612 -33.92469 0.9218147 0
9.909612 -33.87469 0.9718148 0
9.909612 -33.87469 1.021815 0
9.609612 -33.92469 1.271815 0
9.609612 -33.87469 1.271815 0
9.559612 -33.87469 1.371815 0
9.659612 -33.92469 1.271815 0
9.709612 -33.87469 1.271815 0
9.659612 -33.87469 1.471815 0
9.559612 -33.67469 1.321815 0
9.759612 -33.92469 1.271815 0
9.859612 -33.92469 1.271815 0
9.909612 -33.87469 1.371815 0
9.959612 -33.92469 0.07181472 0
9.959612 -33.92469 0.1218147 0
9.959612 -33.87469 0.1218147 0
10.00961 -33.92469 0.1218147 0
9.959612 -33.92469 0.1718147 0
9.959612 -33.87469 0.1718147 0
10.00961 -33.92469 0.1718147 0
10.05961 -33.92469 0.1218147 0
10.10961 -33.92469 0.07181472 0
10.10961 -33.92469 0.1218147 0
10.05961 -33.92469 0.1718147 0
10.10961 -33.92469 0.1718147 0
10.15961 -33.92469 0.1218147 0
10.15961 -33.87469 0.1218147 0
10.20961 -33.87469 0.1218147 0
10.15961 -33.92469 0.1718147 0
10.20961 -33.92469 0.1718147 0
10.20961 -33.87469 0.1718147 0
10.25961 -33.97469 0.07181472 0
10.25961 -33.92469 0.1218147 0
10.30961 -33.92469 0.1218147 0
10.30961 -33.92469 0.1718147 0
10.30961 -33.87469 0.1718147 0
9.959612 -33.92469 0.5218147 0
10.00961 -33.92469 0.5218147 0
9.959612 -33.92469 0.5718147 0
9.959612 -33.87469 0.6218147 0
10.00961 -33.92469 0.6218147 0
10.00961 -33.87469 0.5718147 0
10.10961 -33.92469 0.5218147 0
10.05961 -33.92469 0.5718147 0
10.05961 -33.92469 0.6218147 0
10.10961 -33.92469 0.5718147 0
10.00961 -33.82469 0.5218147 0
10.20961 -33.92469 0.5218147 0
10.15961 -33.92469 0.5718147 0
10.15961 -33.87469 0.6218147 0
10.20961 -33.87469 0.6218147 0
10.25961 -33.92469 0.5218147 0
10.30961 -33.92469 0.5218147 0
10.25961 -33.92469 0.6218147 0
10.30961 -33.92469 0.5718147 0
10.30961 -33.87469 0.5718147 0
10.40961 -33.92469 0.1218147 0
10.40961 -33.87469 0.1218147 0
10.35961 -33.92469 0.1718147 0
10.40961 -33.92469 0.1718147 0
10.45961 -33.97469 0.07181472 0
10.45961 -33.97469 0.1718147 0
10.45961 -33.92469 0.1218147 0
10.45961 -33.87469 0.07181472 0
10.45961 -33.87469 0.1218147 0
10.45961 -33.92469 0.1718147 0
10.50961 -33.92469 0.1718147 0
10.60961 -33.97469 0.1718147 0
10.55961 -33.92469 0.1218147 0
10.55961 -33.87469 0.1218147 0
10.55961 -33.92469 0.1718147 0
10.60961 -33.92469 0.1718147 0
10.65961 -33.97469 0.07181472 0
10.70961 -33.97469 0.1718147 0
10.65961 -33.92469 0.07181472 0
10.65961 -33.92469 0.1218147 0
10.70961 -33.92469 0.1218147 0
10.70961 -33.87469 0.1218147 0
10.65961 -33.92469 0.1718147 0
10.35961 -33.92469 0.5218147 0
10.40961 -33.92469 0.5218147 0
10.35961 -33.92469 0.6218147 0
10.40961 -33.92469 0.5718147 0
10.40961 -33.87469 0.6218147 0
10.45961 -33.97469 0.5218147 0
10.45961 -33.92469 0.5218147 0
10.45961 -33.92469 0.5718147 0
10.45961 -33.92469 0.6218147 0
10.45961 -33.87469 0.6218147 0
10.50961 -33.92469 0.5718147 0
10.50961 -33.87469 0.6218147 0
10.40961 -33.92469 0.6718147 0
10.45961 -33.92469 0.6718147 0
10.60961 -33.97469 0.5218147 0
10.55961 -33.92469 0.5218147 0
10.60961 -33.92469 0.5218147 0
10.60961 -33.92469 0.5718147 0
10.65961 -33.97469 0.5218147 0
10.70961 -33.97469 0.5218147 0
10.70961 -33.92469 0.5218147 0
10.65961 -33.92469 0.5718147 0
10.65961 -33.92469 0.6218147 0
10.70961 -33.92469 0.6218147 0
10.65961 -33.92469 0.6718147 0
9.959612 -33.92469 0.9218147 0
10.00961 -33.92469 0.9218147 0
10.05961 -33.92469 0.9218147 0
10.10961 -33.92469 0.9218147 0
10.00961 -33.82469 0.9218147 0
10.15961 -33.92469 0.9218147 0
10.20961 -33.92469 0.9218147 0
10.25961 -33.92469 0.9218147 0
10.30961 -33.92469 0.9218147 0
10.30961 -33.87469 0.9718148 0
10.20961 -33.87469 1.071815 0
9.959612 -33.92469 1.271815 0
10.00961 -33.92469 1.271815 0
10.00961 -33.87469 1.321815 0
10.05961 -33.92469 1.271815 0
10.10961 -33.92469 1.271815 0
9.959612 -33.87469 1.471815 0
10.15961 -33.92469 1.271815 0
10.20961 -33.92469 1.271815 0
10.30961 -33.87469 1.421815 0
10.20961 -33.87469 1.471815 0
10.35961 -33.97469 0.9218147 0
10.35961 -33.92469 0.9218147 0
10.40961 -33.92469 0.9218147 0
10.45961 -33.92469 0.9218147 0
10.50961 -33.92469 0.9218147 0
10.50961 -33.87469 1.071815 0
10.60961 -33.97469 0.9218147 0
10.55961 -33.92469 0.9218147 0
10.60961 -33.92469 0.9218147 0
10.70961 -33.97469 0.9218147 0
10.70961 -33.92469 0.9218147 0
10.35961 -33.92469 1.271815 0
10.45961 -33.97469 1.271815 0
10.60961 -33.97469 1.321815 0
10.55961 -33.92469 1.271815 0
10.70961 -33.97469 1.271815 0
10.70961 -33.97469 1.321815 0
10.55961 -33.87469 1.521815 0
9.509612 -33.87469 1.771815 0
9.509612 -33.87469 1.921815 0
9.459612 -33.72469 1.721815 0
9.509612 -33.67469 1.671815 0
9.459612 -33.77469 1.871815 0
9.459612 -33.82469 2.021815 0
9.459612 -33.77469 2.021815 0
9.509612 -33.82469 2.021815 0
9.459612 -33.67469 1.871815 0
9.459612 -33.67469 2.021815 0
9.509612 -33.67469 1.971815 0
9.459612 -33.77469 2.121815 0
9.459612 -33.82469 2.321815 0
9.509612 -33.82469 2.421815 0
9.509612 -33.77469 2.371815 0
9.509612 -33.77469 2.421815 0
9.459612 -33.67469 2.321815 0
9.459612 -33.67469 2.421815 0
9.609612 -33.92469 1.671815 0
9.659612 -33.87469 1.671815 0
9.709612 -33.92469 1.671815 0
9.609612 -33.92469 2.021815 0
9.609612 -33.87469 2.021815 0
9.659612 -33.87469 1.871815 0
9.659612 -33.92469 2.021815 0
9.709612 -33.92469 2.021815 0
9.559612 -33.67469 1.671815 0
9.759612 -33.92469 1.671815 0
9.859612 -33.92469 1.671815 0
9.859612 -33.87469 1.671815 0
9.909612 -33.87469 1.771815 0
9.759612 -33.92469 2.021815 0
9.859612 -33.92469 2.021815 0
9.859612 -33.87469 1.971815 0
9.559612 -33.87469 2.171815 0
9.609612 -33.92469 2.421815 0
9.609612 -33.87469 2.421815 0
9.659612 -33.87469 2.321815 0
9.659612 -33.92469 2.421815 0
9.709612 -33.92469 2.421815 0
9.559612 -33.67469 2.071815 0
9.909612 -33.87469 2.221815 0
9.759612 -33.92469 2.421815 0
9.859612 -33.92469 2.421815 0
9.909612 -33.87469 2.371815 0
9.509612 -33.87469 2.621815 0
9.459612 -33.82469 2.471815 0
9.459612 -33.77469 2.571815 0
9.509612 -33.67469 2.621815 0
9.459612 -33.82469 2.721815 0
9.459612 -33.77469 2.721815 0
9.459612 -33.82469 2.771815 0
9.509612 -33.82469 2.821815 0
9.509612 -33.77469 2.821815 0
9.459612 -33.67469 2.721815 0
9.459612 -33.67469 2.771815 0
9.509612 -33.87469 2.971815 0
9.459612 -33.82469 2.971815 0
9.459612 -33.77469 2.971815 0
9.459612 -33.77469 3.121815 0
9.509612 -33.82469 3.071815 0
9.459612 -33.82469 3.171815 0
9.509612 -33.82469 3.221815 0
9.459612 -33.67469 3.121815 0
9.459612 -33.67469 3.221815 0
9.509612 -33.67469 3.171815 0
9.559612 -33.87469 2.571815 0
9.659612 -33.87469 2.521815 0
9.609612 -33.92469 2.821815 0
9.609612 -33.87469 2.821815 0
9.659612 -33.92469 2.821815 0
9.659612 -33.87469 2.771815 0
9.709612 -33.87469 2.821815 0
9.559612 -33.67469 2.471815 0
9.909612 -33.87469 2.521815 0
9.909612 -33.87469 2.621815 0
9.759612 -33.92469 2.821815 0
9.859612 -33.92469 2.671815 0
9.859612 -33.92469 2.821815 0
9.909612 -33.87469 2.821815 0
9.659612 -33.87469 2.971815 0
9.609612 -33.92469 3.171815 0
9.609612 -33.92469 3.221815 0
9.659612 -33.92469 3.121815 0
9.709612 -33.92469 3.071815 0
9.659612 -33.92469 3.221815 0
9.659612 -33.87469 3.221815 0
9.709612 -33.87469 3.221815 0
9.559612 -33.67469 2.871815 0
9.909612 -33.87469 3.021815 0
9.759612 -33.92469 3.221815 0
9.859612 -33.92469 3.121815 0
9.859612 -33.92469 3.221815 0
9.859612 -33.87469 3.221815 0
9.959612 -33.92469 1.671815 0
10.00961 -33.92469 1.671815 0
10.00961 -33.87469 1.721815 0
10.05961 -33.92469 1.671815 0
10.10961 -33.92469 1.671815 0
9.959612 -33.87469 1.921815 0
9.959612 -33.92469 2.021815 0
10.00961 -33.92469 2.021815 0
10.05961 -33.92469 2.021815 0
10.15961 -33.92469 1.671815 0
10.20961 -33.92469 1.671815 0
10.30961 -33.87469 1.821815 0
10.15961 -33.92469 2.021815 0
10.20961 -33.87469 1.971815 0
10.30961 -33.92469 2.021815 0
10.00961 -33.92469 2.071815 0
10.05961 -33.87469 2.121815 0
10.10961 -33.92469 2.071815 0
9.959612 -33.92469 2.421815 0
10.00961 -33.92469 2.421815 0
10.05961 -33.92469 2.421815 0
10.10961 -33.92469 2.421815 0
10.10961 -33.87469 2.421815 0
10.20961 -33.92469 2.071815 0
10.25961 -33.92469 2.071815 0
10.15961 -33.92469 2.421815 0
10.20961 -33.92469 2.421815 0
10.30961 -33.87469 2.271815 0
10.25961 -33.87469 2.421815 0
10.30961 -33.92469 2.421815 0
10.35961 -33.92469 1.671815 0
10.40961 -33.92469 1.721815 0
10.45961 -33.92469 1.671815 0
10.50961 -33.87469 1.971815 0
10.55961 -33.92469 1.671815 0
10.60961 -33.92469 1.671815 0
10.70961 -33.97469 1.671815 0
10.65961 -33.92469 1.721815 0
10.65961 -33.92469 2.021815 0
10.35961 -33.92469 2.071815 0
10.45961 -33.92469 2.071815 0
10.50961 -33.92469 2.071815 0
10.40961 -33.92469 2.271815 0
10.35961 -33.92469 2.421815 0
10.40961 -33.92469 2.421815 0
10.50961 -33.92469 2.421815 0
10.60961 -33.97469 2.071815 0
10.55961 -33.92469 2.071815 0
10.70961 -33.97469 2.071815 0
10.65961 -33.92469 2.221815 0
10.00961 -33.87469 2.521815 0
10.05961 -33.92469 2.571815 0
9.959612 -33.92469 2.821815 0
10.00961 -33.92469 2.821815 0
10.05961 -33.92469 2.821815 0
10.10961 -33.92469 2.821815 0
10.25961 -33.92469 2.471815 0
10.25961 -33.92469 2.571815 0
10.20961 -33.97469 2.821815 0
10.15961 -33.92469 2.821815 0
10.20961 -33.92469 2.821815 0
10.30961 -33.87469 2.721815 0
10.30961 -33.92469 2.821815 0
10.00961 -33.87469 2.921815 0
9.959612 -33.92469 3.221815 0
10.00961 -33.92469 3.221815 0
10.05961 -33.92469 3.071815 0
10.05961 -33.92469 3.221815 0
10.10961 -33.92469 3.221815 0
10.20961 -33.87469 2.871815 0
10.25961 -33.92469 3.021815 0
10.15961 -33.92469 3.171815 0
10.20961 -33.92469 3.221815 0
10.25961 -33.92469 3.071815 0
10.30961 -33.87469 3.121815 0
10.25961 -33.92469 3.221815 0
10.30961 -33.92469 3.221815 0
10.35961 -33.92469 2.471815 0
10.45961 -33.97469 2.471815 0
10.45961 -33.92469 2.471815 0
10.45961 -33.92469 2.521815 0
10.35961 -33.92469 2.821815 0
10.40961 -33.92469 2.771815 0
10.40961 -33.92469 2.821815 0
10.45961 -33.92469 2.821815 0
10.50961 -33.92469 2.821815 0
10.55961 -33.92469 2.471815 0
10.60961 -33.92469 2.471815 0
10.70961 -33.97469 2.471815 0
10.65961 -33.92469 2.521815 0
10.55961 -33.97469 2.821815 0
10.60961 -33.92469 2.821815 0
10.65961 -33.92469 2.771815 0
10.35961 -33.92469 2.871815 0
10.40961 -33.92469 3.021815 0
10.50961 -33.92469 2.871815 0
10.50961 -33.92469 2.921815 0
10.45961 -33.92469 3.021815 0
10.35961 -33.92469 3.221815 0
10.40961 -33.92469 3.171815 0
10.45961 -33.92469 3.221815 0
10.50961 -33.92469 3.171815 0
10.60961 -33.97469 2.871815 0
10.70961 -33.97469 2.871815 0
10.65961 -33.92469 3.021815 0
10.55961 -33.92469 3.071815 0
10.60961 -33.92469 3.171815 0
10.70961 -33.92469 3.071815 0
9.509612 -33.87469 3.271815 0
9.459612 -33.77469 3.371815 0
9.509612 -33.82469 3.371815 0
9.509612 -33.77469 3.371815 0
9.509612 -33.67469 3.321815 0
9.459612 -33.82469 3.471815 0
9.459612 -33.82469 3.621815 0
9.459612 -33.67469 3.471815 0
9.509612 -33.87469 3.971815 0
9.509612 -33.82469 3.671815 0
9.459612 -33.67469 3.671815 0
9.509612 -33.82469 3.921815 0
9.509612 -33.77469 3.921815 0
9.459612 -33.82469 3.971815 0
9.509612 -33.67469 3.971815 0
9.559612 -33.87469 3.371815 0
9.659612 -33.87469 3.371815 0
9.659612 -33.87469 3.471815 0
9.559612 -33.67469 3.271815 0
9.909612 -33.87469 3.321815 0
9.909612 -33.87469 3.471815 0
9.909612 -33.87469 3.521815 0
9.859612 -33.92469 3.621815 0
9.659612 -33.87469 3.671815 0
9.709612 -33.92469 3.671815 0
9.609612 -33.92469 3.921815 0
9.659612 -33.87469 3.971815 0
9.909612 -33.87469 3.721815 0
9.909612 -33.92469 4.021815 0
9.909612 -33.87469 4.021815 0
9.309612 -34.27469 4.571815 0
9.159612 -34.12469 4.571815 0
9.509612 -33.72469 4.071815 0
9.509612 -33.82469 4.321815 0
9.309612 -33.77469 4.621815 0
9.509612 -33.82469 4.471815 0
9.509612 -33.77469 4.521815 0
9.659612 -33.87469 4.171815 0
9.709612 -33.87469 4.321815 0
9.859612 -33.92469 4.171815 0
9.659612 -33.92469 4.521815 0
9.809612 -33.97469 4.521815 0
9.959612 -33.87469 3.271815 0
10.10961 -33.92469 3.421815 0
10.05961 -33.92469 3.571815 0
10.20961 -33.87469 3.321815 0
10.15961 -33.92469 3.571815 0
10.25961 -33.92469 3.471815 0
10.25961 -33.92469 3.571815 0
10.30961 -33.87469 3.571815 0
10.00961 -33.92469 3.721815 0
10.25961 -33.87469 3.821815 0
10.35961 -33.92469 3.271815 0
10.40961 -33.92469 3.321815 0
10.50961 -33.92469 3.271815 0
10.40961 -33.92469 3.471815 0
10.40961 -33.92469 3.621815 0
10.45961 -33.92469 3.521815 0
10.60961 -33.97469 3.271815 0
10.60961 -33.92469 3.271815 0
10.55961 -33.92469 3.371815 0
10.65961 -33.92469 3.321815 0
10.70961 -33.92469 3.271815 0
10.55961 -33.97469 3.521815 0
10.65961 -33.92469 3.521815 0
10.70961 -33.92469 3.521815 0
10.40961 -33.92469 3.921815 0
10.50961 -33.92469 3.871815 0
10.45961 -33.92469 4.021815 0
10.65961 -33.92469 3.671815 0
10.65961 -33.92469 3.871815 0
10.65961 -33.92469 4.021815 0
10.05961 -33.92469 4.121815 0
10.05961 -33.92469 4.371815 0
10.15961 -33.92469 4.071815 0
10.25961 -33.92469 4.071815 0
10.40961 -33.92469 4.171815 0
10.35961 -33.92469 4.421815 0
10.70961 -33.92469 4.221815 0
10.65961 -33.92469 4.421815 0
10.40961 -33.92469 4.471815 0
9.659612 -33.72469 5.021815 0
10.05961 -33.67469 5.071815 0
7.609612 -33.57469 0.9218147 0
7.559612 -33.57469 0.9718148 0
7.609612 -33.62469 0.9718148 0
7.709612 -33.57469 0.8718147 0
7.659612 -33.62469 1.021815 0
7.709612 -33.52469 0.9218147 0
7.659612 -33.47469 0.9718148 0
7.609612 -33.57469 1.071815 0
7.709612 -33.52469 1.071815 0
7.709612 -33.37469 0.9718148 0
7.609612 -33.42469 1.121815 0
7.809612 -33.62469 0.9718148 0
7.809612 -33.57469 1.021815 0
7.809612 -33.52469 0.8718147 0
7.909612 -33.62469 0.9218147 0
7.909612 -33.57469 0.9718148 0
7.909612 -33.52469 1.021815 0
7.859612 -33.47469 1.071815 0
7.809612 -33.42469 0.9218147 0
7.909612 -33.42469 0.8718147 0
7.909612 -33.37469 0.9218147 0
7.809612 -33.22469 1.071815 0
7.909612 -33.12469 1.121815 0
7.609612 -33.17469 1.371815 0
7.709612 -33.12469 1.371815 0
7.609612 -33.07469 1.471815 0
7.709612 -33.02469 1.471815 0
7.809612 -33.07469 1.371815 0
7.909612 -33.02469 1.421815 0
7.859612 -32.97469 1.471815 0
8.009612 -33.47469 1.021815 0
7.959612 -33.37469 0.8718147 0
8.009612 -33.37469 0.9218147 0
8.009612 -33.32469 0.9718148 0
8.059612 -33.32469 0.9218147 0
7.959612 -33.42469 1.071815 0
8.109612 -33.32469 1.071815 0
7.959612 -33.22469 0.9718148 0
8.059612 -33.17469 1.021815 0
8.109612 -33.22469 0.9718148 0
8.059612 -33.12469 0.9718148 0
8.109612 -33.07469 1.071815 0
8.059612 -33.02469 1.121815 0
8.159612 -33.22469 0.9218147 0
8.159612 -33.12469 1.021815 0
8.209612 -33.12469 0.9718148 0
8.159612 -33.02469 0.9718148 0
8.259612 -33.02469 1.021815 0
8.259612 -32.97469 0.9718148 0
8.209612 -32.97469 1.071815 0
8.159612 -32.92469 1.121815 0
8.309612 -32.87469 1.071815 0
8.209612 -32.87469 1.471815 0
7.909612 -32.77469 1.471815 0
7.559612 -32.07469 1.121815 0
7.659612 -32.22469 1.121815 0
7.909612 -32.42469 1.521815 0
8.309612 -32.57469 1.071815 0
7.959612 -32.52469 1.421815 0
8.259612 -32.82469 1.421815 0
8.309612 -32.62469 1.471815 0
8.309612 -32.27469 1.071815 0
8.359612 -32.52469 0.9718148 0
8.359612 -32.42469 1.471815 0
7.609612 -33.47469 1.671815 0
7.609612 -33.32469 1.771815 0
7.759612 -33.37469 1.721815 0
7.809612 -33.42469 1.671815 0
7.759612 -33.32469 1.771815 0
7.609612 -33.17469 1.921815 0
7.659612 -33.22469 1.871815 0
7.759612 -33.12469 1.871815 0
7.759612 -32.87469 1.821815 0
7.859612 -33.02469 1.871815 0
7.609612 -33.17469 2.221815 0
7.659612 -33.02469 2.221815 0
7.559612 -32.92469 2.371815 0
7.809612 -32.92469 2.221815 0
7.959612 -32.92469 1.871815 0
7.809612 -32.52469 1.871815 0
7.659612 -32.82469 2.371815 0
7.759612 -32.72469 2.371815 0
7.859612 -32.72469 2.271815 0
7.809612 -32.57469 2.421815 0
7.909612 -32.37469 2.421815 0
7.959612 -32.57469 2.271815 0
7.609612 -32.72469 2.721815 0
7.709612 -32.52469 2.721815 0
7.609612 -32.72469 2.871815 0
7.659612 -32.42469 2.871815 0
7.559612 -31.97469 1.121815 0
7.909612 -31.92469 1.121815 0
7.559612 -31.37469 1.171815 0
7.709612 -31.32469 1.071815 0
7.609612 -31.57469 1.321815 0
7.659612 -31.27469 1.321815 0
7.559612 -31.42469 1.521815 0
8.159612 -31.87469 1.171815 0
8.159612 -31.77469 1.171815 0
8.209612 -31.67469 1.121815 0
8.159612 -31.67469 1.171815 0
8.109612 -31.47469 1.121815 0
8.209612 -31.57469 1.121815 0
8.159612 -31.57469 1.171815 0
7.959612 -31.37469 1.321815 0
7.609612 -30.97469 0.7718147 0
7.609612 -31.12469 0.9218147 0
7.609612 -31.07469 0.8718147 0
7.709612 -31.17469 0.9218147 0
7.659612 -31.12469 0.9218147 0
7.659612 -31.72469 1.871815 0
7.609612 -31.57469 1.871815 0
9.459612 -33.62469 0.1218147 0
9.509612 -33.62469 0.07181472 0
9.509612 -33.62469 0.1218147 0
9.509612 -33.57469 0.1218147 0
9.459612 -33.62469 0.1718147 0
9.459612 -33.57469 0.1718147 0
9.459612 -33.47469 0.1218147 0
9.509612 -33.52469 0.1218147 0
9.509612 -33.47469 0.1218147 0
9.509612 -33.47469 0.1718147 0
9.459612 -33.42469 0.1218147 0
9.509612 -33.42469 0.1218147 0
9.509612 -33.37469 0.1218147 0
9.509612 -33.42469 0.1718147 0
9.509612 -33.37469 0.1718147 0
9.459612 -33.27469 0.1218147 0
9.509612 -33.32469 0.1218147 0
9.459612 -33.32469 0.1718147 0
9.509612 -33.32469 0.1718147 0
9.459612 -33.57469 0.5218147 0
9.509612 -33.57469 0.5218147 0
9.459612 -33.62469 0.5718147 0
9.459612 -33.62469 0.6218147 0
9.509612 -33.62469 0.5718147 0
9.509612 -33.62469 0.6218147 0
9.509612 -33.57469 0.6218147 0
9.509612 -33.47469 0.5218147 0
9.459612 -33.47469 0.5718147 0
9.509612 -33.52469 0.5718147 0
9.509612 -33.47469 0.5718147 0
9.459612 -33.42469 0.5218147 0
9.509612 -33.42469 0.5218147 0
9.509612 -33.37469 0.5218147 0
9.459612 -33.42469 0.6218147 0
9.509612 -33.42469 0.6218147 0
9.509612 -33.32469 0.5218147 0
9.509612 -33.27469 0.5218147 0
9.509612 -33.32469 0.5718147 0
9.509612 -33.32469 0.6218147 0
9.509612 -33.27469 0.6218147 0
9.459612 -33.42469 0.6718147 0
9.459612 -33.22469 0.1218147 0
9.509612 -33.22469 0.1218147 0
9.509612 -33.17469 0.07181472 0
9.509612 -33.17469 0.1218147 0
9.459612 -33.22469 0.1718147 0
9.459612 -33.17469 0.1718147 0
9.509612 -33.22469 0.1718147 0
9.459612 -33.12469 0.1218147 0
9.509612 -33.12469 0.1218147 0
9.509612 -33.07469 0.1218147 0
9.459612 -33.12469 0.1718147 0
9.459612 -33.07469 0.1718147 0
9.509612 -33.12469 0.1718147 0
9.459612 -33.02469 0.1218147 0
9.459612 -32.97469 0.1218147 0
9.509612 -32.97469 0.1218147 0
9.459612 -33.02469 0.1718147 0
9.459612 -32.97469 0.1718147 0
9.459612 -32.92469 0.1218147 0
9.509612 -32.92469 0.07181472 0
9.509612 -32.92469 0.1218147 0
9.509612 -32.87469 0.1218147 0
9.459612 -32.87469 0.1718147 0
9.509612 -33.22469 0.5218147 0
9.509612 -33.17469 0.5218147 0
9.459612 -33.22469 0.6218147 0
9.459612 -33.17469 0.6218147 0
9.509612 -33.22469 0.5718147 0
9.459612 -33.12469 0.5218147 0
9.459612 -33.07469 0.5218147 0
9.509612 -33.12469 0.5218147 0
9.459612 -33.12469 0.5718147 0
9.459612 -33.12469 0.6218147 0
9.459612 -33.07469 0.6218147 0
9.509612 -33.12469 0.5718147 0
9.509612 -33.07469 0.6218147 0
9.459612 -33.22469 0.6718147 0
9.459612 -33.02469 0.5218147 0
9.459612 -32.97469 0.5218147 0
9.509612 -33.02469 0.5218147 0
9.509612 -32.97469 0.5218147 0
9.459612 -32.97469 0.5718147 0
9.509612 -32.97469 0.5718147 0
9.459612 -32.87469 0.5218147 0
9.509612 -32.92469 0.5218147 0
9.509612 -32.87469 0.5218147 0
9.459612 -32.92469 0.6218147 0
9.459612 -32.87469 0.6218147 0
9.509612 -32.92469 0.5718147 0
9.509612 -32.92469 0.6218147 0
9.509612 -32.87469 0.5718147 0
9.509612 -32.87469 0.6218147 0
9.459612 -32.92469 0.6718147 0
9.559612 -33.37469 0.07181472 0
9.559612 -33.37469 0.1218147 0
9.559612 -33.42469 0.1718147 0
9.559612 -33.62469 0.5218147 0
9.559612 -33.42469 0.5218147 0
9.559612 -33.37469 0.5218147 0
9.459612 -33.57469 0.9218147 0
9.509612 -33.57469 0.8718147 0
9.459612 -33.62469 0.9718148 0
9.509612 -33.62469 0.9718148 0
9.509612 -33.47469 0.8718147 0
9.509612 -33.47469 0.9718148 0
9.509612 -33.47469 1.021815 0
9.509612 -33.42469 0.8718147 0
9.509612 -33.37469 0.8718147 0
9.509612 -33.37469 0.9218147 0
9.509612 -33.37469 0.9718148 0
9.509612 -33.32469 0.8718147 0
9.509612 -33.27469 0.9218147 0
9.509612 -33.32469 0.9718148 0
9.509612 -33.32469 1.021815 0
9.509612 -33.27469 1.071815 0
9.509612 -33.32469 1.221815 0
9.459612 -33.57469 1.271815 0
9.509612 -33.62469 1.371815 0
9.509612 -33.47469 1.371815 0
9.459612 -33.62469 1.471815 0
9.459612 -33.62469 1.521815 0
9.459612 -33.47469 1.471815 0
9.459612 -33.47469 1.571815 0
9.509612 -33.42469 1.271815 0
9.459612 -33.37469 1.371815 0
9.509612 -33.32469 1.471815 0
9.509612 -33.27469 1.571815 0
9.509612 -33.22469 0.8718147 0
9.459612 -33.22469 1.021815 0
9.509612 -33.22469 0.9718148 0
9.509612 -33.17469 0.9718148 0
9.459612 -33.12469 0.8718147 0
9.459612 -33.12469 0.9218147 0
9.509612 -33.12469 0.9218147 0
9.459612 -33.12469 0.9718148 0
9.459612 -33.07469 1.021815 0
9.509612 -33.12469 0.9718148 0
9.459612 -33.12469 1.071815 0
9.509612 -33.12469 1.221815 0
9.459612 -33.02469 0.8718147 0
9.459612 -32.97469 0.8718147 0
9.459612 -32.97469 0.9218147 0
9.459612 -32.97469 0.9718148 0
9.459612 -32.87469 0.8718147 0
9.459612 -32.87469 0.9218147 0
9.459612 -32.87469 1.021815 0
9.459612 -32.92469 1.121815 0
9.459612 -33.17469 1.321815 0
9.459612 -33.22469 1.371815 0
9.459612 -33.12469 1.371815 0
9.459612 -33.22469 1.471815 0
9.459612 -33.07469 1.471815 0
9.459612 -33.12469 1.571815 0
9.459612 -32.97469 1.371815 0
9.509612 -32.92469 1.321815 0
9.509612 -32.87469 1.271815 0
9.459612 -32.87469 1.471815 0
9.459612 -32.92469 1.571815 0
9.559612 -33.62469 0.9218147 0
9.559612 -33.42469 0.9218147 0
9.559612 -33.37469 0.9218147 0
9.459612 -32.77469 0.1218147 0
9.509612 -32.82469 0.1218147 0
9.509612 -32.77469 0.1218147 0
9.459612 -32.82469 0.1718147 0
9.459612 -32.77469 0.1718147 0
9.459612 -32.72469 0.1218147 0
9.459612 -32.67469 0.1218147 0
9.509612 -32.67469 0.07181472 0
9.509612 -32.67469 0.1218147 0
9.459612 -32.72469 0.1718147 0
9.459612 -32.67469 0.1718147 0
9.509612 -32.72469 0.1718147 0
9.509612 -32.62469 0.1218147 0
9.509612 -32.57469 0.1218147 0
9.459612 -32.62469 0.1718147 0
9.459612 -32.57469 0.1718147 0
9.509612 -32.62469 0.1718147 0
9.509612 -32.57469 0.1718147 0
9.459612 -32.52469 0.1218147 0
9.459612 -32.52469 0.1718147 0
9.509612 -32.52469 0.1718147 0
9.509612 -32.47469 0.1718147 0
9.509612 -32.77469 0.5218147 0
9.459612 -32.82469 0.5718147 0
9.509612 -32.82469 0.5718147 0
9.509612 -32.77469 0.5718147 0
9.459612 -32.72469 0.5218147 0
9.459612 -32.67469 0.5218147 0
9.509612 -32.72469 0.5218147 0
9.509612 -32.67469 0.5218147 0
9.459612 -32.72469 0.6218147 0
9.509612 -32.67469 0.5718147 0
9.459612 -32.67469 0.6718147 0
9.459612 -32.62469 0.5218147 0
9.459612 -32.57469 0.5218147 0
9.509612 -32.62469 0.5218147 0
9.459612 -32.57469 0.6218147 0
9.509612 -32.62469 0.5718147 0
9.509612 -32.62469 0.6218147 0
9.509612 -32.57469 0.5718147 0
9.459612 -32.52469 0.5218147 0
9.509612 -32.52469 0.5218147 0
9.509612 -32.47469 0.5218147 0
9.459612 -32.52469 0.6218147 0
9.459612 -32.37469 0.1218147 0
9.509612 -32.42469 0.07181472 0
9.509612 -32.42469 0.1218147 0
9.459612 -32.42469 0.1718147 0
9.509612 -32.42469 0.1718147 0
9.509612 -32.37469 0.1718147 0
9.459612 -32.32469 0.1218147 0
9.509612 -32.27469 0.1218147 0
9.509612 -32.32469 0.1718147 0
9.509612 -32.27469 0.1718147 0
9.509612 -32.22469 0.1218147 0
9.459612 -32.22469 0.1718147 0
9.509612 -32.22469 0.1718147 0
9.459612 -32.07469 0.07181472 0
9.509612 -32.12469 0.1218147 0
9.509612 -32.07469 0.1218147 0
9.509612 -32.12469 0.1718147 0
9.509612 -32.07469 0.1718147 0
9.459612 -32.42469 0.5218147 0
9.509612 -32.42469 0.5218147 0
9.509612 -32.37469 0.5218147 0
9.459612 -32.42469 0.5718147 0
9.459612 -32.37469 0.6218147 0
9.509612 -32.42469 0.5718147 0
9.509612 -32.42469 0.6218147 0
9.509612 -32.37469 0.6218147 0
9.509612 -32.32469 0.5218147 0
9.509612 -32.27469 0.5218147 0
9.459612 -32.32469 0.6218147 0
9.509612 -32.32469 0.5718147 0
9.509612 -32.27469 0.5718147 0
9.459612 -32.37469 0.6718147 0
9.509612 -32.22469 0.5218147 0
9.509612 -32.22469 0.5718147 0
9.509612 -32.22469 0.6218147 0
9.509612 -32.12469 0.5218147 0
9.509612 -32.12469 0.5718147 0
9.509612 -32.12469 0.6218147 0
9.509612 -32.07469 0.5718147 0
9.509612 -32.07469 0.6218147 0
9.459612 -32.07469 0.6718147 0
9.559612 -32.82469 0.1218147 0
9.559612 -32.72469 0.1218147 0
9.559612 -32.67469 0.1218147 0
9.559612 -32.52469 0.1218147 0
9.559612 -32.82469 0.5218147 0
9.559612 -32.77469 0.5718147 0
9.559612 -32.72469 0.5218147 0
9.559612 -32.72469 0.5718147 0
9.559612 -32.52469 0.5218147 0
9.559612 -32.17469 0.07181472 0
9.559612 -32.17469 0.1218147 0
9.559612 -32.12469 0.1218147 0
9.559612 -32.07469 0.1218147 0
9.559612 -32.42469 0.5218147 0
9.559612 -32.27469 0.5218147 0
9.559612 -32.17469 0.5718147 0
9.559612 -32.12469 0.5218147 0
9.559612 -32.12469 0.5718147 0
9.559612 -32.07469 0.5718147 0
9.509612 -32.77469 0.8718147 0
9.509612 -32.72469 0.9218147 0
9.509612 -32.67469 0.8718147 0
9.459612 -32.72469 1.071815 0
9.459612 -32.72469 1.121815 0
9.459612 -32.62469 0.9218147 0
9.509612 -32.62469 0.9218147 0
9.509612 -32.57469 0.8718147 0
9.459612 -32.52469 0.9218147 0
9.509612 -32.47469 0.9218147 0
9.509612 -32.52469 0.9718148 0
9.459612 -32.52469 1.121815 0
9.459612 -32.82469 1.371815 0
9.459612 -32.67469 1.321815 0
9.459612 -32.72469 1.471815 0
9.459612 -32.72469 1.621815 0
9.509612 -32.62469 1.271815 0
9.459612 -32.57469 1.521815 0
9.459612 -32.52469 1.621815 0
9.509612 -32.42469 0.8718147 0
9.509612 -32.37469 0.9218147 0
9.509612 -32.42469 0.9718148 0
9.509612 -32.42469 1.021815 0
9.509612 -32.32469 0.8718147 0
9.509612 -32.27469 0.9218147 0
9.509612 -32.27469 0.9718148 0
9.459612 -32.32469 1.121815 0
9.509612 -32.32469 1.171815 0
9.509612 -32.22469 0.8718147 0
9.509612 -32.22469 0.9218147 0
9.509612 -32.22469 1.021815 0
9.509612 -32.12469 0.8718147 0
9.509612 -32.12469 0.9218147 0
9.509612 -32.07469 1.021815 0
9.509612 -32.37469 1.271815 0
9.509612 -32.37469 1.321815 0
9.509612 -32.42469 1.471815 0
9.509612 -32.37469 1.521815 0
9.459612 -32.32469 1.621815 0
9.509612 -32.12469 1.371815 0
9.509612 -32.22469 1.471815 0
9.509612 -32.22469 1.521815 0
9.509612 -32.07469 1.471815 0
9.509612 -32.12469 1.621815 0
9.559612 -32.82469 0.9718148 0
9.559612 -32.77469 0.9718148 0
9.559612 -32.72469 0.9718148 0
9.559612 -32.67469 0.9718148 0
9.559612 -32.52469 0.9718148 0
9.559612 -32.77469 1.371815 0
9.559612 -32.17469 0.9718148 0
9.559612 -32.17469 1.021815 0
9.459612 -33.57469 1.671815 0
9.509612 -33.62469 1.771815 0
9.509612 -33.57469 1.821815 0
9.459612 -33.47469 1.771815 0
9.459612 -33.57469 2.021815 0
9.509612 -33.62469 2.021815 0
9.459612 -33.52469 1.871815 0
9.459612 -33.47469 2.021815 0
9.509612 -33.47469 2.021815 0
9.509612 -33.42469 1.671815 0
9.459612 -33.37469 1.771815 0
9.459612 -33.32469 1.671815 0
9.509612 -33.42469 1.971815 0
9.509612 -33.32469 1.871815 0
9.509612 -33.32469 1.921815 0
9.509612 -33.32469 2.021815 0
9.509612 -33.62469 2.171815 0
9.509612 -33.47469 2.171815 0
9.459612 -33.57469 2.421815 0
9.459612 -33.52469 2.321815 0
9.459612 -33.47469 2.421815 0
9.459612 -33.37469 2.171815 0
9.509612 -33.27469 2.071815 0
9.459612 -33.37469 2.321815 0
9.459612 -33.32469 2.421815 0
9.509612 -33.22469 1.671815 0
9.509612 -33.22469 1.771815 0
9.459612 -33.12469 1.671815 0
9.459612 -33.12469 1.771815 0
9.459612 -33.22469 1.921815 0
9.459612 -33.17469 1.971815 0
9.509612 -33.22469 2.021815 0
9.459612 -33.07469 1.921815 0
9.509612 -33.12469 1.871815 0
9.459612 -33.12469 2.021815 0
9.459612 -32.97469 1.771815 0
9.459612 -32.97469 2.021815 0
9.459612 -32.87469 1.921815 0
9.509612 -32.87469 1.871815 0
9.509612 -32.92469 1.971815 0
9.509612 -33.22469 2.171815 0
9.459612 -33.12469 2.071815 0
9.459612 -33.12469 2.171815 0
9.509612 -33.22469 2.421815 0
9.509612 -33.17469 2.371815 0
9.509612 -33.12469 2.421815 0
9.459612 -32.97469 2.171815 0
9.459612 -32.92469 2.071815 0
9.509612 -33.02469 2.371815 0
9.509612 -32.87469 2.371815 0
9.559612 -33.32469 2.271815 0
9.559612 -33.07469 2.271815 0
9.459612 -33.62469 2.521815 0
9.509612 -33.57469 2.471815 0
9.459612 -33.62469 2.571815 0
9.459612 -33.47469 2.521815 0
9.459612 -33.47469 2.571815 0
9.509612 -33.57469 2.721815 0
9.459612 -33.57469 2.821815 0
9.509612 -33.57469 2.771815 0
9.459612 -33.52469 2.771815 0
9.459612 -33.47469 2.821815 0
9.509612 -33.37469 2.571815 0
9.459612 -33.27469 2.521815 0
9.509612 -33.32469 2.471815 0
9.509612 -33.42469 2.671815 0
9.509612 -33.32469 2.771815 0
9.509612 -33.32469 2.821815 0
9.459612 -33.62469 2.971815 0
9.509612 -33.62469 2.971815 0
9.459612 -33.47469 2.971815 0
9.509612 -33.52469 3.021815 0
9.509612 -33.47469 3.021815 0
9.509612 -33.57469 3.071815 0
9.509612 -33.57469 3.121815 0
9.459612 -33.57469 3.171815 0
9.509612 -33.47469 3.121815 0
9.459612 -33.52469 3.221815 0
9.459612 -33.47469 3.221815 0
9.509612 -33.37469 2.971815 0
9.509612 -33.32469 3.021815 0
9.509612 -33.27469 3.021815 0
9.509612 -33.37469 3.221815 0
9.509612 -33.32469 3.121815 0
9.509612 -33.32469 3.221815 0
9.509612 -33.22469 2.571815 0
9.509612 -33.07469 2.571815 0
9.509612 -33.07469 2.621815 0
9.509612 -33.22469 2.821815 0
9.509612 -33.17469 2.821815 0
9.509612 -33.12469 2.671815 0
9.509612 -33.12469 2.821815 0
9.509612 -32.97469 2.621815 0
9.509612 -32.92469 2.571815 0
9.509612 -33.02469 2.821815 0
9.509612 -32.97469 2.821815 0
9.509612 -32.87469 2.821815 0
9.509612 -33.22469 3.021815 0
9.509612 -33.17469 2.971815 0
9.509612 -33.07469 3.021815 0
9.509612 -33.22469 3.121815 0
9.509612 -33.22469 3.221815 0
9.509612 -33.07469 3.071815 0
9.509612 -33.12469 3.221815 0
9.509612 -32.97469 3.021815 0
9.509612 -33.02469 3.121815 0
9.509612 -32.97469 3.221815 0
9.509612 -32.87469 3.071815 0
9.509612 -32.87469 3.221815 0
9.559612 -33.42469 2.471815 0
9.559612 -33.32469 2.821815 0
9.559612 -33.42469 2.871815 0
9.559612 -33.07469 2.471815 0
9.559612 -33.12469 2.721815 0
9.559612 -32.97469 2.471815 0
9.559612 -32.87469 2.521815 0
9.559612 -32.87469 2.671815 0
9.559612 -33.07469 2.871815 0
9.559612 -33.07469 3.121815 0
9.559612 -32.97469 2.971815 0
9.559612 -32.87469 3.221815 0
9.459612 -32.82469 1.771815 0
9.509612 -32.77469 1.971815 0
9.459612 -32.72469 1.921815 0
9.509612 -32.67469 2.021815 0
9.509612 -32.62469 1.871815 0
9.459612 -32.57469 1.971815 0
9.509612 -32.57469 1.971815 0
9.459612 -32.82469 2.221815 0
9.459612 -32.72469 2.071815 0
9.459612 -32.72469 2.221815 0
9.509612 -32.72469 2.421815 0
9.459612 -32.57469 2.221815 0
9.509612 -32.57469 2.221815 0
9.459612 -32.52469 2.121815 0
9.509612 -32.52469 2.421815 0
9.509612 -32.37469 1.771815 0
9.509612 -32.27469 1.771815 0
9.509612 -32.37469 1.921815 0
9.459612 -32.42469 1.971815 0
9.509612 -32.42469 1.971815 0
9.509612 -32.12469 1.771815 0
9.509612 -32.22469 1.921815 0
9.509612 -32.12469 1.921815 0
9.509612 -32.07469 1.921815 0
9.509612 -32.42469 2.171815 0
9.459612 -32.32469 2.121815 0
9.509612 -32.27469 2.171815 0
9.509612 -32.37469 2.421815 0
9.509612 -32.12469 2.121815 0
9.509612 -32.12469 2.171815 0
9.509612 -32.22469 2.421815 0
9.559612 -32.82469 1.771815 0
9.559612 -32.82469 2.321815 0
9.559612 -32.57469 2.321815 0
9.559612 -32.62469 2.421815 0
9.559612 -32.07469 1.771815 0
9.559612 -32.42469 2.421815 0
9.559612 -32.32469 2.371815 0
9.559612 -32.27469 2.421815 0
9.559612 -32.07469 2.371815 0
9.509612 -32.82469 2.621815 0
9.509612 -32.67469 2.621815 0
9.509612 -32.47469 2.621815 0
9.509612 -32.52469 2.671815 0
9.509612 -32.82469 3.021815 0
9.509612 -32.72469 2.871815 0
9.509612 -32.67469 3.071815 0
9.509612 -32.67469 3.121815 0
9.509612 -32.57469 2.871815 0
9.509612 -32.57469 3.071815 0
9.509612 -32.47469 3.121815 0
9.509612 -32.42469 2.671815 0
9.509612 -32.37469 2.871815 0
9.509612 -32.42469 3.071815 0
9.509612 -32.27469 3.171815 0
9.509612 -32.22469 2.921815 0
9.509612 -32.07469 2.921815 0
9.559612 -32.77469 2.471815 0
9.559612 -32.57469 2.521815 0
9.559612 -32.82469 2.871815 0
9.559612 -32.77469 2.921815 0
9.559612 -32.82469 3.121815 0
9.559612 -32.72469 3.071815 0
9.559612 -32.62469 2.921815 0
9.559612 -32.57469 2.921815 0
9.559612 -32.57469 3.171815 0
9.559612 -32.52469 3.071815 0
9.609612 -32.52469 3.121815 0
9.609612 -32.47469 3.171815 0
9.559612 -32.42469 2.621815 0
9.559612 -32.32469 2.571815 0
9.559612 -32.32469 2.621815 0
9.559612 -32.27469 2.671815 0
9.559612 -32.17469 2.621815 0
9.559612 -32.07469 2.571815 0
9.609612 -32.22469 2.671815 0
9.559612 -32.07469 2.671815 0
9.559612 -32.12469 2.821815 0
9.559612 -32.42469 2.921815 0
9.559612 -32.27469 2.871815 0
9.559612 -32.32469 2.971815 0
9.559612 -32.27469 3.021815 0
9.559612 -32.42469 3.071815 0
9.559612 -32.37469 3.221815 0
9.559612 -32.27469 3.121815 0
9.559612 -32.32469 3.221815 0
9.559612 -32.27469 3.221815 0
9.609612 -32.32469 3.171815 0
9.559612 -32.17469 3.021815 0
9.559612 -32.12469 2.871815 0
9.559612 -32.17469 3.221815 0
9.609612 -32.22469 3.221815 0
9.559612 -32.12469 3.121815 0
9.559612 -32.07469 3.171815 0
9.609612 -32.07469 3.221815 0
9.509612 -31.97469 0.1218147 0
9.509612 -32.02469 0.1718147 0
9.509612 -31.97469 0.1718147 0
9.509612 -31.87469 0.1218147 0
9.509612 -31.87469 0.1718147 0
9.509612 -31.82469 0.1718147 0
9.509612 -31.77469 0.1718147 0
9.509612 -31.72469 0.1218147 0
9.509612 -31.72469 0.1718147 0
9.509612 -31.67469 0.1718147 0
9.509612 -32.02469 0.5218147 0
9.509612 -31.97469 0.5218147 0
9.509612 -31.97469 0.5718147 0
9.509612 -31.87469 0.5218147 0
9.509612 -31.87469 0.5718147 0
9.509612 -31.87469 0.6218147 0
9.509612 -31.77469 0.5218147 0
9.509612 -31.72469 0.5218147 0
9.509612 -31.67469 0.5218147 0
9.509612 -31.72469 0.6218147 0
9.509612 -31.67469 0.5718147 0
9.509612 -31.62469 0.1718147 0
9.509612 -31.57469 0.1718147 0
9.509612 -31.47469 0.07181472 0
9.509612 -31.52469 0.1718147 0
9.509612 -31.42469 0.1718147 0
9.509612 -31.37469 0.1718147 0
9.509612 -31.32469 0.1718147 0
9.509612 -31.27469 0.1718147 0
9.509612 -31.62469 0.5218147 0
9.509612 -31.57469 0.5218147 0
9.509612 -31.62469 0.5718147 0
9.509612 -31.57469 0.5718147 0
9.509612 -31.52469 0.5218147 0
9.509612 -31.52469 0.6218147 0
9.509612 -31.47469 0.6718147 0
9.509612 -31.37469 0.5718147 0
9.509612 -31.32469 0.5218147 0
9.509612 -31.32469 0.6218147 0
9.509612 -31.27469 0.5718147 0
9.559612 -32.02469 0.1218147 0
9.559612 -31.87469 0.07181472 0
9.559612 -31.87469 0.1218147 0
9.559612 -31.82469 0.1218147 0
9.609612 -31.82469 0.07181472 0
9.559612 -31.77469 0.1718147 0
9.559612 -31.72469 0.07181472 0
9.559612 -31.72469 0.1218147 0
9.559612 -31.67469 0.1218147 0
9.559612 -31.67469 0.1718147 0
9.559612 -32.02469 0.5218147 0
9.559612 -32.02469 0.6218147 0
9.559612 -31.87469 0.5218147 0
9.559612 -31.92469 0.5718147 0
9.559612 -31.82469 0.5718147 0
9.559612 -31.82469 0.6218147 0
9.559612 -31.77469 0.5718147 0
9.609612 -31.82469 0.5718147 0
9.559612 -31.72469 0.5718147 0
9.559612 -31.72469 0.6718147 0
9.559612 -31.62469 0.1218147 0
9.559612 -31.57469 0.07181472 0
9.559612 -31.57469 0.1218147 0
9.559612 -31.57469 0.1718147 0
9.609612 -31.47469 0.07181472 0
9.559612 -31.52469 0.1718147 0
9.559612 -31.47469 0.1718147 0
9.559612 -31.42469 0.1218147 0
9.559612 -31.42469 0.1718147 0
9.559612 -31.27469 0.1218147 0
9.559612 -31.32469 0.1718147 0
9.559612 -31.57469 0.5218147 0
9.559612 -31.62469 0.5718147 0
9.559612 -31.62469 0.6218147 0
9.559612 -31.57469 0.5718147 0
9.559612 -31.57469 0.6218147 0
9.559612 -31.52469 0.5218147 0
9.559612 -31.47469 0.5218147 0
9.559612 -31.52469 0.6218147 0
9.559612 -31.47469 0.5718147 0
9.609612 -31.47469 0.5718147 0
9.559612 -31.42469 0.5218147 0
9.559612 -31.42469 0.5718147 0
9.559612 -31.42469 0.6218147 0
9.559612 -31.32469 0.5218147 0
9.559612 -31.27469 0.5718147 0
9.559612 -31.32469 0.6718147 0
9.509612 -32.02469 0.9218147 0
9.509612 -31.97469 0.8718147 0
9.509612 -31.97469 0.9218147 0
9.509612 -31.87469 0.8718147 0
9.509612 -31.87469 0.9218147 0
9.509612 -31.77469 0.8718147 0
9.509612 -31.77469 0.9218147 0
9.509612 -31.72469 0.9218147 0
9.509612 -31.67469 0.8718147 0
9.509612 -31.97469 1.371815 0
9.509612 -31.92469 1.471815 0
9.509612 -31.77469 1.271815 0
9.509612 -31.72469 1.321815 0
9.509612 -31.67469 1.271815 0
9.509612 -31.72469 1.471815 0
9.509612 -31.62469 0.8718147 0
9.509612 -31.62469 0.9218147 0
9.509612 -31.57469 0.8718147 0
9.509612 -31.57469 0.9218147 0
9.509612 -31.52469 0.8718147 0
9.509612 -31.52469 0.9218147 0
9.509612 -31.42469 0.8718147 0
9.509612 -31.27469 0.9218147 0
9.509612 -31.52469 1.621815 0
9.509612 -31.42469 1.271815 0
9.509612 -31.42469 1.621815 0
9.509612 -31.32469 1.621815 0
9.559612 -31.92469 1.021815 0
9.609612 -31.82469 1.021815 0
9.559612 -31.67469 0.9218147 0
9.559612 -31.72469 1.021815 0
9.559612 -31.87469 1.321815 0
9.559612 -31.77469 1.621815 0
9.559612 -31.57469 1.021815 0
9.559612 -31.47469 0.9218147 0
9.609612 -31.47469 1.021815 0
9.559612 -31.42469 0.9218147 0
9.559612 -31.42469 1.021815 0
9.559612 -31.32469 0.8718147 0
9.559612 -31.32469 0.9218147 0
9.559612 -31.27469 1.021815 0
9.559612 -31.57469 1.321815 0
9.559612 -31.52469 1.271815 0
9.559612 -31.47469 1.321815 0
9.559612 -31.57469 1.471815 0
9.559612 -31.42469 1.421815 0
9.559612 -31.32469 1.271815 0
9.559612 -31.32469 1.321815 0
9.559612 -31.22469 0.1218147 0
9.609612 -31.22469 0.07181472 0
9.609612 -31.22469 0.1218147 0
9.559612 -31.22469 0.1718147 0
9.609612 -31.22469 0.1718147 0
9.609612 -31.17469 0.1718147 0
9.559612 -31.07469 0.07181472 0
9.609612 -31.12469 0.1218147 0
9.609612 -31.07469 0.1218147 0
9.559612 -31.12469 0.1718147 0
9.559612 -31.07469 0.1718147 0
9.609612 -31.07469 0.1718147 0
9.609612 -31.02469 0.1218147 0
9.609612 -30.97469 0.1218147 0
9.559612 -30.97469 0.1718147 0
9.609612 -30.97469 0.1718147 0
9.609612 -30.87469 0.1218147 0
9.559612 -30.92469 0.1718147 0
9.559612 -30.87469 0.1718147 0
9.609612 -30.92469 0.1718147 0
