# .PCD v0.7 - Point Cloud Data file format
VERSION 0.7
FIELDS x y z intensity
SIZE 4 4 4 4
TYPE F F F F
COUNT 1 1 1 1
WIDTH 1561
HEIGHT 1
VIEWPOINT 0 0 0 1 0 0 0
POINTS 1561
DATA ascii
-22.19039 39.22531 2.621815 0
-22.24039 39.27531 2.571815 0
-22.24039 39.32531 2.621815 0
-22.24039 39.37531 2.571815 0
-22.24039 39.42531 2.571815 0
-22.44039 39.62531 2.521815 0
-22.39039 39.72531 2.521815 0
-22.34039 39.62531 2.521815 0
-22.34039 39.57531 2.571815 0
-22.34039 39.62531 2.571815 0
-22.29039 39.57531 2.571815 0
-22.29039 39.57531 2.621815 0
-22.34039 39.72531 2.571815 0
-22.34039 39.72531 2.621815 0
-22.44039 39.82531 2.521815 0
-22.44039 39.87531 2.521815 0
-22.39039 39.87531 2.571815 0
-22.39039 39.92531 2.571815 0
-22.34039 39.82531 2.621815 0
-22.04039 38.37531 2.171815 0
-22.04039 38.42531 2.171815 0
-22.04039 38.42531 2.221815 0
-21.94039 38.37531 2.221815 0
-21.89039 38.37531 2.171815 0
-21.99039 38.52531 2.321815 0
-21.94039 38.52531 2.321815 0
-21.94039 38.47531 2.371815 0
-22.04039 38.57531 2.371815 0
-21.99039 38.62531 2.371815 0
-22.04039 38.67531 2.421815 0
-21.84039 38.37531 2.221815 0
-21.84039 38.42531 2.421815 0
-21.84039 38.57531 2.421815 0
-21.74039 38.57531 2.421815 0
-21.69039 38.67531 2.271815 0
-21.99039 38.82531 2.071815 0
-21.99039 38.97531 2.121815 0
-21.79039 38.87531 2.221815 0
-21.74039 38.77531 2.221815 0
-21.69039 38.92531 2.221815 0
-21.79039 38.87531 2.321815 0
-21.74039 38.77531 2.271815 0
-21.69039 38.87531 2.271815 0
-21.74039 38.97531 2.321815 0
-21.74039 39.02531 2.321815 0
-21.69039 39.12531 2.271815 0
-21.59039 38.52531 2.321815 0
-21.64039 38.52531 2.421815 0
-21.49039 38.37531 2.321815 0
-21.54039 38.47531 2.271815 0
-21.54039 38.52531 2.321815 0
-21.64039 38.67531 2.221815 0
-21.64039 38.62531 2.271815 0
-21.59039 38.57531 2.271815 0
-21.59039 38.67531 2.321815 0
-21.54039 38.62531 2.321815 0
-21.44039 38.37531 2.371815 0
-21.64039 38.77531 2.271815 0
-21.54039 38.92531 2.421815 0
-21.64039 39.12531 2.171815 0
-21.64039 39.12531 2.221815 0
-21.64039 38.97531 2.321815 0
-21.59039 39.12531 2.271815 0
-21.49039 39.12531 2.371815 0
-21.94039 38.67531 2.471815 0
-21.69039 38.37531 2.471815 0
-21.84039 38.62531 2.471815 0
-21.74039 38.57531 2.471815 0
-21.99039 38.82531 2.621815 0
-21.64039 38.52531 2.521815 0
-21.54039 38.52531 2.521815 0
-21.44039 38.47531 2.571815 0
-21.54039 39.27531 2.221815 0
-21.54039 39.32531 2.171815 0
-21.49039 39.32531 2.221815 0
-21.64039 39.17531 2.271815 0
-21.59039 39.27531 2.271815 0
-21.49039 39.42531 2.171815 0
-21.54039 39.37531 2.271815 0
-21.49039 39.47531 2.271815 0
-21.44039 39.27531 2.371815 0
-21.29039 39.32531 2.271815 0
-21.39039 39.37531 2.321815 0
-21.44039 39.52531 2.271815 0
-21.34039 39.42531 2.321815 0
-21.29039 39.52531 2.321815 0
-21.39039 39.62531 2.271815 0
-21.69039 39.82531 2.771815 0
-21.49039 39.32531 2.721815 0
-21.64039 39.52531 2.771815 0
-21.54039 39.52531 2.721815 0
-21.34039 39.27531 2.721815 0
-21.44039 39.42531 2.721815 0
-21.29039 39.47531 2.721815 0
-21.64039 39.67531 2.771815 0
-21.54039 39.72531 2.721815 0
-21.49039 39.92531 2.721815 0
-21.39039 39.72531 2.721815 0
-21.34039 39.62531 2.721815 0
-21.44039 39.82531 2.721815 0
-23.74039 38.97531 3.371815 0
-23.59039 38.77531 3.371815 0
-23.64039 38.87531 3.371815 0
-23.54039 38.77531 3.371815 0
-23.54039 39.92531 3.721815 0
-23.34039 39.72531 3.721815 0
-23.44039 39.82531 3.721815 0
-23.19039 39.52531 3.671815 0
-23.24039 39.62531 3.671815 0
-22.49039 39.77531 4.571815 0
-27.24039 40.07531 0.2718147 0
-27.24039 40.07531 0.3718147 0
-27.24039 40.07531 0.4218147 0
-27.19039 40.07531 0.3718147 0
-27.19039 40.07531 0.4218147 0
-27.14039 40.07531 0.2718147 0
-27.09039 40.07531 0.2718147 0
-27.09039 40.07531 0.4218147 0
-27.14039 40.27531 0.3218147 0
-26.99039 40.02531 0.2718147 0
-26.99039 40.02531 0.3718147 0
-26.99039 40.02531 0.4218147 0
-27.04039 40.07531 0.3718147 0
-27.04039 40.17531 0.3218147 0
-27.24039 40.37531 0.1718147 0
-27.19039 40.37531 0.1718147 0
-27.24039 40.42531 0.3218147 0
-27.24039 40.42531 0.3718147 0
-27.24039 40.47531 0.3218147 0
-27.24039 40.47531 0.3718147 0
-27.24039 40.47531 0.4218147 0
-27.24039 40.42531 0.4718147 0
-27.24039 40.42531 0.5218147 0
-27.24039 40.47531 0.4718147 0
-27.24039 40.47531 0.5218147 0
-26.94039 41.57531 0.07181472 0
-26.99039 41.77531 0.07181472 0
-27.04039 41.97531 0.07181472 0
-27.04039 42.17531 0.07181472 0
-26.89039 42.32531 0.2718147 0
-26.89039 42.32531 0.3718147 0
-26.89039 42.32531 0.4218147 0
-27.09039 42.62531 0.07181472 0
-27.04039 42.42531 0.07181472 0
-26.89039 42.62531 0.1718147 0
-26.89039 42.67531 0.3218147 0
-26.89039 42.72531 0.3218147 0
-26.89039 42.67531 0.3718147 0
-26.89039 42.72531 0.3718147 0
-26.89039 42.72531 0.4218147 0
-26.89039 42.67531 0.4718147 0
-26.89039 42.72531 0.4718147 0
-26.89039 42.72531 0.5218147 0
-27.09039 42.82531 0.07181472 0
-27.09039 43.02531 0.07181472 0
-26.79039 42.32531 0.2718147 0
-26.79039 42.32531 0.3718147 0
-26.79039 42.32531 0.4218147 0
-26.69039 42.32531 0.2718147 0
-26.74039 42.32531 0.4218147 0
-26.69039 42.32531 0.3718147 0
-26.64039 42.32531 0.2718147 0
-26.64039 42.32531 0.3718147 0
-26.64039 42.32531 0.4218147 0
-26.79039 42.52531 0.3218147 0
-26.69039 42.42531 0.3218147 0
-26.84039 42.62531 0.1718147 0
-24.64039 40.02531 0.1218147 0
-24.59039 39.97531 0.1218147 0
-24.59039 40.02531 0.07181472 0
-24.59039 40.12531 0.07181472 0
-24.49039 39.97531 0.1718147 0
-24.49039 40.02531 0.1718147 0
-24.54039 40.07531 0.1218147 0
-24.49039 40.12531 0.1718147 0
-24.64039 40.17531 0.1218147 0
-24.59039 40.22531 0.07181472 0
-24.64039 40.32531 0.1218147 0
-24.54039 40.17531 0.07181472 0
-24.54039 40.22531 0.1718147 0
-24.54039 40.27531 0.1218147 0
-24.54039 40.32531 0.07181472 0
-24.54039 40.32531 0.1218147 0
-24.49039 40.32531 0.1218147 0
-24.59039 40.42531 0.1218147 0
-24.54039 40.37531 0.1218147 0
-24.54039 40.42531 0.07181472 0
-24.54039 40.37531 0.1718147 0
-24.54039 40.42531 0.1718147 0
-24.54039 40.47531 0.1218147 0
-24.54039 40.52531 0.07181472 0
-24.54039 40.52531 0.1218147 0
-24.59039 40.57531 0.1218147 0
-24.59039 40.72531 0.1218147 0
-24.54039 40.57531 0.1218147 0
-24.54039 40.62531 0.07181472 0
-24.54039 40.62531 0.1218147 0
-24.54039 40.67531 0.07181472 0
-24.54039 40.67531 0.1218147 0
-24.54039 40.72531 0.07181472 0
-24.54039 40.72531 0.1218147 0
-24.59039 40.87531 0.1218147 0
-24.54039 40.77531 0.07181472 0
-24.54039 40.77531 0.1218147 0
-24.54039 40.82531 0.1218147 0
-24.54039 40.92531 0.1218147 0
-24.49039 40.87531 0.07181472 0
-24.49039 40.87531 0.1718147 0
-24.49039 40.92531 0.1718147 0
-24.59039 41.02531 0.1718147 0
-24.54039 40.97531 0.1218147 0
-24.49039 40.97531 0.07181472 0
-24.49039 41.07531 0.07181472 0
-24.49039 41.07531 0.1218147 0
-24.49039 41.12531 0.1218147 0
-24.54039 41.12531 0.1718147 0
-24.49039 41.17531 0.07181472 0
-24.49039 41.22531 0.1218147 0
-24.49039 41.27531 0.07181472 0
-24.49039 41.32531 0.07181472 0
-24.59039 41.47531 0.07181472 0
-24.49039 41.37531 0.07181472 0
-24.49039 41.42531 0.1218147 0
-24.49039 41.47531 0.07181472 0
-24.49039 41.52531 0.1218147 0
-24.59039 41.57531 0.07181472 0
-24.54039 41.62531 0.07181472 0
-24.49039 41.57531 0.07181472 0
-24.54039 41.72531 0.07181472 0
-24.49039 41.72531 0.1218147 0
-24.49039 41.77531 0.07181472 0
-27.09039 43.22531 0.07181472 0
-27.14039 43.47531 0.07181472 0
-27.14039 43.67531 0.07181472 0
-27.14039 43.87531 0.07181472 0
-27.09039 44.07531 0.07181472 0
-27.14039 44.27531 0.07181472 0
-27.09039 44.52531 0.07181472 0
-27.09039 44.72531 0.07181472 0
-27.09039 44.92531 0.07181472 0
-27.09039 45.12531 0.07181472 0
-27.09039 45.37531 0.07181472 0
-27.04039 45.57531 0.07181472 0
-27.04039 45.77531 0.07181472 0
-27.04039 45.97531 0.07181472 0
-26.99039 46.17531 0.07181472 0
-26.59039 44.92531 0.2718147 0
-26.59039 44.92531 0.3718147 0
-26.54039 44.87531 0.2718147 0
-26.54039 44.87531 0.3718147 0
-26.54039 44.87531 0.4218147 0
-26.64039 44.97531 0.3718147 0
-26.59039 44.97531 0.4218147 0
-26.44039 44.82531 0.2718147 0
-26.39039 44.77531 0.2718147 0
-26.44039 44.82531 0.3718147 0
-26.44039 44.82531 0.4218147 0
-26.39039 44.77531 0.3718147 0
-26.39039 44.77531 0.4218147 0
-26.39039 44.87531 0.3218147 0
-26.39039 45.02531 0.3218147 0
-26.39039 45.17531 0.1718147 0
-26.39039 45.22531 0.3718147 0
-26.34039 45.27531 0.3218147 0
-26.34039 45.27531 0.4218147 0
-26.39039 45.22531 0.4718147 0
-26.39039 45.22531 0.5218147 0
-26.34039 45.27531 0.5218147 0
-24.69039 46.22531 0.2718147 0
-24.69039 46.22531 0.4218147 0
-24.69039 46.32531 0.2718147 0
-24.69039 46.32531 0.3718147 0
-24.69039 46.32531 0.4218147 0
-24.64039 46.12531 0.2718147 0
-24.64039 46.12531 0.3718147 0
-24.64039 46.17531 0.4218147 0
-24.64039 46.22531 0.3718147 0
-24.54039 46.27531 0.3218147 0
-23.94039 40.12531 0.1718147 0
-23.89039 40.07531 0.1718147 0
-23.84039 40.02531 0.1718147 0
-24.44039 40.97531 0.1718147 0
-24.39039 41.07531 0.1718147 0
-24.34039 41.12531 0.1718147 0
-24.44039 41.17531 0.1718147 0
-24.29039 41.22531 0.1218147 0
-24.34039 41.22531 0.1718147 0
-24.29039 41.27531 0.1718147 0
-24.29039 41.32531 0.1718147 0
-24.44039 41.47531 0.07181472 0
-24.44039 41.52531 0.07181472 0
-24.19039 41.32531 0.1718147 0
-24.24039 41.42531 0.1718147 0
-24.24039 41.52531 0.1718147 0
-24.14039 41.37531 0.1718147 0
-24.04039 41.42531 0.1718147 0
-23.94039 41.47531 0.1718147 0
-23.19039 40.02531 0.1718147 0
-23.19039 40.07531 0.1718147 0
-23.14039 40.12531 0.1718147 0
-23.09039 40.22531 0.1718147 0
-22.89039 40.02531 0.1718147 0
-22.89039 40.12531 0.1718147 0
-22.99039 40.32531 0.1718147 0
-22.89039 40.22531 0.1718147 0
-22.94039 40.27531 0.1718147 0
-22.99039 40.42531 0.1718147 0
-22.94039 40.37531 0.1718147 0
-22.94039 40.47531 0.1718147 0
-22.94039 40.52531 0.1718147 0
-22.99039 40.67531 0.1718147 0
-22.94039 40.57531 0.1718147 0
-22.89039 40.62531 0.1718147 0
-23.09039 41.07531 0.1718147 0
-23.09039 41.12531 0.1718147 0
-22.99039 40.77531 0.1718147 0
-22.99039 40.82531 0.1718147 0
-23.04039 40.87531 0.1718147 0
-22.89039 40.82531 0.1718147 0
-22.94039 40.92531 0.1718147 0
-23.04039 40.97531 0.1718147 0
-22.99039 41.02531 0.1718147 0
-23.09039 41.22531 0.1718147 0
-23.14039 41.27531 0.1718147 0
-23.14039 41.32531 0.1718147 0
-23.19039 41.42531 0.1718147 0
-23.24039 41.47531 0.1718147 0
-23.24039 41.52531 0.1718147 0
-23.09039 41.42531 0.1718147 0
-23.14039 41.52531 0.1718147 0
-22.99039 41.17531 0.1718147 0
-23.04039 41.27531 0.1718147 0
-24.44039 41.67531 0.07181472 0
-24.44039 41.77531 0.07181472 0
-24.44039 41.77531 0.1218147 0
-24.44039 41.82531 0.07181472 0
-24.44039 41.87531 0.07181472 0
-24.39039 41.87531 0.07181472 0
-24.39039 41.87531 0.1218147 0
-24.39039 41.92531 0.07181472 0
-24.34039 41.87531 0.1218147 0
-24.34039 41.92531 0.1218147 0
-24.19039 41.62531 0.1718147 0
-24.19039 41.72531 0.1718147 0
-24.24039 41.92531 0.07181472 0
-24.14039 41.82531 0.1718147 0
-24.14039 41.92531 0.1718147 0
-24.34039 41.97531 0.07181472 0
-24.29039 41.97531 0.07181472 0
-24.24039 41.97531 0.1218147 0
-24.24039 42.02531 0.07181472 0
-24.19039 41.97531 0.1218147 0
-24.14039 42.02531 0.07181472 0
-24.09039 42.02531 0.07181472 0
-24.09039 42.02531 0.1218147 0
-24.14039 42.02531 0.1718147 0
-24.14039 42.12531 0.07181472 0
-24.09039 42.07531 0.07181472 0
-24.14039 42.07531 0.1718147 0
-23.89039 41.57531 0.1718147 0
-23.79039 41.62531 0.1718147 0
-23.74039 41.67531 0.1718147 0
-23.69039 41.72531 0.1718147 0
-24.04039 42.02531 0.07181472 0
-23.99039 42.02531 0.07181472 0
-24.04039 42.02531 0.1718147 0
-23.99039 42.07531 0.1218147 0
-23.99039 42.12531 0.1218147 0
-23.99039 42.07531 0.1718147 0
-23.94039 42.02531 0.07181472 0
-23.89039 42.02531 0.1718147 0
-23.94039 42.07531 0.07181472 0
-23.84039 42.02531 0.07181472 0
-23.84039 42.02531 0.1218147 0
-23.84039 42.07531 0.07181472 0
-23.84039 42.07531 0.1718147 0
-23.74039 42.02531 0.07181472 0
-23.74039 42.07531 0.1218147 0
-23.69039 42.07531 0.1218147 0
-23.64039 41.77531 0.1718147 0
-23.59039 41.82531 0.1718147 0
-23.54039 41.87531 0.1718147 0
-23.49039 41.92531 0.1718147 0
-23.29039 41.57531 0.1718147 0
-23.29039 41.62531 0.1718147 0
-23.34039 41.72531 0.1718147 0
-23.39039 41.77531 0.1718147 0
-23.44039 41.87531 0.1718147 0
-23.64039 42.02531 0.07181472 0
-23.64039 42.02531 0.1218147 0
-23.59039 42.07531 0.1218147 0
-23.54039 42.02531 0.07181472 0
-23.54039 42.02531 0.1218147 0
-23.54039 42.02531 0.1718147 0
-23.49039 41.97531 0.1718147 0
-23.49039 42.07531 0.1218147 0
-23.44039 42.02531 0.1218147 0
-23.39039 42.02531 0.1218147 0
-23.44039 41.97531 0.1718147 0
-23.44039 42.07531 0.1218147 0
-23.34039 42.02531 0.1218147 0
-23.29039 42.02531 0.1218147 0
-23.34039 42.02531 0.1718147 0
-23.29039 42.07531 0.1218147 0
-23.14039 41.62531 0.1718147 0
-23.19039 41.77531 0.1718147 0
-23.24039 41.87531 0.1718147 0
-23.24039 42.02531 0.1218147 0
-23.19039 42.02531 0.1218147 0
-23.24039 42.02531 0.1718147 0
-23.14039 42.02531 0.1218147 0
-23.09039 42.02531 0.1218147 0
-23.14039 42.02531 0.1718147 0
-23.04039 42.02531 0.1218147 0
-22.99039 42.02531 0.1218147 0
-23.04039 42.02531 0.1718147 0
-22.94039 42.02531 0.1218147 0
-22.89039 41.97531 0.07181472 0
-22.89039 42.02531 0.1218147 0
-22.94039 42.02531 0.1718147 0
-22.69039 40.22531 0.1718147 0
-22.74039 40.32531 0.1718147 0
-22.59039 39.97531 0.1718147 0
-22.64039 40.12531 0.1718147 0
-22.79039 40.47531 0.1718147 0
-22.84039 40.57531 0.1718147 0
-22.84039 40.67531 0.1718147 0
-22.84039 40.72531 0.1718147 0
-22.79039 40.82531 0.1718147 0
-22.74039 40.87531 0.1718147 0
-22.74039 40.97531 0.1718147 0
-22.74039 41.07531 0.1718147 0
-22.69039 41.12531 0.1718147 0
-22.69039 41.17531 0.1718147 0
-22.64039 41.27531 0.1718147 0
-22.64039 41.37531 0.1718147 0
-22.64039 41.47531 0.1718147 0
-22.49039 39.97531 2.521815 0
-22.49039 40.07531 2.521815 0
-22.39039 39.97531 2.571815 0
-22.44039 40.07531 2.571815 0
-22.44039 40.12531 2.571815 0
-22.44039 40.17531 2.571815 0
-21.69039 40.02531 2.721815 0
-22.59039 41.57531 0.1718147 0
-22.59039 41.67531 0.1718147 0
-22.59039 41.77531 0.1718147 0
-22.59039 41.87531 0.1718147 0
-22.54039 41.92531 0.1718147 0
-22.84039 42.02531 0.1218147 0
-22.79039 41.97531 0.07181472 0
-22.79039 42.02531 0.1218147 0
-22.84039 42.02531 0.1718147 0
-22.79039 42.02531 0.1718147 0
-22.74039 42.02531 0.1218147 0
-22.69039 41.97531 0.07181472 0
-22.69039 42.02531 0.1218147 0
-22.74039 42.02531 0.1718147 0
-22.59039 41.97531 0.07181472 0
-22.59039 41.97531 0.1218147 0
-22.59039 42.02531 0.1218147 0
-22.64039 42.02531 0.1718147 0
-22.59039 41.97531 0.1718147 0
-22.59039 42.02531 0.1718147 0
-22.54039 42.02531 0.1218147 0
-22.49039 41.97531 0.07181472 0
-22.49039 42.02531 0.1218147 0
-22.54039 42.02531 0.1718147 0
-22.44039 42.02531 0.1218147 0
-22.39039 41.97531 0.07181472 0
-22.39039 42.02531 0.1218147 0
-22.44039 42.02531 0.1718147 0
-22.39039 42.02531 0.1718147 0
-22.34039 41.97531 0.07181472 0
-22.34039 42.02531 0.1218147 0
-22.29039 42.02531 0.1218147 0
-22.34039 42.02531 0.1718147 0
-22.24039 41.97531 0.07181472 0
-22.24039 42.02531 0.1218147 0
-22.19039 41.97531 0.1218147 0
-22.19039 42.02531 0.1218147 0
-22.24039 42.02531 0.1718147 0
-22.14039 41.97531 0.07181472 0
-22.09039 41.97531 0.1218147 0
-22.09039 42.02531 0.1218147 0
-22.14039 42.02531 0.1718147 0
-21.74039 41.87531 0.1218147 0
-21.74039 41.92531 0.1218147 0
-21.69039 41.87531 0.1218147 0
-22.04039 41.97531 0.07181472 0
-22.04039 42.02531 0.1218147 0
-21.99039 42.02531 0.1218147 0
-22.04039 42.02531 0.1718147 0
-21.94039 41.97531 0.1218147 0
-21.89039 41.97531 0.07181472 0
-21.89039 42.02531 0.1218147 0
-21.94039 42.02531 0.1718147 0
-21.89039 42.02531 0.1718147 0
-21.84039 41.97531 0.07181472 0
-21.84039 41.97531 0.1218147 0
-21.84039 42.02531 0.1218147 0
-21.79039 42.02531 0.1218147 0
-21.84039 42.02531 0.1718147 0
-21.69039 41.97531 0.07181472 0
-21.69039 41.97531 0.1218147 0
-21.69039 42.02531 0.1218147 0
-21.74039 42.02531 0.1718147 0
-21.64039 41.87531 0.1218147 0
-21.54039 41.82531 0.1218147 0
-21.44039 41.82531 0.1218147 0
-21.34039 41.77531 0.1218147 0
-21.64039 42.02531 0.1218147 0
-21.59039 41.97531 0.07181472 0
-21.59039 41.97531 0.1218147 0
-21.54039 41.97531 0.1218147 0
-21.54039 42.02531 0.1218147 0
-21.44039 41.97531 0.07181472 0
-21.44039 41.97531 0.1218147 0
-21.44039 42.02531 0.07181472 0
-21.44039 42.02531 0.1218147 0
-21.39039 42.02531 0.07181472 0
-21.39039 42.02531 0.1218147 0
-21.34039 42.02531 0.1218147 0
-21.29039 41.97531 0.07181472 0
-21.29039 41.97531 0.1218147 0
-21.29039 42.02531 0.1218147 0
-23.64039 40.02531 3.721815 0
-23.64039 40.07531 3.771815 0
-22.39039 39.97531 4.571815 0
-22.29039 40.17531 4.521815 0
-21.49039 40.27531 3.571815 0
-21.64039 40.17531 3.771815 0
-21.64039 40.32531 3.771815 0
-21.54039 40.22531 3.721815 0
-21.49039 40.52531 3.621815 0
-21.49039 40.72531 3.621815 0
-21.44039 40.47531 3.571815 0
-21.39039 40.67531 3.571815 0
-21.59039 40.37531 3.771815 0
-21.59039 40.47531 3.721815 0
-21.54039 40.52531 3.771815 0
-21.54039 40.62531 3.721815 0
-21.49039 40.72531 3.721815 0
-21.44039 40.87531 3.621815 0
-21.34039 40.87531 3.571815 0
-21.39039 41.07531 3.621815 0
-21.49039 40.77531 3.671815 0
-21.49039 40.87531 3.721815 0
-21.44039 40.92531 3.671815 0
-21.44039 41.02531 3.671815 0
-21.44039 41.07531 3.671815 0
-21.39039 41.22531 3.671815 0
-22.49039 46.22531 0.2718147 0
-22.49039 46.22531 0.3718147 0
-22.49039 46.22531 0.4218147 0
-22.49039 46.32531 0.2718147 0
-22.49039 46.27531 0.3718147 0
-22.49039 46.32531 0.4218147 0
-22.39039 46.27531 0.3218147 0
-26.99039 46.42531 0.07181472 0
-26.94039 46.62531 0.07181472 0
-26.94039 46.82531 0.07181472 0
-26.89039 47.02531 0.07181472 0
-24.74039 46.37531 0.2718147 0
-24.74039 46.42531 0.3718147 0
-24.74039 46.42531 0.4218147 0
-24.49039 46.52531 0.1718147 0
-24.49039 46.37531 0.3218147 0
-24.44039 46.57531 0.3218147 0
-24.39039 46.57531 0.3218147 0
-24.44039 46.57531 0.3718147 0
-24.39039 46.57531 0.4218147 0
-24.44039 46.57531 0.4718147 0
-24.44039 46.57531 0.5218147 0
-24.39039 46.62531 0.5218147 0
-22.49039 46.37531 0.2718147 0
-22.44039 46.37531 0.3718147 0
-22.44039 46.37531 0.4218147 0
-22.44039 46.47531 0.2718147 0
-22.44039 46.47531 0.3718147 0
-22.44039 46.47531 0.4218147 0
-22.19039 46.47531 0.1718147 0
-22.14039 46.42531 0.1718147 0
-22.24039 46.37531 0.3218147 0
-22.09039 46.47531 0.3218147 0
-22.09039 46.47531 0.3718147 0
-22.09039 46.47531 0.4718147 0
-22.09039 46.47531 0.5218147 0
-22.04039 46.47531 0.3218147 0
-22.04039 46.47531 0.3718147 0
-22.04039 46.47531 0.4218147 0
-22.04039 46.47531 0.5218147 0
-19.99039 28.62531 0.07181472 0
-19.84039 28.52531 0.07181472 0
-20.94039 29.47531 0.07181472 0
-20.49039 29.07531 0.07181472 0
-20.79039 29.32531 0.07181472 0
-20.64039 29.22531 0.07181472 0
-21.09039 29.62531 0.07181472 0
-21.24039 29.77531 0.07181472 0
-20.34039 28.92531 0.07181472 0
-20.19039 28.77531 0.07181472 0
-18.99039 27.22531 0.07181472 0
-18.79039 27.27531 0.07181472 0
-18.59039 27.32531 0.07181472 0
-18.39039 27.37531 0.07181472 0
-18.19039 27.42531 0.07181472 0
-20.59039 33.07531 2.821815 0
-20.54039 33.12531 2.871815 0
-20.54039 33.17531 2.871815 0
-20.14039 33.47531 2.421815 0
-19.89039 33.32531 2.421815 0
-19.99039 33.37531 2.421815 0
-19.89039 33.42531 2.421815 0
-19.94039 33.52531 2.421815 0
-19.79039 33.22531 2.421815 0
-20.19039 33.07531 2.821815 0
-20.14039 33.22531 2.821815 0
-20.44039 33.22531 2.871815 0
-20.39039 33.17531 2.871815 0
-20.34039 33.27531 2.871815 0
-20.24039 33.27531 2.871815 0
-20.24039 33.32531 2.871815 0
-20.14039 33.37531 2.871815 0
-20.09039 33.37531 2.871815 0
-19.94039 33.32531 2.471815 0
-19.94039 33.32531 2.521815 0
-20.04039 33.47531 2.471815 0
-19.94039 33.42531 2.471815 0
-19.94039 33.37531 2.571815 0
-19.84039 33.32531 2.521815 0
-19.79039 33.27531 2.471815 0
-19.84039 33.22531 2.771815 0
-19.84039 33.37531 2.521815 0
-19.84039 33.42531 2.571815 0
-19.69039 33.42531 2.521815 0
-19.74039 33.47531 2.571815 0
-19.74039 33.42531 2.821815 0
-20.04039 33.47531 2.871815 0
-20.04039 33.52531 2.921815 0
-19.94039 33.52531 2.871815 0
-18.84039 31.82531 3.221815 0
-18.99039 32.02531 3.221815 0
-18.99039 32.12531 3.221815 0
-19.04039 32.22531 3.221815 0
-18.94039 32.32531 3.121815 0
-19.04039 32.37531 3.221815 0
-18.99039 32.47531 3.121815 0
-18.94039 32.62531 3.021815 0
-18.99039 32.57531 3.121815 0
-18.99039 32.67531 3.071815 0
-19.04039 32.72531 3.171815 0
-19.64039 33.32531 2.471815 0
-19.49039 33.32531 2.471815 0
-19.54039 33.22531 2.771815 0
-19.64039 33.42531 2.571815 0
-19.59039 33.47531 2.521815 0
-19.64039 33.52531 2.571815 0
-19.54039 33.52531 2.521815 0
-19.54039 33.47531 2.571815 0
-19.49039 33.52531 2.621815 0
-19.39039 33.32531 2.471815 0
-19.44039 33.27531 2.771815 0
-19.39039 33.52531 2.521815 0
-19.44039 33.47531 2.571815 0
-19.44039 33.52531 2.621815 0
-19.29039 33.52531 2.571815 0
-19.39039 33.42531 2.771815 0
-19.34039 33.37531 2.721815 0
-19.34039 33.52531 2.821815 0
-19.34039 33.32531 3.071815 0
-19.29039 33.27531 3.071815 0
-19.34039 33.32531 3.171815 0
-19.09039 32.87531 3.171815 0
-19.14039 33.02531 3.171815 0
-19.09039 33.12531 3.121815 0
-18.94039 32.82531 3.021815 0
-18.89039 32.87531 2.921815 0
-19.04039 32.77531 3.071815 0
-19.04039 32.87531 3.071815 0
-18.99039 32.97531 3.021815 0
-18.99039 33.07531 2.871815 0
-18.94039 33.12531 2.971815 0
-18.94039 33.02531 3.121815 0
-19.14039 33.22531 2.821815 0
-19.14039 33.32531 2.771815 0
-19.19039 33.52531 2.571815 0
-19.09039 33.47531 2.521815 0
-19.04039 33.27531 2.771815 0
-18.89039 33.17531 2.771815 0
-19.04039 33.37531 2.771815 0
-18.99039 33.52531 2.771815 0
-19.24039 33.32531 2.921815 0
-19.14039 33.27531 2.871815 0
-19.14039 33.27531 2.921815 0
-19.19039 33.17531 3.071815 0
-19.24039 33.27531 3.171815 0
-19.14039 33.17531 3.221815 0
-19.04039 33.17531 2.871815 0
-19.04039 33.17531 2.921815 0
-18.69039 32.17531 3.121815 0
-18.59039 32.22531 3.171815 0
-18.64039 32.27531 3.071815 0
-18.59039 32.42531 3.171815 0
-18.59039 32.52531 3.071815 0
-18.49039 32.72531 2.971815 0
-18.34039 32.52531 3.021815 0
-18.29039 32.47531 2.971815 0
-18.39039 32.52531 3.071815 0
-18.39039 32.62531 3.021815 0
-18.39039 32.72531 3.021815 0
-18.29039 32.62531 3.021815 0
-18.29039 32.67531 2.971815 0
-18.14039 32.47531 3.071815 0
-18.09039 32.47531 3.071815 0
-18.09039 32.52531 3.071815 0
-18.19039 32.57531 3.021815 0
-18.19039 32.72531 2.971815 0
-18.24039 32.67531 3.121815 0
-18.14039 32.57531 3.121815 0
-18.14039 32.62531 3.121815 0
-18.74039 32.92531 2.921815 0
-18.84039 32.97531 2.921815 0
-18.84039 33.02531 2.971815 0
-18.64039 32.82531 2.971815 0
-18.64039 32.87531 2.971815 0
-18.54039 32.77531 2.971815 0
-18.54039 32.82531 3.071815 0
-18.39039 32.77531 3.071815 0
-18.19039 32.87531 2.971815 0
-18.09039 32.77531 3.071815 0
-18.14039 32.97531 2.971815 0
-18.14039 33.07531 2.971815 0
-18.29039 33.52531 2.921815 0
-18.29039 33.52531 3.021815 0
-18.14039 33.17531 2.971815 0
-18.14039 33.32531 2.921815 0
-18.24039 33.42531 2.921815 0
-18.19039 33.47531 2.921815 0
-18.09039 33.37531 2.921815 0
-18.14039 33.42531 3.021815 0
-19.94039 31.77531 3.671815 0
-21.14039 32.97531 3.821815 0
-21.04039 32.97531 3.821815 0
-20.89039 32.97531 3.821815 0
-20.54039 33.22531 3.421815 0
-20.34039 33.07531 3.421815 0
-20.24039 33.37531 3.471815 0
-19.89039 33.02531 3.471815 0
-19.94039 33.12531 3.471815 0
-19.79039 32.97531 3.471815 0
-20.04039 33.22531 3.471815 0
-18.99039 31.47531 3.421815 0
-19.09039 31.87531 3.471815 0
-19.04039 31.62531 3.421815 0
-18.99039 31.72531 3.321815 0
-19.04039 31.77531 3.421815 0
-19.04039 31.92531 3.371815 0
-18.69039 31.87531 3.921815 0
-18.64039 31.72531 3.871815 0
-18.44039 31.72531 3.871815 0
-18.44039 31.92531 3.821815 0
-19.34039 32.32531 3.471815 0
-19.34039 32.47531 3.521815 0
-19.34039 32.67531 3.521815 0
-19.29039 32.67531 3.471815 0
-19.09039 32.07531 3.371815 0
-19.19039 32.12531 3.471815 0
-19.14039 32.02531 3.471815 0
-19.14039 32.22531 3.371815 0
-19.24039 32.27531 3.471815 0
-19.19039 32.37531 3.421815 0
-19.19039 32.52531 3.421815 0
-19.09039 32.47531 3.271815 0
-19.09039 32.62531 3.271815 0
-19.14039 32.72531 3.271815 0
-19.39039 32.92531 3.571815 0
-19.34039 32.82531 3.571815 0
-19.44039 33.07531 3.571815 0
-19.44039 33.32531 3.271815 0
-19.34039 33.27531 3.271815 0
-19.44039 33.52531 3.321815 0
-19.19039 32.82531 3.271815 0
-19.19039 32.97531 3.271815 0
-19.24039 33.07531 3.321815 0
-19.24039 33.17531 3.321815 0
-18.79039 31.97531 3.271815 0
-18.74039 32.02531 3.921815 0
-18.79039 32.17531 3.921815 0
-18.69039 32.72531 3.371815 0
-18.59039 32.72531 3.421815 0
-18.49039 32.62531 3.371815 0
-18.74039 32.72531 3.771815 0
-18.49039 32.42531 3.771815 0
-18.54039 32.62531 3.771815 0
-18.09039 32.07531 3.521815 0
-18.09039 32.17531 3.421815 0
-18.09039 32.27531 3.271815 0
-18.14039 32.27531 3.471815 0
-18.44039 31.97531 3.821815 0
-18.44039 32.17531 3.771815 0
-18.44039 32.22531 3.771815 0
-18.29039 32.52531 3.371815 0
-18.44039 32.62531 3.421815 0
-18.44039 32.67531 3.471815 0
-18.29039 32.57531 3.471815 0
-18.24039 32.52531 3.371815 0
-18.14039 32.42531 3.271815 0
-18.09039 32.37531 3.321815 0
-18.14039 32.37531 3.371815 0
-18.14039 32.52531 3.471815 0
-18.79039 32.82531 3.471815 0
-18.74039 32.87531 3.471815 0
-18.79039 33.02531 3.421815 0
-18.59039 32.77531 3.471815 0
-18.59039 33.02531 3.321815 0
-18.74039 33.17531 3.371815 0
-18.69039 33.52531 3.371815 0
-18.59039 33.52531 3.321815 0
-18.39039 33.42531 3.621815 0
-17.99039 27.47531 0.07181472 0
-17.79039 27.57531 0.07181472 0
-17.59039 27.62531 0.07181472 0
-17.39039 27.72531 0.07181472 0
-16.49039 27.22531 0.1218147 0
-16.54039 27.32531 0.1218147 0
-16.49039 27.22531 0.6218147 0
-16.54039 27.32531 0.6218147 0
-16.64039 27.17531 0.6718147 0
-16.54039 27.22531 0.7218148 0
-16.64039 27.42531 0.6718147 0
-16.54039 27.52531 0.7218148 0
-16.84039 27.67531 0.1218147 0
-16.74039 27.72531 0.1218147 0
-16.79039 27.92531 0.1218147 0
-16.74039 27.92531 0.1218147 0
-16.64039 27.72531 0.1218147 0
-16.59039 27.67531 0.1218147 0
-16.54039 27.72531 0.1218147 0
-16.64039 27.92531 0.1218147 0
-16.54039 27.82531 0.1218147 0
-16.49039 27.77531 0.1218147 0
-16.54039 27.32531 1.221815 0
-16.49039 27.27531 1.171815 0
-16.69039 28.07531 0.07181472 0
-16.69039 28.12531 0.1218147 0
-16.79039 28.17531 0.1218147 0
-16.69039 28.32531 0.1218147 0
-16.64039 28.07531 0.1218147 0
-16.54039 27.97531 0.1218147 0
-16.54039 28.12531 0.1218147 0
-16.59039 28.27531 0.1218147 0
-16.54039 28.27531 0.1218147 0
-16.79039 28.37531 0.1218147 0
-16.69039 28.37531 0.07181472 0
-16.69039 28.52531 0.1218147 0
-16.74039 28.62531 0.1218147 0
-16.69039 28.67531 0.1218147 0
-16.59039 28.42531 0.1718147 0
-16.54039 28.37531 0.1718147 0
-16.49039 28.52531 0.1218147 0
-16.59039 28.57531 0.1718147 0
-16.64039 28.72531 0.1218147 0
-16.54039 28.57531 0.1718147 0
-16.49039 28.67531 0.1718147 0
-16.49039 27.22531 1.671815 0
-16.59039 27.37531 1.821815 0
-16.49039 27.42531 1.971815 0
-16.49039 27.22531 2.071815 0
-16.54039 27.32531 2.371815 0
-16.49039 27.42531 2.071815 0
-16.54039 27.32531 2.971815 0
-16.74039 28.82531 0.1218147 0
-16.74039 29.07531 0.1218147 0
-16.59039 28.77531 0.1718147 0
-16.64039 28.87531 0.1218147 0
-16.64039 28.92531 0.1218147 0
-16.49039 28.82531 0.1718147 0
-16.54039 28.87531 0.1718147 0
-16.64039 29.07531 0.1218147 0
-16.49039 28.97531 0.1718147 0
-16.54039 29.07531 0.1718147 0
-16.49039 29.12531 0.1718147 0
-16.69039 29.27531 0.1218147 0
-16.69039 29.47531 0.1218147 0
-16.64039 29.17531 0.1218147 0
-16.64039 29.22531 0.1218147 0
-16.54039 29.22531 0.1718147 0
-16.49039 29.22531 0.1718147 0
-16.59039 29.42531 0.1218147 0
-16.64039 29.47531 0.1218147 0
-16.54039 29.37531 0.1718147 0
-16.49039 29.37531 0.1718147 0
-16.54039 29.52531 0.1718147 0
-16.69039 29.67531 0.1218147 0
-16.59039 29.62531 0.1218147 0
-16.59039 29.72531 0.1218147 0
-16.54039 29.67531 0.1718147 0
-16.49039 29.67531 0.1718147 0
-16.59039 29.77531 0.1218147 0
-16.64039 29.87531 0.1218147 0
-16.54039 29.82531 0.1718147 0
-16.59039 29.97531 0.1218147 0
-16.64039 30.07531 0.1218147 0
-16.59039 30.12531 0.1218147 0
-16.49039 29.97531 0.1718147 0
-16.49039 30.12531 0.1718147 0
-16.64039 30.27531 0.1218147 0
-16.54039 30.22531 0.1218147 0
-16.49039 30.22531 0.1718147 0
-16.54039 30.27531 0.1718147 0
-16.39039 27.27531 0.1218147 0
-16.34039 27.22531 0.1218147 0
-16.29039 27.22531 0.1218147 0
-16.44039 27.42531 0.1218147 0
-16.39039 27.42531 0.1218147 0
-16.34039 27.37531 0.1218147 0
-16.29039 27.37531 0.1218147 0
-16.34039 27.52531 0.1218147 0
-16.29039 27.47531 0.1218147 0
-16.19039 27.17531 0.1218147 0
-16.24039 27.17531 0.1718147 0
-16.24039 27.27531 0.1218147 0
-16.19039 27.32531 0.1218147 0
-16.24039 27.27531 0.1718147 0
-16.24039 27.37531 0.1218147 0
-16.19039 27.37531 0.07181472 0
-16.19039 27.42531 0.1218147 0
-16.24039 27.42531 0.1718147 0
-16.19039 27.52531 0.1218147 0
-16.24039 27.52531 0.1718147 0
-16.39039 27.27531 0.5718147 0
-16.34039 27.22531 0.5718147 0
-16.29039 27.22531 0.5718147 0
-16.44039 27.42531 0.6218147 0
-16.39039 27.42531 0.5718147 0
-16.34039 27.37531 0.5718147 0
-16.29039 27.37531 0.5718147 0
-16.34039 27.52531 0.5718147 0
-16.29039 27.47531 0.5718147 0
-16.39039 27.42531 0.6718147 0
-16.29039 27.52531 0.7218148 0
-16.24039 27.17531 0.5718147 0
-16.24039 27.27531 0.5718147 0
-16.19039 27.27531 0.5718147 0
-16.09039 27.17531 0.5718147 0
-16.24039 27.42531 0.5718147 0
-16.24039 27.42531 0.6218147 0
-16.19039 27.42531 0.5718147 0
-16.19039 27.42531 0.6218147 0
-16.24039 27.52531 0.5718147 0
-16.19039 27.47531 0.5718147 0
-16.09039 27.52531 0.6218147 0
-16.39039 27.77531 0.1218147 0
-16.44039 27.82531 0.1718147 0
-16.44039 27.92531 0.1218147 0
-16.39039 27.92531 0.1218147 0
-16.44039 27.92531 0.1718147 0
-16.34039 27.82531 0.1218147 0
-16.29039 27.82531 0.1218147 0
-16.19039 27.57531 0.1218147 0
-16.19039 27.57531 0.5718147 0
-16.24039 27.72531 0.6218147 0
-16.09039 27.72531 0.5718147 0
-16.19039 27.77531 0.6218147 0
-16.24039 27.92531 0.6218147 0
-16.14039 27.92531 0.6218147 0
-16.09039 27.87531 0.5718147 0
-16.04039 27.17531 0.1218147 0
-15.99039 27.52531 0.5718147 0
-15.94039 27.52531 0.5718147 0
-15.69039 27.52531 0.8218147 0
-15.99039 27.57531 0.1218147 0
-15.94039 27.72531 0.1218147 0
-15.94039 27.67531 0.1718147 0
-16.04039 27.77531 0.1218147 0
-15.99039 27.72531 0.5718147 0
-15.89039 27.57531 0.5718147 0
-15.89039 27.67531 0.5718147 0
-15.99039 27.87531 0.5718147 0
-15.94039 27.82531 0.5718147 0
-15.94039 27.82531 0.6218147 0
-15.89039 27.77531 0.5718147 0
-15.94039 27.87531 0.5718147 0
-15.79039 27.72531 0.7218148 0
-16.39039 27.17531 1.121815 0
-16.29039 27.22531 1.071815 0
-16.34039 27.32531 1.221815 0
-16.39039 27.37531 1.121815 0
-16.29039 27.37531 1.071815 0
-16.34039 27.37531 1.171815 0
-16.24039 27.22531 1.021815 0
-16.19039 27.27531 1.021815 0
-16.19039 27.32531 1.021815 0
-16.09039 27.17531 1.021815 0
-16.14039 27.27531 1.021815 0
-16.14039 27.32531 1.071815 0
-16.24039 27.37531 1.021815 0
-16.19039 27.42531 1.021815 0
-16.14039 27.42531 1.021815 0
-16.09039 27.42531 1.021815 0
-16.14039 27.37531 1.121815 0
-16.14039 27.47531 1.071815 0
-16.39039 27.17531 1.621815 0
-16.34039 27.22531 1.521815 0
-16.39039 27.37531 1.571815 0
-16.29039 27.37531 1.521815 0
-16.19039 27.27531 1.421815 0
-16.24039 27.22531 1.471815 0
-16.19039 27.32531 1.471815 0
-16.09039 27.17531 1.471815 0
-16.14039 27.27531 1.471815 0
-16.14039 27.32531 1.521815 0
-16.19039 27.42531 1.421815 0
-16.24039 27.37531 1.471815 0
-16.14039 27.42531 1.471815 0
-16.09039 27.42531 1.471815 0
-16.14039 27.37531 1.621815 0
-16.14039 27.47531 1.521815 0
-16.04039 27.17531 1.021815 0
-16.04039 27.17531 1.071815 0
-15.99039 27.42531 1.021815 0
-16.04039 27.37531 1.071815 0
-16.04039 27.17531 1.471815 0
-15.99039 27.17531 1.521815 0
-16.04039 27.37531 1.521815 0
-15.99039 27.42531 1.471815 0
-16.44039 28.02531 0.1218147 0
-16.39039 28.02531 0.1218147 0
-16.39039 28.12531 0.1218147 0
-16.44039 28.07531 0.1718147 0
-16.44039 28.17531 0.1218147 0
-16.39039 28.17531 0.1218147 0
-16.39039 28.17531 0.1718147 0
-16.44039 28.32531 0.1218147 0
-16.39039 28.27531 0.1218147 0
-16.39039 28.32531 0.1218147 0
-16.39039 28.32531 0.1718147 0
-16.29039 28.12531 0.6718147 0
-16.24039 28.12531 0.6218147 0
-16.09039 28.02531 0.5718147 0
-16.14039 28.12531 0.6218147 0
-16.19039 28.32531 0.6218147 0
-16.09039 28.17531 0.5718147 0
-16.14039 28.27531 0.6218147 0
-16.44039 28.37531 0.07181472 0
-16.44039 28.42531 0.1218147 0
-16.39039 28.42531 0.1218147 0
-16.39039 28.47531 0.1218147 0
-16.39039 28.47531 0.1718147 0
-16.44039 28.57531 0.1218147 0
-16.39039 28.57531 0.1218147 0
-16.39039 28.57531 0.1718147 0
-16.44039 28.67531 0.1218147 0
-16.39039 28.72531 0.07181472 0
-16.39039 28.72531 0.1218147 0
-16.39039 28.72531 0.1718147 0
-16.34039 28.62531 0.07181472 0
-16.34039 28.62531 0.1218147 0
-16.34039 28.67531 0.1218147 0
-16.29039 28.37531 0.6718147 0
-16.29039 28.57531 0.6718147 0
-16.19039 28.52531 0.6218147 0
-16.09039 28.42531 0.6218147 0
-16.19039 28.67531 0.6218147 0
-16.09039 28.57531 0.6218147 0
-15.99039 27.97531 0.5718147 0
-15.99039 28.12531 0.5718147 0
-15.94039 27.97531 0.5718147 0
-15.94039 28.02531 0.5718147 0
-15.94039 28.02531 0.6218147 0
-15.94039 28.07531 0.5718147 0
-16.04039 28.32531 0.5718147 0
-15.99039 28.27531 0.5718147 0
-15.94039 28.17531 0.5718147 0
-15.94039 28.22531 0.5718147 0
-15.89039 28.17531 0.6218147 0
-15.89039 28.22531 0.6218147 0
-15.89039 28.32531 0.5718147 0
-15.89039 28.32531 0.6218147 0
-15.99039 28.42531 0.5718147 0
-16.04039 28.47531 0.5718147 0
-15.99039 28.52531 0.5718147 0
-15.94039 28.37531 0.5718147 0
-15.94039 28.42531 0.5718147 0
-15.89039 28.42531 0.6218147 0
-15.94039 28.52531 0.5718147 0
-15.89039 28.47531 0.5718147 0
-15.89039 28.47531 0.6218147 0
-16.04039 28.62531 0.5718147 0
-15.99039 28.67531 0.5718147 0
-15.94039 28.62531 0.5718147 0
-15.89039 28.62531 0.5718147 0
-15.89039 28.62531 0.6218147 0
-15.94039 28.67531 0.5718147 0
-15.89039 28.67531 0.6218147 0
-16.34039 27.32531 1.671815 0
-16.29039 27.32531 1.821815 0
-16.29039 27.22531 1.921815 0
-16.34039 27.22531 1.971815 0
-16.34039 27.37531 1.971815 0
-16.29039 27.42531 1.971815 0
-16.24039 27.22531 1.921815 0
-16.19039 27.27531 1.871815 0
-16.19039 27.32531 1.921815 0
-16.09039 27.17531 1.871815 0
-16.14039 27.27531 1.871815 0
-16.14039 27.27531 1.971815 0
-16.24039 27.37531 1.921815 0
-16.19039 27.42531 1.871815 0
-16.19039 27.42531 1.971815 0
-16.14039 27.42531 1.871815 0
-16.14039 27.42531 1.971815 0
-16.14039 27.47531 1.921815 0
-16.29039 27.22531 2.371815 0
-16.29039 27.32531 2.371815 0
-16.29039 27.37531 2.421815 0
-16.14039 27.32531 2.221815 0
-16.19039 27.22531 2.371815 0
-16.19039 27.27531 2.321815 0
-16.24039 27.32531 2.371815 0
-16.19039 27.32531 2.371815 0
-16.14039 27.27531 2.321815 0
-16.14039 27.32531 2.421815 0
-16.24039 27.42531 2.121815 0
-16.14039 27.52531 2.221815 0
-16.14039 27.42531 2.321815 0
-16.09039 27.42531 2.371815 0
-16.14039 27.47531 2.421815 0
-16.19039 27.57531 1.971815 0
-15.99039 27.22531 1.971815 0
-16.04039 27.47531 1.921815 0
-15.84039 27.17531 1.921815 0
-15.89039 27.27531 2.221815 0
-15.99039 27.17531 2.321815 0
-15.94039 27.42531 2.371815 0
-15.74039 27.67531 2.021815 0
-16.39039 27.17531 2.621815 0
-16.29039 27.22531 2.471815 0
-16.39039 27.37531 2.571815 0
-16.09039 27.27531 2.571815 0
-16.24039 27.22531 2.821815 0
-16.19039 27.22531 2.821815 0
-16.19039 27.32531 2.821815 0
-16.14039 27.27531 2.771815 0
-16.14039 27.32531 2.771815 0
-16.14039 27.37531 2.621815 0
-16.09039 27.42531 2.571815 0
-16.24039 27.37531 2.821815 0
-16.19039 27.42531 2.771815 0
-16.14039 27.42531 2.771815 0
-16.09039 27.42531 2.821815 0
-16.14039 27.52531 2.771815 0
-16.34039 27.22531 2.921815 0
-16.34039 27.32531 2.971815 0
-16.39039 27.17531 3.121815 0
-16.39039 27.32531 3.071815 0
-16.29039 27.37531 2.921815 0
-16.14039 27.32531 2.921815 0
-16.19039 27.27531 3.221815 0
-16.14039 27.27531 3.221815 0
-16.09039 27.47531 2.921815 0
-16.14039 27.37531 3.071815 0
-16.14039 27.37531 3.121815 0
-16.14039 27.42531 3.221815 0
-16.14039 27.57531 2.621815 0
-16.14039 27.57531 3.121815 0
-15.99039 27.17531 2.771815 0
-15.89039 27.27531 2.771815 0
-16.04039 27.37531 2.471815 0
-15.94039 27.42531 2.821815 0
-15.84039 27.27531 2.471815 0
-15.89039 27.27531 2.971815 0
-16.04039 27.17531 3.221815 0
-16.04039 27.27531 3.071815 0
-16.04039 27.37531 2.971815 0
-16.44039 28.77531 0.1218147 0
-16.39039 28.82531 0.1218147 0
-16.44039 28.92531 0.1218147 0
-16.39039 28.87531 0.1718147 0
-16.34039 28.77531 0.1218147 0
-16.34039 28.87531 0.07181472 0
-16.34039 28.87531 0.1218147 0
-16.34039 28.92531 0.1218147 0
-16.39039 28.97531 0.1218147 0
-16.39039 28.97531 0.1718147 0
-16.39039 29.07531 0.1218147 0
-16.44039 29.07531 0.1718147 0
-16.39039 29.12531 0.1718147 0
-16.34039 29.02531 0.1218147 0
-16.34039 29.07531 0.07181472 0
-16.34039 29.07531 0.1218147 0
-16.19039 28.87531 0.6218147 0
-16.09039 28.77531 0.6218147 0
-16.09039 28.92531 0.6218147 0
-16.24039 28.82531 0.6718147 0
-16.24039 29.02531 0.6218147 0
-16.14039 29.07531 0.6218147 0
-16.09039 29.07531 0.6218147 0
-16.39039 29.22531 0.1218147 0
-16.44039 29.17531 0.1718147 0
-16.39039 29.27531 0.1718147 0
-16.39039 29.32531 0.1718147 0
-16.34039 29.17531 0.1218147 0
-16.34039 29.27531 0.1218147 0
-16.34039 29.32531 0.07181472 0
-16.34039 29.32531 0.1218147 0
-16.39039 29.37531 0.1218147 0
-16.39039 29.42531 0.1218147 0
-16.39039 29.42531 0.1718147 0
-16.39039 29.47531 0.1218147 0
-16.44039 29.52531 0.1718147 0
-16.34039 29.42531 0.1218147 0
-16.34039 29.37531 0.1718147 0
-16.34039 29.47531 0.1218147 0
-16.29039 29.47531 0.07181472 0
-16.34039 29.52531 0.1718147 0
-16.24039 29.22531 0.6218147 0
-16.09039 29.22531 0.6218147 0
-16.14039 29.27531 0.6218147 0
-16.24039 29.47531 0.6218147 0
-16.14039 29.42531 0.6218147 0
-16.04039 28.77531 0.5718147 0
-15.99039 28.82531 0.5718147 0
-16.04039 28.92531 0.5718147 0
-15.94039 28.77531 0.5718147 0
-15.94039 28.82531 0.5718147 0
-15.89039 28.77531 0.5718147 0
-15.89039 28.82531 0.6218147 0
-15.94039 28.92531 0.5718147 0
-15.89039 28.92531 0.5718147 0
-15.99039 28.97531 0.5718147 0
-15.99039 29.07531 0.5718147 0
-15.89039 28.97531 0.6218147 0
-15.94039 29.07531 0.5718147 0
-15.89039 29.07531 0.5718147 0
-15.84039 29.02531 0.6218147 0
-16.04039 29.22531 0.5718147 0
-15.99039 29.32531 0.5718147 0
-15.94039 29.22531 0.5718147 0
-15.89039 29.17531 0.5718147 0
-15.89039 29.17531 0.6218147 0
-15.89039 29.22531 0.5718147 0
-16.04039 29.42531 0.6218147 0
-15.99039 29.47531 0.5718147 0
-15.94039 29.37531 0.5718147 0
-15.89039 29.37531 0.5718147 0
-15.94039 29.47531 0.5718147 0
-15.89039 29.47531 0.5718147 0
-15.84039 29.22531 0.6218147 0
-15.84039 29.32531 0.5718147 0
-15.84039 29.32531 0.6218147 0
-15.84039 29.42531 0.6218147 0
-15.84039 29.52531 0.5718147 0
-15.84039 29.52531 0.6218147 0
-16.39039 29.62531 0.1218147 0
-16.39039 29.57531 0.1718147 0
-16.39039 29.67531 0.1718147 0
-16.34039 29.62531 0.1218147 0
-16.29039 29.57531 0.07181472 0
-16.29039 29.72531 0.07181472 0
-16.34039 29.67531 0.1718147 0
-16.39039 29.77531 0.1218147 0
-16.44039 29.77531 0.1718147 0
-16.39039 29.82531 0.1718147 0
-16.44039 29.92531 0.1718147 0
-16.34039 29.77531 0.1218147 0
-16.29039 29.77531 0.1218147 0
-16.29039 29.82531 0.07181472 0
-16.34039 29.82531 0.1718147 0
-16.34039 29.87531 0.1218147 0
-16.29039 29.92531 0.07181472 0
-16.29039 29.92531 0.1218147 0
-16.34039 29.92531 0.1718147 0
-16.19039 29.67531 0.6218147 0
-16.14039 29.62531 0.6218147 0
-16.19039 29.87531 0.6218147 0
-16.14039 29.77531 0.6218147 0
-16.44039 30.02531 0.1718147 0
-16.39039 29.97531 0.1718147 0
-16.39039 30.07531 0.1718147 0
-16.34039 30.02531 0.1218147 0
-16.29039 29.97531 0.1218147 0
-16.34039 30.12531 0.1218147 0
-16.29039 30.12531 0.07181472 0
-16.29039 30.12531 0.1218147 0
-16.34039 30.07531 0.1718147 0
-16.44039 30.17531 0.1718147 0
-16.39039 30.22531 0.1718147 0
-16.39039 30.27531 0.1218147 0
-16.39039 30.32531 0.1718147 0
-16.29039 30.22531 0.1218147 0
-16.34039 30.27531 0.1218147 0
-16.29039 30.27531 0.1218147 0
-16.29039 30.32531 0.1218147 0
-16.34039 30.32531 0.1718147 0
-16.19039 30.07531 0.6218147 0
-16.14039 29.97531 0.6218147 0
-16.09039 30.12531 0.6218147 0
-16.04039 29.57531 0.6218147 0
-15.99039 29.62531 0.5718147 0
-16.04039 29.72531 0.6218147 0
-15.94039 29.62531 0.5718147 0
-15.89039 29.62531 0.5718147 0
-15.99039 29.77531 0.5718147 0
-16.04039 29.87531 0.6218147 0
-15.99039 29.92531 0.5718147 0
-15.94039 29.77531 0.5718147 0
-15.89039 29.77531 0.5718147 0
-15.89039 29.87531 0.5718147 0
-15.89039 29.92531 0.5718147 0
-15.84039 29.62531 0.5718147 0
-15.84039 29.67531 0.5718147 0
-15.84039 29.67531 0.6218147 0
-15.84039 29.72531 0.6218147 0
-15.84039 29.77531 0.5718147 0
-15.84039 29.82531 0.5718147 0
-15.84039 29.87531 0.6218147 0
-15.84039 29.92531 0.5718147 0
-16.04039 30.32531 0.1718147 0
-15.89039 30.22531 0.1218147 0
-16.04039 30.02531 0.6218147 0
-15.94039 30.02531 0.5718147 0
-15.89039 30.02531 0.5718147 0
-16.04039 30.17531 0.6218147 0
-15.94039 30.17531 0.5718147 0
-15.89039 30.17531 0.5718147 0
-15.94039 30.32531 0.5718147 0
-15.89039 30.27531 0.5718147 0
-15.84039 29.97531 0.5718147 0
-15.84039 30.02531 0.5718147 0
-15.84039 30.07531 0.5718147 0
-15.84039 30.07531 0.6218147 0
-15.84039 30.12531 0.5718147 0
-15.84039 30.17531 0.5718147 0
-15.84039 30.32531 0.5718147 0
-15.79039 30.27531 0.6218147 0
-16.64039 27.17531 3.571815 0
-16.54039 27.32531 3.521815 0
-16.54039 27.27531 3.571815 0
-16.49039 27.27531 3.621815 0
-16.49039 27.37531 3.621815 0
-16.49039 27.42531 3.571815 0
-16.49039 27.52531 3.621815 0
-16.59039 27.17531 3.671815 0
-16.59039 27.32531 3.671815 0
-16.59039 27.47531 3.671815 0
-16.49039 27.62531 3.521815 0
-16.54039 27.72531 3.621815 0
-16.49039 27.67531 3.621815 0
-16.49039 27.77531 3.621815 0
-16.84039 27.57531 3.721815 0
-16.79039 27.77531 3.721815 0
-16.54039 27.57531 3.671815 0
-16.64039 27.87531 3.721815 0
-16.49039 27.92531 3.671815 0
-16.69039 28.32531 3.621815 0
-16.79039 27.97531 3.671815 0
-16.74039 28.12531 3.671815 0
-16.74039 28.12531 3.721815 0
-16.64039 27.97531 3.721815 0
-16.59039 28.12531 3.721815 0
-16.59039 28.27531 3.671815 0
-16.49039 28.57531 3.621815 0
-16.69039 28.37531 3.671815 0
-16.59039 28.42531 3.671815 0
-16.54039 28.37531 3.671815 0
-16.54039 28.47531 3.671815 0
-16.59039 28.72531 3.671815 0
-16.54039 28.57531 3.671815 0
-16.49039 28.77531 3.621815 0
-16.49039 28.92531 3.571815 0
-16.49039 28.97531 3.621815 0
-16.49039 29.07531 3.621815 0
-16.49039 29.12531 3.571815 0
-16.54039 28.82531 3.671815 0
-16.79039 29.32531 3.771815 0
-16.74039 29.52531 3.721815 0
-16.64039 29.42531 3.771815 0
-16.74039 29.72531 3.671815 0
-16.69039 29.92531 3.671815 0
-16.59039 29.57531 3.721815 0
-16.59039 29.67531 3.721815 0
-16.54039 29.82531 3.721815 0
-16.59039 29.97531 3.671815 0
-16.64039 30.07531 3.671815 0
-16.54039 30.12531 3.671815 0
-16.54039 30.27531 3.671815 0
-16.29039 27.22531 3.421815 0
-16.39039 27.22531 3.621815 0
-16.34039 27.17531 3.621815 0
-16.29039 27.27531 3.621815 0
-16.29039 27.32531 3.571815 0
-16.29039 27.37531 3.371815 0
-16.39039 27.37531 3.571815 0
-16.39039 27.37531 3.621815 0
-16.44039 27.52531 3.621815 0
-16.29039 27.42531 3.621815 0
-16.24039 27.22531 3.271815 0
-16.19039 27.32531 3.271815 0
-16.14039 27.32531 3.321815 0
-16.14039 27.32531 3.371815 0
-16.14039 27.22531 3.521815 0
-16.24039 27.37531 3.271815 0
-16.14039 27.42531 3.271815 0
-16.09039 27.42531 3.321815 0
-16.14039 27.52531 3.321815 0
-16.14039 27.47531 3.371815 0
-16.24039 27.37531 3.521815 0
-16.24039 27.52531 3.571815 0
-16.44039 27.62531 3.621815 0
-16.39039 27.72531 3.521815 0
-16.29039 27.57531 3.621815 0
-16.29039 27.67531 3.621815 0
-16.44039 27.92531 3.621815 0
-16.29039 27.82531 3.521815 0
-16.29039 27.82531 3.621815 0
-16.24039 27.62531 3.571815 0
-16.24039 27.67531 3.621815 0
-16.09039 27.62531 3.571815 0
-16.24039 27.87531 3.571815 0
-16.24039 27.87531 3.621815 0
-16.44039 27.77531 3.671815 0
-16.24039 27.92531 3.671815 0
-15.89039 27.27531 3.321815 0
-15.89039 27.27531 3.421815 0
-16.04039 27.37531 3.421815 0
-15.94039 27.42531 3.321815 0
-15.99039 27.72531 3.571815 0
-15.84039 27.82531 3.571815 0
-16.44039 28.02531 3.621815 0
-16.39039 28.12531 3.621815 0
-16.44039 28.17531 3.621815 0
-16.39039 28.22531 3.621815 0
-16.39039 28.32531 3.621815 0
-16.19039 27.97531 3.571815 0
-16.24039 28.12531 3.621815 0
-16.14039 28.07531 3.521815 0
-16.44039 28.02531 3.671815 0
-16.44039 28.17531 3.671815 0
-16.44039 28.32531 3.671815 0
-16.39039 28.32531 3.671815 0
-16.24039 28.07531 3.671815 0
-16.24039 28.22531 3.671815 0
-16.39039 28.42531 3.621815 0
-16.34039 28.47531 3.621815 0
-16.39039 28.57531 3.621815 0
-16.39039 28.72531 3.621815 0
-16.29039 28.62531 3.621815 0
-16.29039 28.72531 3.621815 0
-16.44039 28.47531 3.671815 0
-16.44039 28.47531 3.721815 0
-16.29039 28.47531 3.671815 0
-16.44039 28.62531 3.721815 0
-16.44039 28.67531 3.671815 0
-16.44039 28.72531 3.671815 0
-16.44039 28.72531 3.721815 0
-16.04039 28.22531 3.521815 0
-15.94039 28.22531 3.571815 0
-15.94039 28.32531 3.571815 0
-15.69039 27.97531 3.521815 0
-15.74039 27.97531 3.571815 0
-15.74039 28.07531 3.521815 0
-15.74039 28.12531 3.571815 0
-15.79039 28.22531 3.521815 0
-15.89039 28.52531 3.521815 0
-15.89039 28.47531 3.571815 0
-15.99039 28.62531 3.521815 0
-15.84039 28.37531 3.521815 0
-15.79039 28.57531 3.571815 0
-15.74039 28.72531 3.521815 0
-15.74039 28.67531 3.571815 0
-16.39039 28.82531 3.621815 0
-16.39039 28.87531 3.621815 0
-16.29039 28.87531 3.621815 0
-16.39039 28.97531 3.621815 0
-16.39039 29.12531 3.621815 0
-16.29039 29.02531 3.621815 0
-16.34039 29.07531 3.621815 0
-16.29039 29.12531 3.621815 0
-16.09039 28.92531 3.521815 0
-16.14039 29.02531 3.521815 0
-16.09039 29.12531 3.521815 0
-16.44039 28.82531 3.721815 0
-16.44039 28.87531 3.721815 0
-16.44039 29.22531 3.621815 0
-16.39039 29.22531 3.621815 0
-16.44039 29.27531 3.521815 0
-16.39039 29.37531 3.621815 0
-16.34039 29.37531 3.521815 0
-16.34039 29.47531 3.621815 0
-16.29039 29.47531 3.621815 0
-16.19039 29.17531 3.521815 0
-16.19039 29.27531 3.521815 0
-16.24039 29.27531 3.621815 0
-16.24039 29.42531 3.621815 0
-16.19039 29.37531 3.571815 0
-16.24039 29.52531 3.521815 0
-16.24039 29.52531 3.621815 0
-16.19039 29.52531 3.571815 0
-16.14039 29.52531 3.571815 0
-16.39039 29.27531 3.671815 0
-16.34039 29.32531 3.671815 0
-16.39039 29.37531 3.671815 0
-16.39039 29.52531 3.671815 0
-16.04039 28.77531 3.521815 0
-15.94039 28.82531 3.571815 0
-15.94039 28.97531 3.521815 0
-15.79039 28.77531 3.571815 0
-15.84039 28.87531 3.521815 0
-16.34039 29.62531 3.621815 0
-16.29039 29.57531 3.621815 0
-16.29039 29.72531 3.621815 0
-16.34039 29.77531 3.621815 0
-16.34039 29.87531 3.621815 0
-16.29039 29.87531 3.621815 0
-16.19039 29.62531 3.521815 0
-16.24039 29.67531 3.621815 0
-16.14039 29.72531 3.621815 0
-16.24039 29.82531 3.621815 0
-16.24039 29.92531 3.621815 0
-16.14039 29.77531 3.621815 0
-16.14039 29.87531 3.621815 0
-16.34039 29.67531 3.671815 0
-16.39039 29.77531 3.671815 0
-16.39039 29.92531 3.671815 0
-16.34039 30.02531 3.621815 0
-16.29039 29.97531 3.621815 0
-16.29039 30.12531 3.621815 0
-16.29039 30.17531 3.621815 0
-16.34039 30.32531 3.621815 0
-16.24039 30.07531 3.621815 0
-16.14039 30.02531 3.621815 0
-16.19039 30.17531 3.621815 0
-16.24039 30.27531 3.571815 0
-16.19039 30.32531 3.621815 0
-16.39039 30.07531 3.721815 0
-16.34039 30.12531 3.671815 0
-16.39039 30.22531 3.721815 0
-16.39039 30.32531 3.721815 0
-16.34039 30.27531 3.671815 0
-16.34039 30.32531 3.671815 0
-16.14039 30.07531 3.671815 0
-16.04039 29.72531 3.571815 0
-15.99039 29.87531 3.571815 0
-15.89039 29.97531 3.521815 0
-15.79039 30.07531 3.571815 0
-15.69039 30.22531 3.521815 0
-16.54039 30.42531 0.1218147 0
-17.99039 32.22531 3.121815 0
-18.04039 32.27531 3.071815 0
-17.89039 32.27531 3.071815 0
-17.79039 32.27531 3.121815 0
-17.99039 32.37531 3.071815 0
-17.99039 32.37531 3.121815 0
-17.99039 32.47531 3.121815 0
-17.99039 32.52531 3.121815 0
-17.94039 32.37531 3.121815 0
-17.94039 32.42531 3.071815 0
-17.89039 32.42531 3.121815 0
-18.04039 32.97531 2.921815 0
