# .PCD v0.7 - Point Cloud Data file format
VERSION 0.7
FIELDS x y z intensity
SIZE 4 4 4 4
TYPE F F F F
COUNT 1 1 1 1
WIDTH 1604
HEIGHT 1
VIEWPOINT 0 0 0 1 0 0 0
POINTS 1604
DATA ascii
131.4596 19.07531 2.621815 0
131.2096 19.12531 3.021815 0
131.3096 19.07531 3.021815 0
131.2096 19.02531 3.221815 0
131.2096 19.12531 3.071815 0
131.4596 18.77531 3.021815 0
131.4596 18.92531 3.021815 0
131.4096 18.92531 3.071815 0
131.4596 18.77531 3.121815 0
131.4596 18.92531 3.071815 0
131.3596 18.97531 3.021815 0
131.5096 19.02531 2.871815 0
131.4596 19.12531 2.871815 0
131.3596 19.02531 3.071815 0
131.3596 19.07531 3.071815 0
131.5596 17.72531 2.021815 0
131.7096 17.77531 1.671815 0
131.7096 17.87531 1.721815 0
131.7096 17.92531 1.771815 0
131.7096 17.92531 1.821815 0
131.6096 17.87531 1.871815 0
131.9096 17.67531 1.671815 0
131.9096 17.72531 1.671815 0
131.8596 17.82531 1.671815 0
131.8596 17.82531 1.721815 0
131.8596 17.87531 1.721815 0
131.9096 17.87531 1.671815 0
131.6096 17.72531 2.071815 0
131.6096 17.82531 2.071815 0
131.6096 17.82531 2.171815 0
131.5596 17.92531 2.371815 0
131.5596 18.07531 1.971815 0
131.5596 18.07531 2.021815 0
131.7096 18.07531 1.921815 0
131.7096 18.27531 1.671815 0
131.5596 18.17531 2.021815 0
131.5596 18.22531 1.971815 0
131.5596 18.27531 2.021815 0
131.5596 18.32531 1.971815 0
131.6096 18.27531 1.971815 0
131.6596 18.17531 1.971815 0
131.7596 17.97531 1.821815 0
131.8096 18.02531 1.821815 0
131.8596 17.97531 1.721815 0
131.9096 17.97531 1.671815 0
131.8596 18.07531 1.671815 0
131.9096 18.12531 1.671815 0
131.8596 18.07531 1.821815 0
131.8096 18.17531 1.821815 0
131.8096 18.27531 1.821815 0
131.9096 18.17531 1.671815 0
131.9096 18.22531 1.671815 0
131.9096 18.32531 1.671815 0
131.7596 18.17531 1.971815 0
131.8096 18.22531 1.971815 0
131.7596 18.32531 1.871815 0
131.8596 18.27531 1.871815 0
131.5596 18.02531 2.421815 0
131.6096 18.17531 2.321815 0
131.8596 18.32531 2.171815 0
131.9596 18.12531 1.671815 0
131.9596 18.22531 1.671815 0
131.9596 18.27531 1.671815 0
131.6596 17.97531 2.471815 0
131.7096 18.47531 1.671815 0
131.6096 18.37531 1.971815 0
131.6096 18.42531 1.971815 0
131.6096 18.47531 1.971815 0
131.6096 18.52531 1.971815 0
131.7096 18.62531 1.671815 0
131.7096 18.72531 1.671815 0
131.6096 18.57531 1.921815 0
131.6596 18.57531 1.921815 0
131.7096 18.67531 1.921815 0
131.7096 18.72531 1.921815 0
131.8096 18.37531 1.821815 0
131.8096 18.47531 1.821815 0
131.8096 18.57531 1.871815 0
131.7596 18.72531 1.921815 0
131.8096 18.67531 1.871815 0
131.5596 18.72531 2.271815 0
131.6096 18.67531 2.271815 0
131.6596 18.57531 2.271815 0
131.8096 18.37531 2.271815 0
131.9096 18.47531 2.271815 0
131.8096 18.72531 2.071815 0
131.7596 18.67531 2.171815 0
131.9096 18.57531 2.121815 0
131.6596 18.82531 1.671815 0
131.7096 18.92531 1.671815 0
131.6096 19.12531 1.721815 0
131.6596 18.97531 1.671815 0
131.6596 19.07531 1.671815 0
131.7596 18.82531 1.871815 0
131.8096 18.82531 1.871815 0
131.8596 18.77531 1.871815 0
131.9096 18.82531 1.871815 0
131.8596 18.92531 1.871815 0
131.9096 18.87531 1.871815 0
131.9096 18.92531 1.871815 0
131.9096 19.02531 1.821815 0
131.8596 19.12531 1.821815 0
131.8096 19.02531 1.871815 0
131.8096 18.97531 1.971815 0
131.7596 19.07531 1.871815 0
131.8096 19.12531 1.871815 0
131.9096 18.97531 1.871815 0
131.9096 19.07531 1.871815 0
131.5596 18.92531 2.171815 0
131.6096 18.92531 2.171815 0
131.6596 18.77531 2.171815 0
131.7096 18.87531 2.071815 0
131.5596 19.12531 2.071815 0
131.6596 18.97531 2.071815 0
131.7096 19.07531 2.321815 0
131.7596 19.07531 2.221815 0
131.9096 19.02531 2.221815 0
131.8596 19.12531 2.171815 0
131.8596 18.97531 2.321815 0
131.9596 18.37531 1.671815 0
131.9596 18.42531 1.671815 0
132.0096 18.72531 1.871815 0
132.0096 18.92531 1.771815 0
132.0096 18.82531 1.871815 0
131.9596 18.87531 1.871815 0
131.9596 18.97531 1.821815 0
131.9596 19.12531 1.821815 0
132.0096 19.07531 1.771815 0
131.9596 18.97531 1.871815 0
131.9596 19.02531 1.871815 0
131.9596 19.12531 1.871815 0
132.0096 19.07531 1.871815 0
131.9596 18.82531 2.321815 0
131.9596 19.02531 2.171815 0
131.6096 18.52531 2.571815 0
131.6096 18.67531 2.571815 0
131.6096 18.77531 2.621815 0
131.6096 18.77531 2.671815 0
131.5596 18.92531 2.671815 0
131.6096 18.97531 2.571815 0
131.5596 19.07531 2.521815 0
131.6596 19.02531 2.521815 0
131.7596 18.87531 2.571815 0
131.8596 18.92531 2.471815 0
131.7596 18.97531 2.471815 0
131.1096 19.47531 1.021815 0
130.8096 19.27531 1.271815 0
130.7596 19.92531 1.121815 0
130.9096 19.77531 1.171815 0
130.9096 19.92531 1.121815 0
131.1096 19.92531 1.021815 0
130.9596 19.82531 1.171815 0
131.1096 19.77531 1.171815 0
131.1096 19.82531 1.221815 0
131.0596 19.92531 1.071815 0
131.1096 19.92531 1.121815 0
130.8096 19.92531 1.371815 0
130.8596 19.82531 1.271815 0
130.7596 19.87531 1.621815 0
130.8596 19.92531 1.571815 0
130.9596 19.87531 1.371815 0
131.0096 19.92531 1.371815 0
131.0596 19.82531 1.371815 0
131.1096 19.87531 1.371815 0
130.9596 19.87531 1.571815 0
131.1096 19.87531 1.521815 0
131.1096 19.92531 1.571815 0
131.1596 19.42531 1.021815 0
131.2096 19.47531 1.021815 0
131.2596 19.37531 1.021815 0
131.4596 19.32531 1.071815 0
131.3596 19.37531 1.021815 0
131.2096 19.67531 1.221815 0
131.2596 19.92531 1.021815 0
131.1596 19.77531 1.171815 0
131.2096 19.87531 1.121815 0
131.2096 19.92531 1.071815 0
131.2096 19.92531 1.221815 0
131.3096 19.87531 1.071815 0
131.3596 19.67531 1.221815 0
131.3596 19.72531 1.221815 0
131.4596 19.62531 1.221815 0
131.4596 19.87531 1.021815 0
131.4596 19.92531 0.9718148 0
131.5096 19.87531 1.021815 0
131.3596 19.82531 1.121815 0
131.3596 19.77531 1.171815 0
131.3596 19.92531 1.171815 0
131.5096 19.77531 1.071815 0
131.5096 19.82531 1.071815 0
131.3096 19.72531 1.521815 0
131.2596 19.82531 1.321815 0
131.2096 19.82531 1.521815 0
131.1596 19.77531 1.621815 0
131.2096 19.87531 1.571815 0
131.2596 19.77531 1.621815 0
131.3096 19.77531 1.571815 0
131.2596 19.87531 1.571815 0
131.4596 19.57531 1.321815 0
131.3596 19.67531 1.521815 0
131.3596 19.72531 1.621815 0
131.4096 19.67531 1.621815 0
131.5096 19.62531 1.621815 0
131.4596 19.67531 1.521815 0
131.4596 19.72531 1.571815 0
131.4096 19.82531 1.321815 0
131.5096 19.87531 1.321815 0
131.4596 19.92531 1.371815 0
131.5096 19.92531 1.421815 0
131.5096 19.77531 1.521815 0
130.7596 20.27531 0.8218147 0
130.9096 20.22531 0.8218147 0
131.0096 20.17531 0.8218147 0
131.0096 20.22531 0.7718147 0
131.0596 20.22531 0.7718147 0
131.1596 20.12531 0.8218147 0
131.2096 20.12531 0.8218147 0
131.1596 20.17531 0.7718147 0
131.1596 20.17531 0.8218147 0
131.2596 20.17531 0.7718147 0
131.3596 20.12531 0.7718147 0
131.3596 20.12531 0.8218147 0
131.4596 20.07531 0.7718147 0
130.8096 20.02531 1.021815 0
130.7596 20.12531 0.9218147 0
130.8096 20.12531 0.8718147 0
130.7596 20.07531 1.021815 0
130.8096 20.07531 0.9718148 0
130.8096 20.12531 0.9718148 0
130.9096 20.02531 0.9718148 0
130.9096 20.07531 0.9218147 0
130.8596 20.07531 0.9718148 0
130.7596 19.97531 1.071815 0
130.7596 19.97531 1.121815 0
130.9096 19.97531 1.071815 0
130.8596 20.07531 1.221815 0
130.8096 20.17531 0.8718147 0
130.9096 20.17531 0.8718147 0
130.9096 20.17531 1.221815 0
130.9596 19.97531 1.021815 0
130.9596 20.07531 0.9218147 0
130.9596 20.12531 0.8718147 0
131.0596 20.02531 0.9218147 0
131.0596 20.02531 0.9718148 0
131.0596 20.07531 0.8718147 0
131.0596 20.12531 0.9718148 0
131.0096 20.02531 1.221815 0
131.0096 20.07531 1.171815 0
131.0096 20.12531 1.171815 0
131.1096 19.97531 1.221815 0
131.0596 20.07531 1.171815 0
131.0596 20.12531 1.221815 0
131.0596 20.17531 0.8718147 0
130.7596 19.97531 1.371815 0
130.7596 20.12531 1.321815 0
130.7596 20.12531 1.371815 0
130.8596 19.97531 1.371815 0
130.9096 20.07531 1.321815 0
130.7596 20.02531 1.471815 0
130.8096 19.97531 1.571815 0
130.7596 20.07531 1.471815 0
130.7596 20.12531 1.521815 0
130.8596 20.02531 1.521815 0
130.9596 19.97531 1.371815 0
131.1096 19.97531 1.321815 0
130.9596 19.97531 1.471815 0
130.9596 19.97531 1.521815 0
130.9596 19.97531 1.571815 0
131.0096 20.07531 1.471815 0
131.1596 20.02531 0.9218147 0
131.2096 19.97531 0.9718148 0
131.1596 20.12531 0.8718147 0
131.2096 20.07531 0.8718147 0
131.2596 19.97531 0.9218147 0
131.3096 20.02531 0.8718147 0
131.3096 19.97531 0.9718148 0
131.2596 20.07531 0.8718147 0
131.2596 20.12531 0.9218147 0
131.2596 20.07531 0.9718148 0
131.1596 20.02531 1.171815 0
131.2096 20.07531 1.221815 0
131.3096 20.12531 1.121815 0
131.3596 19.97531 0.9218147 0
131.3596 20.07531 0.8718147 0
131.4596 20.02531 0.8718147 0
131.4596 20.02531 0.9218147 0
131.5096 20.02531 0.8718147 0
131.3596 20.02531 1.171815 0
131.2096 20.07531 1.421815 0
131.3096 19.97531 1.321815 0
131.3096 20.02531 1.421815 0
131.3096 20.12531 1.371815 0
131.2596 20.07531 1.471815 0
131.3596 19.97531 1.371815 0
131.4096 19.97531 1.421815 0
131.5096 19.97531 1.321815 0
131.5096 20.02531 1.321815 0
131.4096 19.97531 1.471815 0
131.8096 19.27531 0.1218147 0
131.8096 19.52531 0.1218147 0
131.8596 19.42531 0.1218147 0
131.9096 19.77531 0.07181472 0
132.1096 19.22531 0.1218147 0
132.2096 19.32531 0.1718147 0
132.2596 19.22531 0.07181472 0
132.3096 19.17531 0.07181472 0
132.3096 19.22531 0.07181472 0
132.2596 19.17531 0.2218147 0
132.2596 19.32531 0.07181472 0
132.2596 19.42531 0.07181472 0
132.3096 19.37531 0.07181472 0
132.2596 19.42531 0.2218147 0
132.2596 19.52531 0.07181472 0
132.3096 19.47531 0.07181472 0
132.2096 19.62531 0.1718147 0
132.1596 19.67531 0.1218147 0
132.2596 19.62531 0.07181472 0
132.3096 19.57531 0.07181472 0
132.3096 19.62531 0.07181472 0
132.2596 19.67531 0.07181472 0
132.2596 19.72531 0.2218147 0
132.2596 19.77531 0.07181472 0
132.2596 19.82531 0.07181472 0
132.3096 19.77531 0.07181472 0
132.2596 19.92531 0.07181472 0
132.3096 19.87531 0.07181472 0
131.5596 19.17531 1.071815 0
131.5596 19.27531 1.071815 0
131.9096 19.17531 1.121815 0
131.6596 19.52531 1.521815 0
131.7096 19.52531 1.571815 0
131.7096 19.52531 1.621815 0
131.9096 19.17531 1.471815 0
131.9096 19.22531 1.471815 0
131.9096 19.32531 1.471815 0
131.8596 19.52531 1.321815 0
131.8096 19.42531 1.471815 0
131.7596 19.52531 1.521815 0
131.8096 19.47531 1.571815 0
131.8096 19.47531 1.621815 0
131.8596 19.42531 1.471815 0
131.8596 19.42531 1.521815 0
131.9096 19.42531 1.471815 0
131.8596 19.42531 1.571815 0
131.9096 19.42531 1.571815 0
131.8596 19.47531 1.471815 0
131.8596 19.52531 1.471815 0
131.6096 19.62531 1.171815 0
131.5596 19.72531 1.171815 0
131.7096 19.72531 1.171815 0
131.5596 19.92531 0.9718148 0
131.6096 19.92531 0.9718148 0
131.6596 19.87531 0.9718148 0
131.6596 19.87531 1.021815 0
131.6096 19.77531 1.171815 0
131.6596 19.77531 1.071815 0
131.7096 19.82531 1.071815 0
131.7096 19.87531 1.071815 0
131.7596 19.62531 1.171815 0
131.8096 19.72531 1.121815 0
131.9096 19.62531 1.171815 0
131.8596 19.67531 1.171815 0
131.7596 19.87531 0.9718148 0
131.7596 19.87531 1.021815 0
131.8596 19.82531 0.9718148 0
131.7596 19.77531 1.071815 0
131.8096 19.77531 1.071815 0
131.8596 19.77531 1.121815 0
131.6096 19.57531 1.321815 0
131.5596 19.67531 1.321815 0
131.7096 19.62531 1.321815 0
131.5596 19.62531 1.521815 0
131.5596 19.57531 1.621815 0
131.5596 19.62531 1.571815 0
131.6096 19.57531 1.571815 0
131.7096 19.57531 1.571815 0
131.6096 19.87531 1.271815 0
131.5596 19.87531 1.371815 0
131.6096 19.87531 1.371815 0
131.6596 19.77531 1.321815 0
131.7096 19.82531 1.371815 0
131.6096 19.87531 1.471815 0
131.7596 19.57531 1.321815 0
131.7596 19.72531 1.321815 0
131.9096 19.57531 1.271815 0
131.8596 19.67531 1.321815 0
131.8596 19.67531 1.471815 0
131.7596 19.82531 1.271815 0
131.8096 19.77531 1.371815 0
131.7596 19.92531 1.271815 0
131.7596 19.77531 1.471815 0
132.0596 19.27531 1.171815 0
132.0596 19.37531 1.171815 0
132.1096 19.42531 1.171815 0
132.3096 19.17531 0.9718148 0
132.3096 19.17531 1.021815 0
132.3096 19.22531 0.9718148 0
132.3096 19.22531 1.021815 0
132.3096 19.27531 1.021815 0
132.3096 19.32531 1.021815 0
132.1596 19.22531 1.121815 0
132.1596 19.17531 1.221815 0
132.1596 19.22531 1.171815 0
132.2096 19.17531 1.221815 0
132.1596 19.27531 1.121815 0
132.1596 19.32531 1.121815 0
132.1596 19.27531 1.221815 0
132.1596 19.32531 1.221815 0
132.2096 19.27531 1.221815 0
132.2596 19.22531 1.121815 0
132.1596 19.37531 1.121815 0
132.1596 19.42531 1.121815 0
132.1596 19.37531 1.221815 0
132.1596 19.52531 1.121815 0
132.1596 19.47531 1.221815 0
131.9596 19.27531 1.321815 0
131.9596 19.27531 1.371815 0
132.0096 19.27531 1.371815 0
132.1096 19.22531 1.271815 0
132.0596 19.27531 1.271815 0
131.9596 19.17531 1.471815 0
131.9596 19.27531 1.471815 0
132.0096 19.32531 1.621815 0
132.1096 19.27531 1.621815 0
131.9596 19.37531 1.371815 0
131.9596 19.42531 1.371815 0
131.9596 19.47531 1.321815 0
132.0096 19.52531 1.271815 0
132.0596 19.37531 1.271815 0
132.0596 19.47531 1.271815 0
131.9596 19.42531 1.521815 0
132.0096 19.37531 1.471815 0
131.9596 19.42531 1.571815 0
132.0096 19.42531 1.571815 0
132.0596 19.37531 1.521815 0
132.0596 19.37531 1.571815 0
132.1096 19.37531 1.571815 0
132.1596 19.32531 1.521815 0
132.2596 19.27531 1.571815 0
132.0096 19.62531 1.171815 0
132.0596 19.62531 1.221815 0
132.1096 19.57531 1.171815 0
132.1096 19.67531 1.121815 0
132.0596 19.67531 1.171815 0
132.1596 19.62531 1.121815 0
131.9596 19.57531 1.321815 0
131.9596 19.62531 1.321815 0
132.0096 19.57531 1.421815 0
131.9596 19.67531 1.321815 0
131.9596 19.72531 1.321815 0
131.6096 20.02531 0.8218147 0
131.6096 20.07531 0.7718147 0
132.1596 20.12531 0.1718147 0
132.3096 20.02531 0.07181472 0
132.2596 20.02531 0.1718147 0
132.3096 19.97531 0.2218147 0
132.3096 20.12531 0.07181472 0
132.3096 20.22531 0.07181472 0
132.3096 20.22531 0.2218147 0
132.3096 20.32531 0.07181472 0
132.0096 20.72531 0.2218147 0
132.1096 20.62531 0.2218147 0
132.1096 20.72531 0.1218147 0
132.2096 20.52531 0.1718147 0
132.3096 20.42531 0.07181472 0
132.2596 20.37531 0.1718147 0
132.3096 20.52531 0.07181472 0
132.3096 20.47531 0.2218147 0
132.2096 20.57531 0.2218147 0
132.3096 20.62531 0.07181472 0
132.2596 20.67531 0.1718147 0
131.5596 20.02531 0.8718147 0
131.6096 20.02531 0.8718147 0
131.7096 19.97531 0.8718147 0
130.7596 19.47531 1.971815 0
130.7596 19.47531 2.021815 0
130.9096 19.42531 1.921815 0
130.9096 19.47531 2.021815 0
131.0596 19.42531 1.921815 0
131.0596 19.52531 1.921815 0
130.9096 19.47531 2.221815 0
130.7596 19.42531 2.321815 0
130.9096 19.52531 2.271815 0
130.9596 19.32531 2.321815 0
131.0096 19.47531 2.271815 0
131.0596 19.42531 2.271815 0
131.1096 19.37531 2.271815 0
131.1096 19.42531 2.271815 0
131.0596 19.52531 2.271815 0
130.7596 19.67531 1.821815 0
130.8596 19.62531 1.821815 0
130.7596 19.72531 1.921815 0
130.7596 19.67531 2.021815 0
130.8596 19.62531 1.921815 0
130.8096 19.77531 1.721815 0
130.7596 19.87531 1.671815 0
130.9096 19.87531 1.671815 0
130.7596 19.82531 1.921815 0
130.9096 19.92531 1.921815 0
131.0096 19.62531 1.821815 0
130.9596 19.72531 1.721815 0
131.1096 19.67531 1.721815 0
131.1096 19.72531 1.721815 0
130.9596 19.77531 1.721815 0
131.0596 19.82531 1.671815 0
131.0096 19.77531 2.021815 0
131.0096 19.87531 1.971815 0
131.1096 19.72531 2.071815 0
131.1096 19.67531 2.221815 0
131.0596 19.57531 2.271815 0
130.9596 19.92531 2.121815 0
131.1096 19.77531 2.121815 0
131.1096 19.82531 2.071815 0
131.2096 19.47531 1.771815 0
131.3096 19.52531 2.021815 0
131.3596 19.42531 1.771815 0
131.4096 19.47531 1.721815 0
131.4096 19.52531 1.771815 0
131.5096 19.42531 1.721815 0
131.4596 19.37531 1.771815 0
131.4096 19.42531 2.021815 0
131.2096 19.27531 2.221815 0
131.1596 19.37531 2.221815 0
131.3596 19.17531 2.221815 0
131.5096 19.32531 2.071815 0
131.3596 19.37531 2.171815 0
131.5096 19.52531 2.221815 0
131.4096 19.52531 2.271815 0
131.5096 19.37531 2.271815 0
131.1596 19.57531 1.771815 0
131.2096 19.57531 1.821815 0
131.2596 19.57531 1.721815 0
131.2596 19.67531 1.671815 0
131.2096 19.62531 2.021815 0
131.2096 19.82531 1.921815 0
131.1596 19.77531 2.021815 0
131.3096 19.77531 1.921815 0
131.3596 19.62531 1.671815 0
131.4596 19.62531 1.671815 0
131.4096 19.57531 2.021815 0
131.3596 19.72531 1.921815 0
131.4596 19.57531 1.921815 0
131.4596 19.62531 1.871815 0
131.5096 19.57531 1.871815 0
131.5096 19.62531 1.871815 0
131.4596 19.67531 1.871815 0
131.4596 19.67531 1.921815 0
131.2096 19.57531 2.121815 0
131.2596 19.62531 2.071815 0
131.2596 19.72531 2.171815 0
131.2096 19.87531 2.071815 0
131.2596 19.77531 2.171815 0
131.4596 19.62531 2.221815 0
131.3596 19.72531 2.271815 0
130.8596 19.27531 2.671815 0
130.9096 19.32531 2.671815 0
130.8096 19.42531 2.621815 0
130.7596 19.47531 2.571815 0
130.9096 19.42531 2.571815 0
130.8596 19.52531 2.571815 0
130.7596 19.47531 2.671815 0
130.9096 19.42531 2.671815 0
130.9096 19.47531 2.671815 0
131.0596 19.32531 2.621815 0
131.0596 19.17531 2.671815 0
131.1096 19.17531 2.671815 0
131.0596 19.27531 2.671815 0
131.1096 19.32531 2.671815 0
130.9596 19.37531 2.621815 0
131.0096 19.42531 2.571815 0
131.0596 19.37531 2.571815 0
130.9596 19.52531 2.821815 0
130.7596 19.27531 3.071815 0
130.8596 19.22531 3.071815 0
130.8596 19.22531 3.121815 0
130.7596 19.42531 2.871815 0
130.7596 19.37531 3.221815 0
131.1096 19.32531 2.871815 0
131.1096 19.32531 2.971815 0
131.0096 19.32531 3.071815 0
131.0596 19.17531 3.221815 0
131.1096 19.32531 3.071815 0
130.9596 19.37531 2.871815 0
130.9596 19.37531 3.171815 0
130.7596 19.57531 2.821815 0
131.2096 19.22531 2.571815 0
131.1596 19.27531 2.571815 0
131.1596 19.32531 2.571815 0
131.2596 19.22531 2.571815 0
131.3096 19.17531 2.571815 0
131.3096 19.32531 2.821815 0
131.1596 19.47531 2.821815 0
131.4596 19.22531 2.621815 0
131.1596 19.22531 3.021815 0
131.1596 19.32531 3.021815 0
131.2596 19.27531 2.871815 0
131.1596 19.22531 3.071815 0
131.2596 19.17531 3.071815 0
131.4096 19.17531 2.871815 0
131.6096 19.17531 1.721815 0
131.6096 19.22531 1.721815 0
131.5596 19.32531 1.771815 0
131.6596 19.22531 1.771815 0
131.6596 19.32531 1.721815 0
131.7096 19.17531 1.871815 0
131.7096 19.17531 1.921815 0
131.6596 19.27531 1.871815 0
131.7096 19.27531 1.921815 0
131.7096 19.32531 1.871815 0
131.7096 19.42531 1.721815 0
131.6096 19.37531 1.871815 0
131.6096 19.37531 1.921815 0
131.6096 19.37531 1.971815 0
131.5596 19.47531 1.871815 0
131.6096 19.52531 1.871815 0
131.5596 19.47531 1.971815 0
131.6596 19.42531 1.871815 0
131.8096 19.22531 1.721815 0
131.8096 19.22531 1.771815 0
131.9096 19.17531 1.771815 0
131.7596 19.17531 1.871815 0
131.7596 19.22531 1.921815 0
131.8096 19.17531 1.871815 0
131.7596 19.27531 1.871815 0
131.6096 19.32531 2.221815 0
131.7096 19.17531 2.221815 0
131.6596 19.27531 2.221815 0
131.7096 19.32531 2.171815 0
131.6096 19.17531 2.271815 0
131.5596 19.42531 2.221815 0
131.6096 19.52531 2.171815 0
131.7096 19.42531 2.121815 0
131.6596 19.42531 2.171815 0
131.7096 19.52531 2.071815 0
131.6596 19.47531 2.171815 0
131.7596 19.17531 2.171815 0
131.7596 19.27531 2.171815 0
131.8596 19.22531 2.121815 0
131.9096 19.17531 2.121815 0
131.7596 19.37531 2.121815 0
131.8096 19.42531 2.071815 0
131.7596 19.47531 2.071815 0
131.5596 19.57531 1.871815 0
131.6096 19.57531 2.171815 0
131.9596 19.17531 1.721815 0
130.6096 18.12531 3.521815 0
130.5596 18.32531 3.271815 0
130.5596 18.32531 3.421815 0
130.7096 18.32531 3.321815 0
130.7096 18.27531 3.771815 0
130.4596 18.42531 3.271815 0
130.6596 18.42531 3.321815 0
130.6596 18.42531 3.821815 0
130.7096 18.52531 3.721815 0
130.6596 18.52531 3.821815 0
130.6596 19.12531 3.621815 0
130.7096 19.12531 3.621815 0
130.4096 19.02531 3.671815 0
130.4596 19.02531 3.671815 0
130.5596 19.02531 3.921815 0
130.6596 18.52531 4.171815 0
130.6596 19.22531 3.471815 0
130.7596 18.12531 3.271815 0
130.9096 18.12531 3.271815 0
130.8096 18.17531 3.321815 0
130.7596 18.22531 3.421815 0
130.7596 18.27531 3.271815 0
130.8096 18.17531 3.571815 0
131.0596 18.12531 3.271815 0
131.0096 18.22531 3.321815 0
130.9596 18.22531 3.421815 0
131.0096 18.17531 3.571815 0
130.7596 18.12531 3.671815 0
130.7596 18.27531 3.821815 0
130.8596 18.27531 3.771815 0
130.9596 18.12531 3.671815 0
130.9596 18.32531 3.821815 0
131.0096 18.32531 3.821815 0
131.2096 18.12531 3.321815 0
131.2596 18.12531 3.271815 0
131.2096 18.17531 3.321815 0
131.1596 18.17531 3.421815 0
131.3096 18.17531 3.271815 0
131.2596 18.32531 3.621815 0
131.1596 18.22531 3.721815 0
131.4096 18.32531 3.721815 0
131.0596 18.72531 3.921815 0
130.7596 18.97531 3.621815 0
130.7596 19.07531 3.521815 0
130.9596 19.07531 3.471815 0
131.1096 19.02531 3.471815 0
130.7596 18.97531 3.671815 0
130.9596 19.02531 3.871815 0
131.1096 19.07531 4.021815 0
131.3096 18.62531 3.621815 0
131.1596 18.37531 3.871815 0
131.2596 18.72531 3.871815 0
131.4096 18.47531 3.871815 0
131.2596 18.77531 3.271815 0
131.2596 18.92531 3.571815 0
131.2096 19.07531 3.521815 0
131.1596 19.07531 3.571815 0
131.2096 19.07531 3.571815 0
131.2596 18.97531 3.521815 0
131.3096 19.02531 3.471815 0
131.4096 18.82531 3.471815 0
131.3596 18.82531 3.571815 0
131.3596 18.82531 3.621815 0
130.8096 18.42531 4.171815 0
130.9096 18.42531 4.271815 0
130.8596 18.42531 4.371815 0
130.8596 18.52531 4.421815 0
130.8096 18.62531 4.271815 0
130.7596 18.72531 4.421815 0
131.0596 18.37531 4.171815 0
131.0096 18.47531 4.421815 0
131.1096 18.42531 4.271815 0
131.0596 18.42531 4.371815 0
130.7596 19.12531 4.071815 0
130.8096 19.07531 4.121815 0
130.9096 18.97531 4.121815 0
130.9596 19.07531 4.071815 0
131.1096 18.97531 4.121815 0
130.8096 18.82531 4.471815 0
131.1596 18.82531 4.071815 0
131.2096 18.87531 4.121815 0
130.8096 19.17531 3.571815 0
131.1096 19.17531 3.521815 0
131.0596 19.17531 3.571815 0
131.0596 19.27531 3.571815 0
130.8596 19.17531 3.871815 0
126.2596 21.87531 0.1718147 0
126.2596 21.92531 0.1718147 0
126.3096 21.77531 0.3218147 0
126.3096 21.82531 0.3218147 0
126.3096 21.77531 0.4218147 0
126.3096 21.82531 0.3718147 0
126.3096 21.82531 0.4718147 0
126.3096 21.82531 0.5218147 0
126.0596 22.07531 0.3218147 0
125.9596 22.17531 0.2718147 0
125.9596 22.17531 0.3718147 0
126.0096 22.17531 0.4218147 0
126.0596 22.17531 0.2718147 0
126.0596 22.17531 0.3718147 0
126.0596 22.17531 0.4218147 0
126.1596 21.97531 0.3218147 0
126.1596 22.17531 0.2718147 0
126.1596 22.17531 0.3718147 0
126.1596 22.17531 0.4218147 0
126.2596 22.17531 0.2718147 0
126.2596 22.17531 0.3718147 0
126.2596 22.17531 0.4218147 0
126.9596 22.32531 0.07181472 0
127.1596 22.27531 0.07181472 0
127.3596 22.22531 0.07181472 0
126.0096 22.62531 0.07181472 0
126.2096 22.57531 0.07181472 0
126.4096 22.52531 0.07181472 0
126.6096 22.47531 0.07181472 0
126.7596 22.37531 0.07181472 0
127.5596 22.17531 0.07181472 0
127.7596 22.12531 0.07181472 0
126.1096 24.32531 0.3218147 0
126.3096 24.12531 0.1718147 0
126.2096 24.22531 0.3218147 0
126.0596 24.42531 0.3218147 0
126.0596 24.42531 0.3718147 0
126.1096 24.42531 0.4218147 0
126.1596 24.42531 0.2718147 0
126.1596 24.42531 0.3718147 0
126.1596 24.42531 0.4218147 0
126.2596 24.42531 0.2718147 0
126.3096 24.42531 0.2718147 0
126.2596 24.42531 0.3718147 0
126.2596 24.42531 0.4218147 0
126.4096 24.02531 0.3718147 0
126.4096 24.02531 0.4218147 0
126.3596 24.07531 0.3718147 0
126.4096 24.07531 0.3718147 0
126.3596 24.17531 0.1718147 0
126.4096 24.02531 0.5218147 0
126.3596 24.07531 0.4718147 0
126.3596 24.07531 0.5218147 0
126.4096 24.07531 0.4718147 0
126.4096 24.07531 0.5218147 0
126.3596 24.42531 0.3718147 0
126.3596 24.42531 0.4718147 0
126.4596 26.32531 0.3218147 0
126.4596 26.32531 0.3718147 0
126.4596 26.27531 0.4718147 0
126.4596 26.32531 0.4718147 0
126.4596 26.32531 0.5218147 0
126.3096 26.47531 0.3218147 0
126.2096 26.57531 0.3218147 0
126.1596 26.67531 0.2718147 0
126.2096 26.67531 0.2718147 0
126.1596 26.67531 0.3718147 0
126.1596 26.67531 0.4218147 0
126.2096 26.67531 0.3718147 0
126.3096 26.67531 0.2718147 0
126.2596 26.67531 0.4218147 0
126.3096 26.67531 0.3718147 0
126.3096 26.67531 0.4218147 0
126.4096 26.37531 0.1718147 0
126.4596 26.42531 0.1718147 0
126.4096 26.67531 0.2718147 0
126.4096 26.67531 0.3718147 0
126.4096 26.67531 0.4218147 0
129.7596 20.77531 0.1218147 0
129.7596 20.82531 0.07181472 0
129.7596 20.82531 0.1218147 0
129.7596 20.87531 0.1218147 0
129.7596 20.92531 0.07181472 0
129.7596 20.97531 0.1218147 0
129.8096 21.02531 0.07181472 0
129.7596 21.07531 0.1218147 0
129.7596 21.12531 0.07181472 0
129.7596 21.22531 0.07181472 0
129.7596 21.22531 0.1218147 0
129.8096 21.17531 0.1218147 0
129.7596 21.27531 0.1218147 0
129.7596 21.32531 0.1218147 0
129.8096 21.27531 0.1218147 0
129.8096 21.32531 0.1218147 0
129.7596 21.37531 0.1218147 0
129.8096 21.42531 0.1218147 0
129.8096 21.47531 0.1218147 0
129.8096 21.52531 0.1218147 0
129.7596 21.62531 0.1218147 0
129.8096 21.57531 0.1218147 0
129.8096 21.62531 0.1218147 0
129.8096 21.67531 0.1218147 0
129.8096 21.72531 0.1218147 0
129.9096 21.72531 0.07181472 0
129.8096 21.77531 0.1218147 0
129.8096 21.82531 0.1218147 0
129.8096 21.87531 0.1218147 0
129.8096 21.92531 0.07181472 0
129.8096 21.92531 0.1218147 0
129.8096 21.97531 0.07181472 0
129.8096 22.02531 0.1218147 0
129.8096 22.07531 0.07181472 0
129.8096 22.12531 0.1218147 0
129.8596 21.97531 0.1218147 0
129.8096 22.17531 0.07181472 0
129.8096 22.22531 0.07181472 0
129.8096 22.22531 0.1218147 0
129.8096 22.27531 0.07181472 0
129.8096 22.27531 0.1218147 0
129.8096 22.32531 0.1218147 0
130.2096 20.82531 0.2218147 0
130.2096 21.02531 0.2218147 0
130.2596 21.22531 0.2218147 0
130.2596 21.42531 0.2218147 0
130.0596 21.67531 0.07181472 0
130.0596 21.87531 0.1218147 0
130.2096 21.62531 0.1718147 0
130.2596 21.62531 0.07181472 0
130.2596 21.62531 0.2218147 0
130.2096 21.82531 0.1218147 0
130.2096 21.87531 0.1718147 0
130.2596 21.82531 0.2218147 0
129.9596 21.97531 0.1218147 0
130.2596 22.02531 0.2218147 0
130.2596 22.12531 0.1718147 0
130.2596 22.17531 0.2218147 0
130.2596 22.32531 0.1718147 0
130.2596 22.32531 0.2218147 0
130.4596 21.62531 0.07181472 0
130.6596 21.57531 0.07181472 0
129.8096 22.37531 0.07181472 0
129.8096 22.42531 0.1218147 0
129.8096 22.47531 0.07181472 0
129.8096 22.52531 0.1218147 0
129.8096 22.57531 0.07181472 0
129.8596 22.57531 0.1218147 0
129.8596 22.62531 0.1218147 0
129.8596 22.67531 0.07181472 0
129.8596 22.72531 0.1218147 0
129.9096 22.72531 0.2218147 0
129.8596 22.77531 0.07181472 0
129.8596 22.82531 0.1218147 0
129.8596 22.82531 0.2218147 0
129.8596 22.87531 0.07181472 0
129.8596 22.92531 0.1218147 0
129.8596 22.97531 0.07181472 0
129.8596 22.97531 0.1218147 0
129.8596 23.02531 0.1218147 0
129.8596 23.07531 0.07181472 0
129.8596 23.12531 0.1218147 0
129.8596 23.17531 0.07181472 0
129.8596 23.22531 0.1218147 0
129.8596 23.27531 0.07181472 0
129.8596 23.32531 0.1218147 0
129.8596 23.37531 0.07181472 0
129.8596 23.42531 0.1218147 0
129.8596 23.47531 0.07181472 0
129.8596 23.47531 0.1218147 0
129.8596 23.52531 0.1218147 0
129.8596 23.57531 0.1218147 0
129.8596 23.62531 0.1218147 0
129.8596 23.67531 0.1218147 0
129.8596 23.72531 0.1218147 0
129.9096 23.72531 0.1218147 0
129.8596 23.77531 0.1218147 0
129.9096 23.82531 0.1218147 0
129.9096 23.87531 0.1218147 0
129.9096 23.92531 0.1218147 0
130.1096 22.52531 0.2218147 0
130.0096 22.62531 0.2218147 0
130.1596 22.42531 0.2218147 0
130.2596 22.57531 0.1718147 0
130.2596 22.77531 0.1718147 0
130.2596 22.97531 0.1718147 0
130.3096 23.22531 0.1718147 0
130.2596 23.42531 0.1718147 0
130.3096 23.42531 0.1718147 0
130.3096 23.62531 0.1718147 0
130.2596 23.67531 0.1718147 0
130.3096 23.82531 0.1718147 0
130.2596 23.92531 0.1718147 0
131.2596 21.52531 0.07181472 0
130.8596 21.57531 0.07181472 0
131.0596 21.57531 0.07181472 0
131.8096 20.87531 0.2218147 0
131.9096 20.82531 0.2218147 0
131.8596 21.02531 0.1218147 0
131.9096 21.02531 0.07181472 0
131.8596 21.27531 0.1218147 0
131.9096 21.37531 0.07181472 0
131.9096 21.52531 0.1218147 0
132.0096 20.77531 0.1218147 0
131.9596 20.87531 0.1218147 0
132.2096 20.92531 0.1718147 0
132.3096 20.97531 0.1718147 0
132.2096 21.17531 0.1718147 0
132.2596 21.32531 0.1718147 0
132.3096 21.27531 0.1718147 0
131.9096 21.72531 0.07181472 0
131.9096 21.77531 0.07181472 0
131.9096 22.07531 0.07181472 0
131.9096 22.32531 0.07181472 0
132.3096 21.57531 0.1718147 0
132.2596 21.67531 0.1718147 0
132.3096 21.82531 0.1718147 0
131.9596 22.12531 0.07181472 0
132.2596 22.02531 0.1718147 0
132.2596 22.12531 0.1718147 0
131.9596 22.47531 0.07181472 0
131.9596 22.62531 0.07181472 0
132.3096 22.37531 0.1718147 0
132.3096 22.52531 0.1718147 0
132.3096 22.67531 0.1718147 0
131.9596 22.92531 0.07181472 0
132.0096 23.07531 0.1218147 0
132.1096 22.97531 0.1218147 0
132.1096 23.12531 0.1718147 0
132.3096 22.87531 0.1218147 0
132.3096 22.92531 0.1718147 0
132.2096 22.97531 0.1218147 0
132.2096 23.02531 0.1718147 0
132.3096 22.97531 0.1718147 0
131.9096 23.27531 0.1718147 0
132.0096 23.17531 0.1718147 0
131.9596 23.27531 0.07181472 0
131.9596 23.27531 0.1218147 0
131.9596 23.47531 0.1218147 0
132.3096 23.27531 0.1718147 0
132.3096 23.32531 0.1718147 0
131.9596 23.62531 0.07181472 0
131.9596 23.72531 0.1218147 0
132.0096 23.92531 0.07181472 0
129.9096 23.97531 0.07181472 0
129.9096 23.97531 0.1218147 0
129.9096 24.02531 0.07181472 0
129.9096 24.07531 0.1218147 0
129.9096 24.12531 0.07181472 0
129.9096 24.17531 0.1218147 0
129.9096 24.22531 0.07181472 0
129.9096 24.22531 0.1218147 0
129.9096 24.32531 0.07181472 0
129.9096 24.37531 0.1218147 0
129.9096 24.42531 0.07181472 0
129.9096 24.47531 0.1218147 0
129.9096 24.52531 0.07181472 0
129.9096 24.57531 0.1218147 0
129.9096 24.62531 0.07181472 0
129.9096 24.67531 0.1218147 0
129.9096 24.72531 0.07181472 0
129.9096 24.77531 0.07181472 0
129.9096 24.77531 0.1218147 0
129.9096 24.82531 0.07181472 0
129.9096 24.87531 0.1218147 0
129.9096 24.92531 0.07181472 0
129.9096 24.97531 0.1218147 0
129.9096 25.07531 0.1218147 0
129.9096 25.12531 0.1218147 0
129.9096 25.17531 0.1218147 0
129.9096 25.32531 0.1718147 0
130.0596 24.17531 0.1218147 0
130.1596 24.12531 0.1218147 0
130.3096 23.97531 0.1718147 0
130.2596 24.07531 0.1218147 0
130.2596 24.17531 0.1718147 0
130.3096 24.17531 0.1718147 0
130.2596 24.37531 0.1718147 0
130.3096 24.37531 0.1718147 0
130.3096 24.62531 0.1718147 0
130.4096 24.02531 0.1218147 0
130.3596 24.52531 0.1718147 0
130.3596 24.72531 0.1718147 0
129.9596 25.02531 0.07181472 0
129.9596 25.07531 0.1218147 0
129.9596 25.12531 0.07181472 0
130.0596 25.12531 0.1718147 0
130.2096 24.92531 0.1718147 0
130.3096 24.82531 0.1718147 0
130.3096 24.87531 0.1718147 0
130.1596 25.02531 0.1718147 0
130.3096 25.07531 0.1718147 0
129.9596 25.22531 0.07181472 0
130.0096 25.22531 0.1718147 0
129.9596 25.27531 0.1218147 0
129.9596 25.32531 0.07181472 0
129.9596 25.32531 0.1218147 0
129.9596 25.42531 0.07181472 0
129.9596 25.47531 0.1218147 0
129.9596 25.52531 0.07181472 0
130.3096 25.27531 0.1718147 0
130.3596 25.47531 0.1718147 0
129.8596 25.67531 0.07181472 0
129.8596 25.87531 0.07181472 0
129.9096 26.07531 0.07181472 0
129.9096 26.22531 0.07181472 0
129.8596 26.52531 0.07181472 0
129.9096 26.47531 0.07181472 0
129.9096 26.52531 0.07181472 0
129.9096 26.82531 0.07181472 0
129.9096 26.87531 0.07181472 0
129.9096 26.97531 0.1218147 0
129.9596 25.57531 0.07181472 0
129.9596 25.57531 0.1218147 0
129.9596 25.62531 0.07181472 0
129.9596 25.67531 0.1218147 0
129.9596 25.72531 0.07181472 0
129.9596 25.72531 0.1218147 0
129.9596 25.77531 0.1218147 0
129.9596 25.82531 0.07181472 0
129.9596 25.82531 0.1218147 0
130.0096 25.82531 0.07181472 0
129.9596 25.87531 0.07181472 0
129.9596 25.87531 0.1218147 0
129.9596 25.92531 0.1218147 0
129.9596 25.97531 0.1218147 0
129.9596 26.02531 0.07181472 0
129.9596 26.02531 0.1218147 0
129.9596 26.07531 0.07181472 0
129.9596 26.07531 0.1218147 0
129.9596 26.12531 0.1218147 0
130.0096 26.07531 0.1218147 0
129.9596 26.22531 0.07181472 0
129.9596 26.22531 0.1218147 0
130.0096 26.17531 0.1218147 0
130.0096 26.27531 0.1218147 0
130.0096 26.32531 0.1218147 0
130.0596 26.27531 0.07181472 0
130.2096 26.32531 0.1218147 0
130.3096 26.27531 0.1218147 0
130.3596 25.67531 0.1718147 0
130.3596 25.87531 0.1718147 0
130.5596 25.67531 0.1718147 0
130.3596 25.97531 0.1718147 0
130.3596 26.07531 0.1718147 0
130.3596 26.22531 0.1718147 0
130.4596 26.22531 0.1218147 0
130.5596 26.12531 0.1718147 0
130.0096 26.37531 0.07181472 0
130.0096 26.42531 0.07181472 0
130.0096 26.42531 0.1218147 0
129.9596 26.52531 0.07181472 0
130.0096 26.47531 0.07181472 0
130.0096 26.52531 0.07181472 0
130.0096 26.52531 0.1218147 0
130.1096 26.37531 0.1218147 0
130.0096 26.57531 0.07181472 0
130.0096 26.62531 0.1218147 0
130.0096 26.67531 0.07181472 0
130.0096 26.72531 0.1218147 0
130.0096 26.77531 0.07181472 0
130.0096 26.82531 0.07181472 0
130.0096 26.82531 0.1218147 0
130.0096 26.87531 0.07181472 0
130.0096 26.92531 0.07181472 0
130.0096 26.92531 0.1218147 0
130.0596 26.77531 0.07181472 0
130.0096 26.97531 0.07181472 0
130.0096 27.02531 0.1218147 0
130.0096 27.07531 0.07181472 0
130.0096 27.12531 0.07181472 0
130.0096 27.12531 0.1218147 0
130.2096 27.12531 0.1718147 0
130.3096 27.02531 0.1718147 0
130.3596 26.42531 0.1718147 0
130.3596 26.47531 0.1718147 0
130.4096 26.62531 0.1718147 0
130.4096 26.67531 0.1718147 0
130.6096 26.57531 0.2218147 0
130.4096 26.77531 0.1718147 0
130.3596 26.92531 0.1718147 0
130.4096 26.92531 0.2218147 0
130.4096 27.12531 0.2218147 0
130.6096 26.97531 0.2218147 0
132.0096 24.02531 0.1218147 0
132.0096 24.27531 0.1218147 0
132.0096 24.32531 0.07181472 0
132.0096 24.57531 0.07181472 0
132.0096 24.67531 0.07181472 0
132.0096 24.87531 0.07181472 0
132.2096 25.12531 0.1218147 0
132.3096 25.02531 0.1218147 0
132.3096 25.07531 0.1718147 0
132.0096 25.17531 0.07181472 0
132.0096 25.32531 0.1718147 0
132.1096 25.17531 0.1218147 0
132.1096 25.22531 0.1718147 0
132.0596 25.27531 0.1218147 0
132.0596 25.47531 0.07181472 0
132.0596 25.52531 0.1218147 0
132.2096 25.17531 0.1718147 0
132.0596 25.77531 0.1218147 0
132.0596 25.82531 0.07181472 0
132.1096 26.02531 0.07181472 0
132.0596 26.17531 0.07181472 0
132.1096 26.27531 0.07181472 0
132.1596 26.12531 0.07181472 0
131.8596 26.92531 0.1218147 0
132.1096 26.57531 0.07181472 0
132.1596 26.57531 0.07181472 0
132.1096 26.87531 0.07181472 0
132.1096 26.92531 0.07181472 0
132.0096 27.02531 0.07181472 0
132.1596 27.02531 0.07181472 0
132.3596 18.12531 1.121815 0
132.4096 18.17531 1.121815 0
132.3596 18.27531 1.121815 0
132.3596 18.97531 0.07181472 0
132.4096 18.42531 1.021815 0
132.3596 18.47531 1.021815 0
132.4096 18.62531 0.9218147 0
132.3596 18.57531 1.021815 0
132.4096 18.57531 0.9718148 0
132.4096 18.62531 0.9718148 0
132.4096 18.67531 0.9218147 0
132.3596 18.67531 0.9718148 0
132.3596 18.72531 0.9718148 0
132.4596 18.62531 0.9218147 0
132.4596 18.67531 0.9718148 0
132.4596 18.72531 0.9718148 0
132.4096 18.77531 0.9218147 0
132.3596 18.77531 0.9718148 0
132.4096 18.77531 0.9718148 0
132.3596 18.87531 0.9218147 0
132.3596 18.87531 0.9718148 0
132.3596 18.92531 0.9718148 0
132.3596 19.02531 0.9218147 0
132.4096 18.97531 0.8718147 0
132.4096 18.97531 0.9218147 0
132.3596 18.97531 0.9718148 0
132.3596 19.07531 0.9218147 0
132.3596 19.12531 0.9218147 0
132.3596 19.07531 1.021815 0
132.3596 19.72531 0.07181472 0
132.3596 19.92531 0.07181472 0
132.3596 19.17531 0.9218147 0
132.3596 19.22531 0.9218147 0
132.3596 19.17531 1.021815 0
132.3596 20.12531 0.07181472 0
132.3596 20.27531 0.07181472 0
132.3596 20.32531 0.07181472 0
132.3596 20.42531 0.07181472 0
132.3596 20.47531 0.07181472 0
132.3596 20.52531 0.07181472 0
132.3596 20.67531 0.07181472 0
132.3596 20.72531 0.07181472 0
136.7096 17.07531 0.2718147 0
136.7096 17.07531 0.3718147 0
136.7096 17.07531 0.4218147 0
136.7096 17.42531 0.3218147 0
136.7096 17.42531 0.3718147 0
136.7096 17.42531 0.4718147 0
136.7096 17.47531 0.5218147 0
136.8096 17.07531 0.2718147 0
136.8096 17.07531 0.3718147 0
136.8096 17.07531 0.4218147 0
136.9096 17.02531 0.2718147 0
136.9096 17.02531 0.3718147 0
136.9096 17.02531 0.4218147 0
136.9596 17.02531 0.2718147 0
136.9596 17.02531 0.3718147 0
136.9596 17.02531 0.4218147 0
136.7596 17.32531 0.1718147 0
136.9096 17.17531 0.3218147 0
136.8596 17.27531 0.3218147 0
136.7596 17.37531 0.1718147 0
136.7596 17.47531 0.3218147 0
136.7596 17.47531 0.4218147 0
136.7596 17.42531 0.5218147 0
136.7596 17.47531 0.5218147 0
137.1096 19.27531 0.2718147 0
137.1096 19.27531 0.3718147 0
137.1096 19.27531 0.4218147 0
137.1096 19.52531 0.1718147 0
137.1096 19.62531 0.3718147 0
137.1096 19.67531 0.3218147 0
137.1096 19.67531 0.3718147 0
137.1096 19.67531 0.4218147 0
137.1096 19.62531 0.4718147 0
137.1096 19.62531 0.5218147 0
137.1096 19.67531 0.4718147 0
137.1096 19.67531 0.5218147 0
137.2096 19.22531 0.2718147 0
137.2096 19.27531 0.3718147 0
137.2096 19.27531 0.4218147 0
137.3096 19.22531 0.2718147 0
137.2596 19.22531 0.4218147 0
137.3096 19.22531 0.3718147 0
137.3096 19.32531 0.3218147 0
137.2096 19.47531 0.3218147 0
137.3596 19.22531 0.2718147 0
137.3596 19.22531 0.3718147 0
137.3596 19.22531 0.4218147 0
137.1596 19.57531 0.1718147 0
132.3596 20.82531 0.07181472 0
132.4096 20.77531 0.07181472 0
132.4096 20.82531 0.07181472 0
132.3596 20.92531 0.07181472 0
132.3596 21.02531 0.07181472 0
132.4096 20.97531 0.07181472 0
132.3596 21.12531 0.07181472 0
132.4096 21.07531 0.07181472 0
132.4096 21.12531 0.07181472 0
132.3596 21.22531 0.07181472 0
132.4096 21.17531 0.07181472 0
132.3596 21.27531 0.07181472 0
132.3596 21.32531 0.07181472 0
132.4096 21.27531 0.07181472 0
132.4096 21.32531 0.07181472 0
132.3596 21.42531 0.07181472 0
132.4096 21.42531 0.07181472 0
132.4096 21.52531 0.07181472 0
132.4096 21.62531 0.07181472 0
132.4096 21.72531 0.07181472 0
132.4096 21.82531 0.07181472 0
132.4096 21.92531 0.07181472 0
132.4096 22.02531 0.07181472 0
132.4096 22.12531 0.07181472 0
132.3596 22.07531 0.1718147 0
132.4096 22.17531 0.07181472 0
132.4096 22.22531 0.07181472 0
132.4096 22.32531 0.07181472 0
132.3596 22.32531 0.1718147 0
133.6096 21.57531 0.1218147 0
133.8096 21.57531 0.1218147 0
132.4096 22.42531 0.07181472 0
132.4096 22.47531 0.07181472 0
132.4596 22.52531 0.07181472 0
132.4096 22.57531 0.07181472 0
132.3596 22.57531 0.1718147 0
132.4596 22.62531 0.07181472 0
132.4596 22.67531 0.07181472 0
132.4596 22.72531 0.07181472 0
132.4096 22.82531 0.1218147 0
132.3596 22.82531 0.1718147 0
132.4596 22.77531 0.07181472 0
132.4596 22.82531 0.07181472 0
132.4596 22.87531 0.07181472 0
132.4596 22.92531 0.07181472 0
132.4596 22.97531 0.07181472 0
132.4596 23.02531 0.07181472 0
132.4596 23.07531 0.07181472 0
132.4596 23.12531 0.07181472 0
132.4596 23.17531 0.07181472 0
132.4596 23.22531 0.07181472 0
132.4596 23.27531 0.07181472 0
132.4596 23.32531 0.07181472 0
132.3596 23.52531 0.1718147 0
132.4596 23.37531 0.07181472 0
132.5096 23.42531 0.07181472 0
132.4596 23.47531 0.07181472 0
132.5096 23.52531 0.07181472 0
132.3596 23.67531 0.1718147 0
132.5096 23.57531 0.07181472 0
132.5096 23.62531 0.07181472 0
132.5096 23.67531 0.07181472 0
132.3596 23.82531 0.1718147 0
132.4596 23.77531 0.07181472 0
132.5096 23.82531 0.07181472 0
132.5096 23.92531 0.07181472 0
134.0096 21.62531 0.1218147 0
134.2096 21.62531 0.1218147 0
134.4596 21.67531 0.1218147 0
134.6596 21.67531 0.1218147 0
134.8596 21.72531 0.1218147 0
135.1096 21.72531 0.1218147 0
135.3096 21.77531 0.1218147 0
135.5096 21.77531 0.1218147 0
132.3596 24.02531 0.1718147 0
132.3596 24.07531 0.1718147 0
132.5096 23.97531 0.07181472 0
132.5096 24.07531 0.07181472 0
132.4096 24.32531 0.1718147 0
132.4596 24.17531 0.07181472 0
132.5096 24.17531 0.07181472 0
132.4596 24.27531 0.07181472 0
132.5096 24.27531 0.07181472 0
132.6596 24.22531 0.1718147 0
132.3596 24.37531 0.1718147 0
132.4596 24.37531 0.07181472 0
132.5096 24.37531 0.07181472 0
132.5096 24.47531 0.07181472 0
132.5096 24.52531 0.07181472 0
132.4096 24.57531 0.1718147 0
132.4096 24.67531 0.2218147 0
132.5096 24.57531 0.07181472 0
132.5096 24.62531 0.07181472 0
132.5096 24.72531 0.07181472 0
132.5596 24.72531 0.07181472 0
132.6596 24.72531 0.1718147 0
132.4096 24.82531 0.1718147 0
132.5096 24.82531 0.07181472 0
132.5096 24.87531 0.07181472 0
132.5096 24.87531 0.1218147 0
132.4096 24.97531 0.1218147 0
132.4096 25.02531 0.1718147 0
132.4096 25.02531 0.2218147 0
132.5096 24.97531 0.07181472 0
132.5096 25.02531 0.07181472 0
132.5096 25.07531 0.07181472 0
132.5596 24.87531 0.07181472 0
132.5596 24.97531 0.07181472 0
132.5596 25.07531 0.07181472 0
132.4096 25.27531 0.2218147 0
132.5096 25.17531 0.07181472 0
132.5096 25.27531 0.07181472 0
132.5096 25.37531 0.07181472 0
132.5096 25.52531 0.07181472 0
132.5596 25.17531 0.07181472 0
132.5596 25.27531 0.07181472 0
132.7096 25.17531 0.1718147 0
132.5596 25.37531 0.07181472 0
132.5596 25.47531 0.07181472 0
132.5096 25.62531 0.07181472 0
132.4596 25.57531 0.2218147 0
132.5096 25.72531 0.07181472 0
132.4596 25.87531 0.2218147 0
132.5596 25.57531 0.07181472 0
132.7096 25.57531 0.1718147 0
132.5596 25.82531 0.07181472 0
132.5596 25.87531 0.07181472 0
132.4596 26.12531 0.2218147 0
132.5596 25.97531 0.07181472 0
132.5596 26.07531 0.07181472 0
132.7096 25.97531 0.1718147 0
132.5596 26.22531 0.07181472 0
132.5596 26.32531 0.07181472 0
132.4596 26.42531 0.2218147 0
132.4596 26.62531 0.2218147 0
132.5596 26.42531 0.07181472 0
132.5596 26.52531 0.07181472 0
132.7096 26.37531 0.1718147 0
132.5596 26.57531 0.07181472 0
132.5596 26.67531 0.07181472 0
132.7096 26.72531 0.1718147 0
132.5096 26.87531 0.2218147 0
132.5096 27.12531 0.2218147 0
132.6096 26.77531 0.07181472 0
132.5596 26.87531 0.07181472 0
132.6096 26.97531 0.07181472 0
132.6096 27.07531 0.07181472 0
132.7596 27.07531 0.1718147 0
135.6596 20.82531 0.1218147 0
135.8596 20.87531 0.1218147 0
136.0596 20.87531 0.1218147 0
136.3096 20.87531 0.1218147 0
135.7096 21.82531 0.1218147 0
135.9096 21.87531 0.1218147 0
136.1596 21.92531 0.1218147 0
136.5096 20.92531 0.1218147 0
136.7096 20.97531 0.1218147 0
136.9096 20.97531 0.1218147 0
136.3596 21.92531 0.1218147 0
136.5596 21.97531 0.1218147 0
136.7596 22.02531 0.1218147 0
136.9596 22.12531 0.1218147 0
137.1596 21.02531 0.1218147 0
137.3596 21.02531 0.1218147 0
137.4596 21.47531 0.2718147 0
137.4596 21.47531 0.3718147 0
137.5096 21.47531 0.3718147 0
137.5096 21.47531 0.4218147 0
137.4596 21.47531 0.4718147 0
137.5596 21.07531 0.1218147 0
137.7596 21.12531 0.1218147 0
137.6096 21.42531 0.2718147 0
137.5596 21.47531 0.2718147 0
137.6096 21.47531 0.4218147 0
137.7096 21.42531 0.3218147 0
137.7096 21.42531 0.3718147 0
137.7096 21.42531 0.4218147 0
137.6596 21.47531 0.3718147 0
137.4596 21.72531 0.1718147 0
137.5096 21.77531 0.1718147 0
137.4596 21.82531 0.3718147 0
137.4596 21.87531 0.3218147 0
137.4596 21.87531 0.3718147 0
137.4596 21.87531 0.4218147 0
137.4596 21.82531 0.4718147 0
137.4596 21.82531 0.5218147 0
137.4596 21.87531 0.4718147 0
137.4596 21.87531 0.5218147 0
137.1596 22.17531 0.1218147 0
137.4096 22.17531 0.1218147 0
137.5596 21.67531 0.3218147 0
137.6596 21.57531 0.3218147 0
137.6096 22.27531 0.1218147 0
137.8096 22.32531 0.1218147 0
137.9596 21.17531 0.1218147 0
138.2096 21.17531 0.1218147 0
138.4096 21.22531 0.1218147 0
138.6096 21.27531 0.1218147 0
137.8096 23.67531 0.2718147 0
137.7596 23.72531 0.3718147 0
137.7596 23.72531 0.4218147 0
137.8596 23.67531 0.2718147 0
137.8596 23.67531 0.3718147 0
137.8596 23.67531 0.4218147 0
137.9096 23.87531 0.3218147 0
138.0096 22.37531 0.1218147 0
138.2096 22.42531 0.1218147 0
138.4096 22.47531 0.1218147 0
138.6096 22.57531 0.07181472 0
137.9596 23.67531 0.2718147 0
137.9596 23.67531 0.3718147 0
137.9596 23.67531 0.4218147 0
138.0596 23.67531 0.3218147 0
138.0596 23.67531 0.3718147 0
138.0596 23.67531 0.4218147 0
138.0096 23.77531 0.3218147 0
137.8096 23.97531 0.1718147 0
137.8096 24.02531 0.3718147 0
137.7596 24.07531 0.3718147 0
137.7596 24.07531 0.4218147 0
137.8096 24.07531 0.3718147 0
137.8096 24.07531 0.4218147 0
137.7596 24.07531 0.5218147 0
137.8096 24.07531 0.4718147 0
137.8096 24.07531 0.5218147 0
138.0596 25.87531 0.2718147 0
138.1096 25.87531 0.2718147 0
138.0596 25.87531 0.3718147 0
138.0596 25.87531 0.4218147 0
138.2096 25.87531 0.2718147 0
138.1596 25.87531 0.3718147 0
138.1596 25.87531 0.4218147 0
138.2096 25.87531 0.4218147 0
138.3096 25.87531 0.2718147 0
138.2596 25.87531 0.3718147 0
138.3096 25.87531 0.3718147 0
138.3096 25.87531 0.4218147 0
138.0596 26.12531 0.1718147 0
138.1096 26.17531 0.1718147 0
138.0096 26.22531 0.3218147 0
138.0596 26.22531 0.3718147 0
138.0596 26.27531 0.3218147 0
138.0596 26.27531 0.4218147 0
138.1596 26.07531 0.3218147 0
138.2596 25.97531 0.3218147 0
138.0596 26.22531 0.4718147 0
138.0596 26.22531 0.5218147 0
138.0596 26.27531 0.4718147 0
138.0596 26.27531 0.5218147 0
139.4596 15.82531 0.07181472 0
139.5096 15.77531 0.1218147 0
139.5596 15.72531 0.07181472 0
139.5596 15.77531 0.07181472 0
139.5596 15.77531 0.1218147 0
139.5596 15.82531 0.07181472 0
139.5596 15.82531 0.1218147 0
139.5596 15.87531 0.07181472 0
139.5596 15.87531 0.1218147 0
139.5596 15.92531 0.1218147 0
139.6596 15.87531 0.1218147 0
139.7096 15.87531 0.1218147 0
139.7596 15.92531 0.1218147 0
139.4596 16.02531 0.07181472 0
139.4596 16.17531 0.07181472 0
139.5096 16.32531 0.07181472 0
139.5096 16.47531 0.07181472 0
139.5096 16.62531 0.07181472 0
139.5096 16.72531 0.07181472 0
139.5096 16.87531 0.1218147 0
139.5096 16.97531 0.1218147 0
139.5596 15.97531 0.07181472 0
139.5596 15.97531 0.1218147 0
139.5596 16.07531 0.07181472 0
139.5596 16.07531 0.1218147 0
139.5596 16.12531 0.07181472 0
139.6096 16.12531 0.07181472 0
139.5596 16.17531 0.1218147 0
139.6096 16.17531 0.07181472 0
139.5596 16.22531 0.1718147 0
139.5596 16.27531 0.1218147 0
139.6096 16.27531 0.07181472 0
139.6596 16.22531 0.1718147 0
139.8096 15.97531 0.1218147 0
139.8596 16.02531 0.1218147 0
139.8096 16.22531 0.1718147 0
139.9096 16.27531 0.1718147 0
139.6096 16.37531 0.07181472 0
139.6096 16.37531 0.1218147 0
139.6096 16.42531 0.07181472 0
139.5596 16.52531 0.07181472 0
139.6096 16.47531 0.1218147 0
139.6096 16.52531 0.07181472 0
139.5596 16.57531 0.07181472 0
139.6096 16.57531 0.07181472 0
139.6096 16.57531 0.1218147 0
139.6096 16.62531 0.07181472 0
139.5596 16.67531 0.07181472 0
139.6096 16.67531 0.07181472 0
139.6096 16.67531 0.1218147 0
139.6096 16.72531 0.07181472 0
139.9596 16.07531 0.1218147 0
140.0096 16.12531 0.1218147 0
140.0596 16.12531 0.1218147 0
140.1096 16.17531 0.1218147 0
140.0596 16.27531 0.1718147 0
140.1596 16.22531 0.1218147 0
140.1596 16.27531 0.1718147 0
140.2596 16.32531 0.1218147 0
140.3096 16.27531 0.1218147 0
140.3096 16.32531 0.1218147 0
140.3096 16.32531 0.1718147 0
140.1096 16.62531 0.1218147 0
140.1096 16.67531 0.1218147 0
140.2096 16.52531 0.1218147 0
140.2596 16.37531 0.1218147 0
140.2596 16.42531 0.1218147 0
140.3096 16.37531 0.1218147 0
140.1596 16.57531 0.1218147 0
139.5596 16.77531 0.07181472 0
139.6096 16.77531 0.07181472 0
139.6096 16.77531 0.1218147 0
139.6096 16.82531 0.07181472 0
139.5596 16.87531 0.07181472 0
139.6096 16.87531 0.07181472 0
139.6096 16.87531 0.1218147 0
139.6096 16.92531 0.07181472 0
139.5596 16.97531 0.07181472 0
139.6096 16.97531 0.07181472 0
139.6096 16.97531 0.1218147 0
139.6096 17.02531 0.07181472 0
139.5596 17.07531 0.07181472 0
139.5596 17.12531 0.1218147 0
139.6096 17.07531 0.07181472 0
139.6096 17.07531 0.1218147 0
139.6596 17.12531 0.1218147 0
139.5596 17.17531 0.07181472 0
139.5596 17.22531 0.1218147 0
139.6096 17.17531 0.07181472 0
139.5596 17.32531 0.1218147 0
139.6096 17.27531 0.07181472 0
139.6096 17.32531 0.07181472 0
139.6596 17.17531 0.1218147 0
139.6596 17.22531 0.07181472 0
139.6596 17.27531 0.1218147 0
139.6596 17.32531 0.07181472 0
139.6596 17.32531 0.1218147 0
139.5596 17.42531 0.1218147 0
139.6096 17.37531 0.07181472 0
139.6096 17.37531 0.1218147 0
139.5596 17.52531 0.1218147 0
139.6096 17.47531 0.1218147 0
139.6596 17.37531 0.1218147 0
139.6596 17.47531 0.07181472 0
139.6596 17.47531 0.1218147 0
139.6596 17.52531 0.07181472 0
140.0596 16.77531 0.1218147 0
140.5096 15.72531 0.1218147 0
140.5096 15.77531 0.1218147 0
140.4596 15.87531 0.1218147 0
140.4596 15.92531 0.1218147 0
140.8596 15.72531 0.1218147 0
140.9096 15.77531 0.1218147 0
140.9096 15.87531 0.1218147 0
140.3596 16.12531 0.1218147 0
140.4096 16.07531 0.1218147 0
140.4596 16.02531 0.1218147 0
140.3596 16.22531 0.1218147 0
140.4096 16.32531 0.1718147 0
140.3596 16.47531 0.1218147 0
140.4596 16.57531 0.1218147 0
140.5096 16.57531 0.1218147 0
