# .PCD v0.7 - Point Cloud Data file format
VERSION 0.7
FIELDS x y z intensity
SIZE 4 4 4 4
TYPE F F F F
COUNT 1 1 1 1
WIDTH 1579
HEIGHT 1
VIEWPOINT 0 0 0 1 0 0 0
POINTS 1579
DATA ascii
129.9096 -0.3746885 1.821815 0
129.8596 -0.3246885 1.721815 0
129.8596 -0.2746885 1.821815 0
129.9096 -0.3246885 1.771815 0
129.9096 -0.3246885 1.821815 0
129.9096 -0.2746885 1.821815 0
129.9096 -0.4246885 1.871815 0
129.9096 -0.3746885 1.871815 0
129.8596 -0.2746885 1.871815 0
129.9096 -0.3246885 1.921815 0
129.9096 -0.2746885 1.971815 0
129.7596 -0.1746885 1.721815 0
129.8096 -0.2246885 1.721815 0
129.8096 -0.1746885 1.721815 0
129.8096 -0.1746885 1.771815 0
129.7596 -0.1246885 1.671815 0
129.7596 -0.1246885 1.721815 0
129.7596 -0.07468853 1.771815 0
129.8096 -0.1246885 1.771815 0
129.8596 -0.2246885 1.671815 0
129.8596 -0.1746885 1.721815 0
129.9096 -0.1746885 1.721815 0
129.8596 -0.2246885 1.771815 0
129.8596 -0.1746885 1.771815 0
129.9096 -0.2246885 1.821815 0
129.9096 -0.1746885 1.821815 0
129.8596 -0.1246885 1.821815 0
129.8096 -0.2246885 1.871815 0
129.8096 -0.1746885 1.871815 0
129.8096 -0.1746885 1.921815 0
129.8096 -0.2246885 1.971815 0
129.8096 -0.1246885 1.971815 0
129.8096 -0.1246885 2.021815 0
129.8096 -0.07468853 1.971815 0
129.8596 -0.1746885 1.971815 0
129.8596 -0.1746885 2.021815 0
129.9096 -0.2246885 1.971815 0
129.9096 -0.1746885 1.971815 0
129.8596 -0.07468853 1.971815 0
129.8096 -0.1746885 2.071815 0
129.9096 -0.1246885 2.121815 0
129.9096 -0.07468853 2.221815 0
129.9096 -0.07468853 2.271815 0
130.0596 -0.4746885 1.771815 0
130.0596 -0.4746885 1.821815 0
130.0096 -0.5746886 1.971815 0
130.1096 -0.6246886 2.021815 0
130.0596 -0.5246885 1.921815 0
130.2596 -0.7246885 1.971815 0
130.3096 -0.6746885 2.021815 0
130.1596 -0.4746885 1.721815 0
130.2096 -0.5246885 1.671815 0
130.1596 -0.5246885 1.821815 0
130.1596 -0.4746885 1.821815 0
130.2096 -0.4746885 1.821815 0
130.2596 -0.5746886 1.671815 0
130.2596 -0.5246885 1.721815 0
130.2596 -0.4746885 1.671815 0
130.2596 -0.4746885 1.721815 0
130.3096 -0.5246885 1.671815 0
130.2596 -0.5246885 1.821815 0
130.2596 -0.4746885 1.821815 0
130.3096 -0.5246885 1.821815 0
130.3096 -0.4746885 1.771815 0
130.2096 -0.6246886 1.921815 0
130.1596 -0.5246885 1.871815 0
130.2096 -0.5246885 2.021815 0
130.2096 -0.4746885 2.021815 0
130.2596 -0.5746886 2.021815 0
130.2596 -0.4746885 1.871815 0
130.2596 -0.4746885 1.971815 0
130.2596 -0.4746885 2.071815 0
130.2596 -0.5246885 2.221815 0
130.3096 -0.4746885 2.171815 0
129.9596 -0.3746885 1.721815 0
130.0096 -0.3746885 1.671815 0
129.9596 -0.4246885 1.771815 0
129.9596 -0.4246885 1.821815 0
129.9596 -0.3746885 1.821815 0
129.9596 -0.2746885 1.671815 0
130.0096 -0.2746885 1.721815 0
130.0596 -0.3746885 1.671815 0
130.1096 -0.4246885 1.671815 0
130.0596 -0.4246885 1.821815 0
130.0596 -0.3746885 1.821815 0
130.0596 -0.3246885 1.671815 0
130.1096 -0.2746885 1.671815 0
130.1096 -0.3246885 1.771815 0
130.0096 -0.4246885 1.921815 0
130.0096 -0.3746885 1.871815 0
130.0096 -0.3246885 1.871815 0
130.0096 -0.2746885 1.871815 0
129.9596 -0.3246885 1.971815 0
129.9596 -0.2746885 1.971815 0
129.9596 -0.2746885 2.021815 0
130.0096 -0.3246885 1.971815 0
130.0096 -0.3246885 2.021815 0
130.0096 -0.2746885 1.971815 0
130.1096 -0.3746885 1.871815 0
130.0596 -0.3746885 1.971815 0
130.1096 -0.4246885 1.971815 0
130.1096 -0.4246885 2.021815 0
130.0096 -0.1746885 1.671815 0
130.0096 -0.1246885 1.671815 0
130.0596 -0.1746885 1.721815 0
130.1096 -0.1746885 1.721815 0
129.9596 -0.2246885 1.871815 0
129.9596 -0.1746885 1.871815 0
129.9596 -0.1746885 1.971815 0
129.9596 -0.07468853 1.871815 0
130.0096 -0.1246885 1.871815 0
130.1596 -0.4246885 1.671815 0
130.1596 -0.3746885 1.671815 0
130.2096 -0.3746885 1.671815 0
130.1596 -0.3746885 1.771815 0
130.1596 -0.2746885 1.721815 0
130.2596 -0.3746885 1.671815 0
130.3096 -0.3746885 1.721815 0
130.2596 -0.4246885 1.771815 0
130.2596 -0.3246885 1.721815 0
130.2596 -0.2746885 1.721815 0
130.3096 -0.3246885 1.771815 0
130.2096 -0.4246885 1.871815 0
130.2096 -0.3746885 1.871815 0
130.1596 -0.4246885 1.971815 0
130.3096 -0.4246885 1.921815 0
130.1596 -0.2246885 1.721815 0
129.9596 -0.2746885 2.121815 0
130.1096 -0.3746885 2.071815 0
130.0596 -0.3746885 2.171815 0
130.1096 -0.2746885 2.121815 0
130.1096 -0.2746885 2.271815 0
130.0096 -0.1746885 2.121815 0
129.9596 -0.1246885 2.121815 0
129.9596 -0.07468853 2.071815 0
129.9596 -0.07468853 2.171815 0
130.0096 -0.1246885 2.171815 0
130.0096 -0.07468853 2.171815 0
130.0596 -0.2246885 2.121815 0
130.0596 -0.1746885 2.071815 0
130.0596 -0.1746885 2.121815 0
130.1096 -0.1746885 2.071815 0
130.0596 -0.1746885 2.171815 0
130.1096 -0.2246885 2.171815 0
130.0596 -0.1246885 2.171815 0
130.0596 -0.07468853 2.221815 0
130.0096 -0.1746885 2.271815 0
129.9596 -0.1246885 2.271815 0
130.0096 -0.1246885 2.271815 0
130.0596 -0.1746885 2.271815 0
130.1096 -0.2246885 2.271815 0
130.1596 -0.3746885 2.121815 0
130.2096 -0.4246885 2.071815 0
130.2096 -0.4246885 2.121815 0
130.1596 -0.4246885 2.171815 0
130.1596 -0.2746885 2.121815 0
130.2096 -0.3246885 2.121815 0
130.1596 -0.2746885 2.171815 0
130.2096 -0.3246885 2.171815 0
130.2096 -0.2746885 2.171815 0
130.2596 -0.4246885 2.171815 0
130.2596 -0.3746885 2.171815 0
130.3096 -0.4246885 2.171815 0
130.2596 -0.3246885 2.221815 0
130.1596 -0.3246885 2.271815 0
130.1596 -0.2746885 2.321815 0
130.2096 -0.3246885 2.321815 0
130.2596 -0.4246885 2.271815 0
130.3096 -0.4246885 2.321815 0
130.1596 -0.1746885 2.221815 0
130.3096 -0.1746885 2.371815 0
130.3096 -0.07468853 2.321815 0
130.2596 -0.07468853 2.371815 0
130.4596 -0.7746885 1.821815 0
130.5096 -0.7746885 1.821815 0
130.5096 -0.6746885 1.671815 0
130.3596 -0.6746885 1.971815 0
130.4096 -0.6746885 1.971815 0
130.5096 -0.6746885 1.921815 0
130.4596 -0.6746885 2.021815 0
130.5096 -0.6746885 1.971815 0
130.3596 -0.6246886 1.671815 0
130.3596 -0.5746886 1.721815 0
130.3596 -0.6246886 1.771815 0
130.3596 -0.5246885 1.671815 0
130.3596 -0.5246885 1.721815 0
130.4096 -0.5246885 1.671815 0
130.3596 -0.5246885 1.821815 0
130.4096 -0.5246885 1.821815 0
130.4096 -0.4746885 1.771815 0
130.4596 -0.6246886 1.721815 0
130.4596 -0.5746886 1.671815 0
130.5096 -0.5746886 1.671815 0
130.4596 -0.4746885 1.721815 0
130.5096 -0.4746885 1.721815 0
130.3596 -0.6246886 1.921815 0
130.3596 -0.5246885 1.871815 0
130.4096 -0.5246885 1.871815 0
130.4096 -0.4746885 1.921815 0
130.4096 -0.5246885 1.971815 0
130.4096 -0.4746885 2.021815 0
130.4596 -0.5746886 1.871815 0
130.5096 -0.5746886 1.871815 0
130.5096 -0.4746885 1.921815 0
130.4596 -0.5246885 2.021815 0
130.6596 -0.6746885 1.671815 0
130.7096 -0.7246885 1.821815 0
130.6596 -0.6746885 1.871815 0
130.6596 -0.6746885 1.921815 0
130.5596 -0.6246886 1.721815 0
130.5596 -0.6246886 1.821815 0
130.6596 -0.4746885 1.721815 0
130.7096 -0.5246885 1.721815 0
130.6096 -0.5746886 1.871815 0
130.5596 -0.5746886 1.971815 0
130.6096 -0.6246886 2.021815 0
130.5596 -0.5246885 1.921815 0
130.5596 -0.5246885 2.021815 0
130.6096 -0.4746885 1.971815 0
130.6596 -0.5746886 1.871815 0
130.6596 -0.5746886 1.921815 0
130.7096 -0.5746886 1.921815 0
130.7096 -0.4746885 1.921815 0
130.4096 -0.4746885 2.221815 0
130.4596 -0.4746885 2.171815 0
130.4596 -0.4746885 2.221815 0
130.6096 -0.4746885 2.221815 0
130.7096 -0.6246886 2.071815 0
130.6596 -0.4746885 2.221815 0
130.5596 -0.4746885 2.271815 0
130.3596 -0.4246885 1.721815 0
130.4096 -0.4246885 1.721815 0
130.3596 -0.3746885 1.771815 0
130.4596 -0.3746885 1.771815 0
130.4096 -0.4246885 1.921815 0
130.5096 -0.3746885 2.021815 0
130.4596 -0.3246885 1.871815 0
130.6096 -0.2746885 1.971815 0
130.3596 -0.4246885 2.121815 0
130.5096 -0.4246885 2.321815 0
130.4596 -0.2746885 2.371815 0
130.3596 -0.1746885 2.371815 0
130.4096 -0.2246885 2.371815 0
130.4096 -0.1746885 2.421815 0
130.3596 -0.07468853 2.421815 0
130.4596 -0.2246885 2.321815 0
130.5596 -0.3746885 2.171815 0
130.6596 -0.4246885 2.221815 0
130.6596 -0.3246885 2.271815 0
130.6596 -0.2746885 2.271815 0
130.0596 -0.07468853 2.571815 0
130.1096 -0.1246885 2.571815 0
130.0096 -0.07468853 2.771815 0
130.0596 -0.07468853 2.771815 0
130.3096 -0.3246885 2.621815 0
130.3096 -0.2746885 2.571815 0
130.1596 -0.1246885 2.471815 0
130.1596 -0.07468853 2.571815 0
130.3096 -0.1746885 2.471815 0
130.2596 -0.1246885 2.621815 0
130.2596 -0.07468853 2.571815 0
130.3096 -0.07468853 2.571815 0
130.2096 -0.1246885 2.771815 0
130.2096 -0.07468853 2.821815 0
130.2596 -0.1746885 2.671815 0
130.2596 -0.1246885 2.721815 0
130.0096 -0.07468853 2.971815 0
130.1096 -0.1246885 2.971815 0
130.1596 -0.1746885 2.921815 0
130.1596 -0.1246885 2.921815 0
130.3096 -0.1746885 2.921815 0
130.3096 -0.1246885 3.021815 0
130.3596 -0.2746885 2.571815 0
130.5096 -0.3246885 2.521815 0
130.5096 -0.3246885 2.621815 0
130.5096 -0.2746885 2.571815 0
130.5096 -0.2746885 2.771815 0
130.3596 -0.1746885 2.471815 0
130.4096 -0.1746885 2.521815 0
130.4096 -0.07468853 2.621815 0
130.5096 -0.2246885 2.471815 0
130.4096 -0.1746885 2.771815 0
130.3596 -0.07468853 2.821815 0
130.4596 -0.1746885 2.671815 0
130.4596 -0.1746885 2.721815 0
130.7096 -0.3746885 2.471815 0
130.7096 -0.3746885 2.571815 0
130.6596 -0.2746885 2.621815 0
130.7096 -0.3246885 2.571815 0
130.7096 -0.2746885 2.621815 0
130.5596 -0.3246885 2.671815 0
130.6596 -0.3246885 2.721815 0
130.6596 -0.3246885 2.771815 0
130.7096 -0.2746885 2.821815 0
130.5596 -0.1746885 2.471815 0
130.6096 -0.1746885 2.571815 0
130.6596 -0.2246885 2.471815 0
130.7096 -0.1746885 2.771815 0
130.3596 -0.1746885 2.971815 0
130.5096 -0.1246885 2.971815 0
130.5096 -0.07468853 3.021815 0
130.6096 -0.07468853 2.871815 0
130.5596 -0.1246885 2.971815 0
130.6596 -0.2246885 2.871815 0
130.6596 -0.1746885 3.021815 0
130.7096 -0.1746885 3.021815 0
130.6596 -0.07468853 2.921815 0
130.6096 -0.1746885 3.121815 0
130.6096 -0.1246885 3.071815 0
129.2096 -0.02468853 0.1718147 0
129.1596 0.07531147 0.1718147 0
129.2596 0.02531147 0.07181472 0
129.3096 0.07531147 0.1218147 0
129.2096 0.2753115 0.1218147 0
129.3096 0.1753115 0.1218147 0
129.3096 0.3253115 0.1218147 0
129.3596 0.1253115 0.1218147 0
129.1596 -0.02468853 0.8218147 0
129.2096 0.07531147 0.8218147 0
129.2596 -0.02468853 0.8218147 0
129.1596 0.1753115 0.8218147 0
129.2096 0.1753115 0.8218147 0
129.1596 0.2753115 0.8218147 0
129.3096 0.3753115 0.07181472 0
129.3096 0.5253115 0.1218147 0
129.3096 0.6753115 0.07181472 0
129.1596 0.4753115 0.8218147 0
129.1596 0.5253115 0.8218147 0
129.1596 0.6753115 0.8218147 0
129.1596 -0.02468853 0.8718147 0
129.2096 -0.02468853 0.9218147 0
129.2096 0.02531147 0.8718147 0
129.2096 0.02531147 0.9218147 0
129.1596 0.07531147 0.9218147 0
129.1596 0.1253115 0.9218147 0
129.2096 0.07531147 0.9218147 0
129.2096 0.1253115 0.9218147 0
129.2596 -0.02468853 0.8718147 0
129.2596 -0.02468853 0.9218147 0
129.2596 0.02531147 0.9218147 0
129.2596 0.07531147 0.8718147 0
129.2596 0.1253115 0.9218147 0
129.3096 0.07531147 0.9718148 0
129.3096 0.1253115 0.9718148 0
129.3096 0.02531147 1.071815 0
129.2096 0.1753115 0.9218147 0
129.2096 0.2253115 0.9218147 0
129.1596 0.2753115 0.9218147 0
129.1596 0.3253115 0.9218147 0
129.2096 0.3253115 0.9218147 0
129.2596 0.2253115 0.9718148 0
129.3096 0.1753115 0.9718148 0
129.3096 0.2253115 1.021815 0
129.2596 0.3253115 0.9718148 0
129.3096 0.3253115 0.9718148 0
129.3096 0.3253115 1.021815 0
129.3096 0.1753115 1.071815 0
129.3096 0.2253115 1.121815 0
129.2596 0.3253115 1.071815 0
129.2596 0.2753115 1.171815 0
129.2596 0.2753115 1.221815 0
129.3596 -0.02468853 0.9718148 0
129.4096 -0.02468853 0.9718148 0
129.4096 0.02531147 1.021815 0
129.3596 0.07531147 0.9718148 0
129.3596 0.1253115 1.021815 0
129.4096 0.07531147 1.021815 0
129.4596 -0.02468853 1.021815 0
129.5096 -0.02468853 1.021815 0
129.4596 0.1253115 1.021815 0
129.3596 -0.02468853 1.071815 0
129.4096 0.02531147 1.071815 0
129.3596 0.07531147 1.121815 0
129.4096 0.07531147 1.071815 0
129.4096 0.07531147 1.121815 0
129.4096 0.1253115 1.071815 0
129.4096 0.1253115 1.121815 0
129.4596 -0.02468853 1.071815 0
129.4596 -0.02468853 1.121815 0
129.4596 0.02531147 1.071815 0
129.5096 0.02531147 1.121815 0
129.5096 -0.02468853 1.171815 0
129.5096 0.02531147 1.171815 0
129.4596 0.07531147 1.071815 0
129.5096 0.1253115 1.121815 0
129.4596 0.07531147 1.171815 0
129.4596 0.1253115 1.171815 0
129.3596 0.1753115 1.021815 0
129.4096 0.2753115 1.021815 0
129.3596 0.1753115 1.121815 0
129.3596 0.2253115 1.121815 0
129.4096 0.1753115 1.071815 0
129.4096 0.2253115 1.121815 0
129.4096 0.2253115 1.171815 0
129.3596 0.2753115 1.071815 0
129.3596 0.2753115 1.121815 0
129.4096 0.2753115 1.071815 0
129.4096 0.3253115 1.121815 0
129.4596 0.2253115 1.121815 0
129.5096 0.1753115 1.121815 0
129.5096 0.1753115 1.171815 0
129.4596 0.2753115 1.121815 0
129.5096 0.2753115 1.121815 0
129.4596 0.2753115 1.171815 0
129.4596 0.3253115 1.171815 0
129.5096 0.3253115 1.221815 0
129.2096 -0.02468853 1.321815 0
129.2096 0.1253115 1.321815 0
129.2596 -0.02468853 1.271815 0
129.3096 -0.02468853 1.321815 0
129.3096 0.02531147 1.271815 0
129.3096 0.02531147 1.321815 0
129.2596 0.02531147 1.371815 0
129.2596 0.07531147 1.321815 0
129.2596 0.1253115 1.321815 0
129.3096 0.1253115 1.321815 0
129.2596 0.07531147 1.371815 0
129.3096 0.1253115 1.371815 0
129.2096 0.1753115 1.271815 0
129.2096 0.2253115 1.271815 0
129.2096 0.3253115 1.271815 0
129.2096 0.3253115 1.321815 0
129.2596 0.1753115 1.271815 0
129.2596 0.2253115 1.271815 0
129.2596 0.2253115 1.321815 0
129.3096 0.2253115 1.321815 0
129.2596 0.2253115 1.371815 0
129.3096 0.2253115 1.371815 0
129.2596 0.2753115 1.271815 0
129.2596 0.3253115 1.271815 0
129.2596 0.3253115 1.321815 0
129.3096 0.2753115 1.321815 0
129.3096 0.3253115 1.321815 0
129.2596 0.3253115 1.421815 0
129.3096 0.3253115 1.371815 0
129.3096 0.3253115 1.421815 0
129.3096 0.1753115 1.471815 0
129.4096 0.07531147 1.371815 0
129.4596 -0.02468853 1.371815 0
129.4096 0.02531147 1.521815 0
129.3596 0.07531147 1.471815 0
129.4096 0.07531147 1.521815 0
129.4096 0.1253115 1.471815 0
129.4096 0.1253115 1.521815 0
129.4596 -0.02468853 1.521815 0
129.4596 0.02531147 1.471815 0
129.5096 -0.02468853 1.471815 0
129.5096 -0.02468853 1.521815 0
129.5096 0.02531147 1.521815 0
129.4596 0.07531147 1.471815 0
129.5096 0.07531147 1.521815 0
129.5096 0.1253115 1.521815 0
129.5096 0.07531147 1.621815 0
129.3596 0.2253115 1.371815 0
129.4096 0.2253115 1.521815 0
129.4096 0.2753115 1.521815 0
129.4096 0.3253115 1.521815 0
129.4596 0.1753115 1.521815 0
129.4596 0.2253115 1.521815 0
129.5096 0.1753115 1.521815 0
129.5096 0.2253115 1.521815 0
129.5096 0.1753115 1.621815 0
129.4596 0.2753115 1.471815 0
129.4596 0.2753115 1.521815 0
129.4596 0.3253115 1.521815 0
129.5096 0.2753115 1.521815 0
129.5096 0.3253115 1.521815 0
129.5096 0.2753115 1.621815 0
129.1596 0.3753115 0.8718147 0
129.1596 0.4253115 0.9218147 0
129.2096 0.3753115 0.9218147 0
129.2096 0.4253115 0.9218147 0
129.1596 0.5253115 0.8718147 0
129.1596 0.5253115 0.9218147 0
129.2096 0.4753115 0.9218147 0
129.2096 0.5253115 0.9218147 0
129.2096 0.4753115 0.9718148 0
129.3096 0.4253115 1.021815 0
129.3096 0.4753115 0.9718148 0
129.2096 0.4753115 1.121815 0
129.2096 0.4753115 1.171815 0
129.2096 0.5253115 1.171815 0
129.3096 0.4253115 1.071815 0
129.3096 0.4253115 1.221815 0
129.1596 0.5753115 0.8718147 0
129.1596 0.6253115 0.8718147 0
129.1596 0.6253115 0.9218147 0
129.2096 0.6253115 0.8718147 0
129.2096 0.6253115 0.9218147 0
129.1596 0.6753115 0.9218147 0
129.1596 0.7253115 0.8718147 0
129.1596 0.7253115 0.9218147 0
129.2096 0.6753115 0.9218147 0
129.2596 0.5753115 0.9218147 0
129.2596 0.6253115 0.9718148 0
129.3096 0.5753115 1.021815 0
129.2596 0.6753115 0.9218147 0
129.3096 0.7253115 0.9718148 0
129.1596 0.7253115 1.071815 0
129.2096 0.6753115 1.121815 0
129.2596 0.6253115 1.121815 0
129.3096 0.5753115 1.071815 0
129.3096 0.5753115 1.121815 0
129.2596 0.5753115 1.171815 0
129.2596 0.6253115 1.171815 0
129.3096 0.6253115 1.171815 0
129.3096 0.6753115 1.171815 0
129.3096 0.7253115 1.171815 0
129.4096 0.4253115 1.021815 0
129.3596 0.4753115 1.021815 0
129.3596 0.3753115 1.071815 0
129.3596 0.3753115 1.121815 0
129.4096 0.3753115 1.121815 0
129.3596 0.4753115 1.121815 0
129.4096 0.4753115 1.071815 0
129.4096 0.5253115 1.071815 0
129.3596 0.4753115 1.221815 0
129.5096 0.4253115 1.071815 0
129.4596 0.4253115 1.171815 0
129.5096 0.4253115 1.171815 0
129.4596 0.4753115 1.221815 0
129.4596 0.5253115 1.171815 0
129.5096 0.4753115 1.171815 0
129.5096 0.5253115 1.171815 0
129.3596 0.5753115 1.021815 0
129.3596 0.6253115 0.9718148 0
129.3596 0.6753115 1.021815 0
129.3596 0.7253115 1.021815 0
129.4596 0.5753115 1.021815 0
129.3596 0.5753115 1.071815 0
129.3596 0.5753115 1.121815 0
129.4096 0.5753115 1.071815 0
129.3596 0.6253115 1.221815 0
129.3596 0.6753115 1.071815 0
129.4096 0.6753115 1.071815 0
129.4096 0.6753115 1.121815 0
129.3596 0.7253115 1.171815 0
129.4596 0.6253115 1.071815 0
129.4596 0.5753115 1.221815 0
129.4596 0.6253115 1.171815 0
129.5096 0.5753115 1.171815 0
129.4596 0.6753115 1.071815 0
129.5096 0.7253115 1.121815 0
129.4596 0.7253115 1.221815 0
129.5096 0.6753115 1.171815 0
129.2096 0.4753115 1.321815 0
129.2596 0.4253115 1.271815 0
129.3096 0.3753115 1.271815 0
129.3096 0.3753115 1.321815 0
129.2596 0.3753115 1.421815 0
129.2596 0.4253115 1.421815 0
129.3096 0.3753115 1.421815 0
129.3096 0.4253115 1.371815 0
129.2596 0.5253115 1.321815 0
129.3096 0.5253115 1.271815 0
129.2596 0.5253115 1.421815 0
129.3096 0.4753115 1.421815 0
129.3096 0.5253115 1.371815 0
129.2096 0.5753115 1.321815 0
129.2096 0.6253115 1.321815 0
129.2096 0.7253115 1.321815 0
129.2596 0.6253115 1.421815 0
129.3096 0.6253115 1.371815 0
129.2596 0.7253115 1.421815 0
129.3096 0.6753115 1.421815 0
129.3096 0.7253115 1.421815 0
129.3596 0.3753115 1.321815 0
129.3596 0.4253115 1.321815 0
129.3596 0.3753115 1.371815 0
129.3596 0.4753115 1.321815 0
129.3596 0.5253115 1.271815 0
129.4096 0.4753115 1.271815 0
129.4096 0.4753115 1.321815 0
129.4096 0.5253115 1.321815 0
129.3596 0.4753115 1.371815 0
129.4096 0.5253115 1.371815 0
129.4096 0.4253115 1.521815 0
129.3596 0.5253115 1.521815 0
129.4096 0.4753115 1.521815 0
129.4596 0.3753115 1.521815 0
129.4596 0.4253115 1.521815 0
129.5096 0.4253115 1.521815 0
129.5096 0.4253115 1.571815 0
129.4596 0.4753115 1.521815 0
129.4596 0.5253115 1.521815 0
129.5096 0.5253115 1.571815 0
129.3596 0.6253115 1.271815 0
129.4096 0.5753115 1.321815 0
129.3596 0.5753115 1.421815 0
129.3596 0.6253115 1.371815 0
129.3596 0.7253115 1.271815 0
129.4596 0.6253115 1.321815 0
129.4596 0.5753115 1.371815 0
129.4596 0.6753115 1.321815 0
129.5096 0.7253115 1.321815 0
129.5096 0.7253115 1.371815 0
129.4096 0.5753115 1.521815 0
129.4096 0.6253115 1.521815 0
129.4096 0.6753115 1.521815 0
129.4096 0.7253115 1.521815 0
129.4596 0.5753115 1.521815 0
129.4596 0.6253115 1.521815 0
129.5096 0.6253115 1.521815 0
129.4596 0.6253115 1.571815 0
129.5096 0.5753115 1.621815 0
129.5096 0.6253115 1.571815 0
129.4596 0.7253115 1.571815 0
129.5096 0.6753115 1.571815 0
129.5096 0.6753115 1.621815 0
129.5096 0.7253115 1.571815 0
129.5596 -0.02468853 1.121815 0
129.5596 0.02531147 1.121815 0
129.5596 -0.02468853 1.171815 0
129.5596 0.07531147 1.121815 0
129.6096 0.1253115 1.121815 0
129.6596 0.07531147 1.221815 0
129.6596 0.1253115 1.221815 0
129.5596 0.2253115 1.221815 0
129.6096 0.1753115 1.221815 0
129.6096 0.2253115 1.221815 0
129.5596 0.2753115 1.071815 0
129.5596 0.2753115 1.121815 0
129.5596 0.3253115 1.221815 0
129.7096 0.1753115 1.221815 0
129.8096 0.2753115 1.121815 0
129.8596 0.1753115 1.171815 0
129.7096 0.07531147 1.371815 0
129.7096 0.1253115 1.371815 0
129.5596 -0.02468853 1.471815 0
129.5596 -0.02468853 1.521815 0
129.6096 -0.02468853 1.521815 0
129.5596 0.02531147 1.621815 0
129.6096 -0.02468853 1.571815 0
129.5596 0.1253115 1.521815 0
129.5596 0.07531147 1.571815 0
129.6096 0.07531147 1.621815 0
129.6596 -0.02468853 1.621815 0
129.6596 0.02531147 1.571815 0
129.6096 0.2753115 1.271815 0
129.6596 0.2253115 1.271815 0
129.7096 0.1753115 1.321815 0
129.6596 0.2753115 1.321815 0
129.7096 0.2753115 1.371815 0
129.5596 0.1753115 1.621815 0
129.6096 0.2253115 1.571815 0
129.5596 0.3253115 1.521815 0
129.6096 0.3253115 1.621815 0
129.7596 -0.02468853 1.371815 0
129.8096 0.02531147 1.371815 0
129.7596 0.07531147 1.371815 0
129.7596 0.1253115 1.371815 0
129.7596 -0.02468853 1.621815 0
129.8096 -0.02468853 1.621815 0
129.5596 0.3753115 1.071815 0
129.5596 0.4253115 1.071815 0
129.5596 0.4253115 1.221815 0
129.5596 0.4753115 1.071815 0
129.5596 0.4753115 1.121815 0
129.6096 0.4753115 1.071815 0
129.6096 0.7253115 1.021815 0
129.5596 0.5753115 1.071815 0
129.6096 0.5753115 1.071815 0
129.5596 0.5753115 1.171815 0
129.6096 0.6753115 1.071815 0
129.5596 0.6753115 1.171815 0
129.5596 0.7253115 1.221815 0
129.6596 0.7253115 1.071815 0
129.8096 0.3753115 1.121815 0
129.6596 0.4253115 1.271815 0
129.6596 0.3753115 1.371815 0
129.7096 0.3753115 1.371815 0
129.6596 0.5253115 1.321815 0
129.5596 0.4753115 1.571815 0
129.6096 0.4753115 1.621815 0
129.5596 0.6753115 1.371815 0
129.5596 0.6253115 1.571815 0
129.6096 0.5753115 1.621815 0
129.6096 0.7253115 1.621815 0
129.3096 0.7753115 0.1218147 0
129.3096 0.9753115 0.1218147 0
129.3096 1.025311 0.1218147 0
129.1596 0.9253115 0.8218147 0
129.3596 1.225312 0.1218147 0
129.3596 1.275311 0.1218147 0
129.3596 1.425311 0.1218147 0
129.1596 0.7753115 0.8718147 0
129.1596 0.7753115 0.9218147 0
129.2096 0.7753115 0.8718147 0
129.2096 0.8253115 0.8718147 0
129.2096 0.8253115 0.9218147 0
129.2096 0.7753115 0.9718148 0
129.1596 0.8753115 0.8718147 0
129.2096 0.8753115 0.8718147 0
129.2096 0.9253115 0.8718147 0
129.2096 0.9253115 1.021815 0
129.2596 0.8253115 0.9218147 0
129.2596 0.7753115 0.9718148 0
129.3096 0.7753115 0.9718148 0
129.3096 0.8253115 0.9718148 0
129.2596 0.9253115 0.8718147 0
129.2596 0.8753115 0.9718148 0
129.2596 0.9253115 0.9718148 0
129.3096 0.8753115 0.9718148 0
129.3096 0.8753115 1.021815 0
129.3096 0.9253115 0.9718148 0
129.1596 0.7753115 1.071815 0
129.2096 0.8253115 1.071815 0
129.2596 0.7753115 1.071815 0
129.2596 0.7753115 1.121815 0
129.3096 0.7753115 1.221815 0
129.3096 0.8753115 1.121815 0
129.3096 0.9253115 1.071815 0
129.1596 0.9753115 0.8718147 0
129.2096 0.9753115 0.8718147 0
129.2096 1.025311 0.8718147 0
129.1596 0.9753115 0.9718148 0
129.2096 1.075312 0.8718147 0
129.2096 1.125311 0.8718147 0
129.2596 1.025311 0.8718147 0
129.2596 0.9753115 1.021815 0
129.3096 0.9753115 0.9718148 0
129.2596 1.075312 0.8718147 0
129.2596 1.125311 0.8718147 0
129.3096 1.075312 0.9718148 0
129.3596 0.7753115 0.9718148 0
129.4096 0.7753115 1.021815 0
129.4096 0.8753115 1.021815 0
129.4096 0.9253115 0.9718148 0
129.4596 0.7753115 1.021815 0
129.4096 0.7753115 1.121815 0
129.4096 0.8253115 1.121815 0
129.3596 0.7753115 1.221815 0
129.4096 0.8253115 1.221815 0
129.3596 0.8753115 1.121815 0
129.3596 0.9253115 1.071815 0
129.3596 0.9253115 1.121815 0
129.4096 0.8753115 1.171815 0
129.4096 0.9253115 1.171815 0
129.4596 0.7753115 1.071815 0
129.4596 0.7753115 1.121815 0
129.4596 0.8253115 1.121815 0
129.4596 0.7753115 1.221815 0
129.5096 0.8753115 1.121815 0
129.4596 0.8753115 1.221815 0
129.4596 0.9253115 1.221815 0
129.3596 0.9753115 0.9718148 0
129.3596 1.075312 1.021815 0
129.3596 1.125311 0.9718148 0
129.4096 1.125311 0.9718148 0
129.4096 1.125311 1.021815 0
129.4596 1.025311 1.021815 0
129.3596 0.9753115 1.071815 0
129.3596 1.025311 1.071815 0
129.4096 0.9753115 1.121815 0
129.4096 1.025311 1.121815 0
129.4096 1.075312 1.071815 0
129.5096 1.025311 1.171815 0
129.4596 1.075312 1.071815 0
129.2596 0.8253115 1.321815 0
129.3096 0.8253115 1.421815 0
129.3096 0.8753115 1.321815 0
129.3096 0.8753115 1.371815 0
129.2596 1.125311 1.371815 0
129.3596 0.7753115 1.371815 0
129.4096 0.7753115 1.421815 0
129.3596 0.8753115 1.371815 0
129.3596 0.9253115 1.421815 0
129.4596 0.7753115 1.271815 0
129.5096 0.8253115 1.271815 0
129.4096 0.8753115 1.471815 0
129.4596 0.7753115 1.521815 0
129.4596 0.7753115 1.571815 0
129.5096 0.7753115 1.571815 0
129.3596 1.025311 1.321815 0
129.4096 1.025311 1.321815 0
129.3596 0.9753115 1.371815 0
129.4096 0.9753115 1.421815 0
129.4096 1.025311 1.371815 0
129.4096 1.125311 1.321815 0
129.4596 1.025311 1.421815 0
129.5096 0.9753115 1.421815 0
129.5096 1.025311 1.421815 0
129.4596 1.075312 1.371815 0
129.4596 1.075312 1.421815 0
129.4596 1.125311 1.421815 0
129.5096 1.125311 1.371815 0
129.5096 1.125311 1.421815 0
129.5096 0.9753115 1.471815 0
129.2096 1.225312 0.9718148 0
129.2596 1.225312 0.8718147 0
129.3096 1.225312 0.8718147 0
129.3096 1.175311 0.9718148 0
129.3596 1.225312 0.9718148 0
129.4096 1.225312 0.9718148 0
129.3596 1.275311 0.9718148 0
129.4096 1.325312 0.9718148 0
129.4596 1.175311 1.021815 0
129.4596 1.275311 1.021815 0
129.5096 1.275311 0.9718148 0
129.5096 1.325312 1.021815 0
129.4596 1.175311 1.071815 0
129.4596 1.225312 1.071815 0
129.5096 1.175311 1.071815 0
129.5096 1.175311 1.121815 0
129.5096 1.225312 1.071815 0
129.4596 1.275311 1.071815 0
129.5096 1.275311 1.071815 0
129.5096 1.325312 1.071815 0
129.5096 1.375311 1.021815 0
129.5096 1.425311 0.9718148 0
129.5096 1.425311 1.021815 0
129.5096 1.375311 1.071815 0
129.5096 1.425311 1.071815 0
129.4596 1.175311 1.321815 0
129.5096 1.175311 1.371815 0
129.5096 1.225312 1.371815 0
129.4596 1.225312 1.471815 0
129.6096 0.8253115 1.021815 0
129.6096 0.9253115 1.021815 0
129.6096 0.7753115 1.071815 0
129.6096 0.8253115 1.221815 0
129.6596 0.8753115 1.071815 0
129.6596 1.025311 1.021815 0
129.5596 1.025311 1.121815 0
129.5596 0.9753115 1.221815 0
129.6096 0.9753115 1.221815 0
129.6096 1.025311 1.221815 0
129.6096 1.075312 1.171815 0
129.6096 1.075312 1.221815 0
129.6596 0.9753115 1.071815 0
129.6596 1.075312 1.071815 0
129.5596 0.7753115 1.371815 0
129.6096 0.8253115 1.371815 0
129.5596 0.8753115 1.271815 0
129.6096 0.8753115 1.371815 0
129.6596 0.8253115 1.421815 0
129.6596 0.8753115 1.371815 0
129.7096 0.9253115 1.371815 0
129.5596 0.7753115 1.621815 0
129.5596 0.8253115 1.571815 0
129.6096 0.8253115 1.571815 0
129.5596 0.8753115 1.571815 0
129.6096 0.8753115 1.571815 0
129.6096 0.9253115 1.571815 0
129.6596 0.8753115 1.621815 0
129.6596 0.9253115 1.621815 0
129.7096 0.9253115 1.621815 0
129.6096 0.9753115 1.271815 0
129.6096 1.025311 1.271815 0
129.6596 1.025311 1.271815 0
129.6596 1.075312 1.271815 0
129.6596 1.125311 1.271815 0
129.7096 1.075312 1.321815 0
129.7096 1.125311 1.271815 0
129.7096 1.125311 1.321815 0
129.6096 1.075312 1.521815 0
129.6096 1.125311 1.521815 0
129.6596 0.9753115 1.571815 0
129.7096 0.9753115 1.621815 0
129.7096 1.025311 1.621815 0
129.7096 1.075312 1.571815 0
129.7096 1.075312 1.621815 0
129.7596 0.9753115 1.421815 0
129.7596 1.025311 1.371815 0
129.8096 1.025311 1.421815 0
129.8596 1.075312 1.421815 0
129.8596 1.125311 1.421815 0
129.9096 1.125311 1.421815 0
129.7596 1.025311 1.571815 0
129.7596 1.025311 1.621815 0
129.7596 1.075312 1.621815 0
129.7596 1.125311 1.621815 0
129.8096 1.125311 1.621815 0
129.8596 1.125311 1.471815 0
129.6096 1.175311 1.121815 0
129.6096 1.225312 1.121815 0
129.5596 1.275311 1.071815 0
129.5596 1.325312 1.071815 0
129.6096 1.325312 1.071815 0
129.7096 1.225312 1.121815 0
129.6596 1.175311 1.171815 0
129.6596 1.275311 1.171815 0
129.6596 1.275311 1.221815 0
129.6096 1.425311 1.021815 0
129.6096 1.475312 1.021815 0
129.6096 1.525311 1.021815 0
129.7096 1.525311 1.021815 0
129.6096 1.425311 1.071815 0
129.5596 1.475312 1.071815 0
129.6096 1.475312 1.121815 0
129.6596 1.375311 1.121815 0
129.7096 1.375311 1.171815 0
129.7096 1.375311 1.221815 0
129.6596 1.525311 1.071815 0
129.6596 1.525311 1.121815 0
129.8096 1.225312 1.221815 0
129.7596 1.425311 1.171815 0
129.7596 1.475312 1.221815 0
129.7596 1.525311 1.171815 0
129.8596 1.425311 1.221815 0
129.5596 1.175311 1.421815 0
129.5596 1.225312 1.421815 0
129.6096 1.175311 1.421815 0
129.5596 1.275311 1.371815 0
129.5596 1.325312 1.371815 0
129.6096 1.275311 1.421815 0
129.6096 1.325312 1.371815 0
129.6096 1.325312 1.421815 0
129.6596 1.175311 1.271815 0
129.7096 1.275311 1.271815 0
129.6596 1.225312 1.471815 0
129.6596 1.325312 1.471815 0
129.7096 1.275311 1.521815 0
129.6596 1.325312 1.571815 0
129.6596 1.375311 1.421815 0
129.6596 1.425311 1.421815 0
129.7096 1.425311 1.421815 0
129.7096 1.375311 1.471815 0
129.7096 1.425311 1.471815 0
129.7596 1.175311 1.271815 0
129.7596 1.175311 1.321815 0
129.7596 1.225312 1.271815 0
129.8096 1.225312 1.271815 0
129.7596 1.275311 1.321815 0
129.7596 1.325312 1.271815 0
129.8096 1.325312 1.321815 0
129.9096 1.225312 1.371815 0
129.8096 1.175311 1.621815 0
129.8096 1.225312 1.621815 0
129.9096 1.225312 1.621815 0
129.8596 1.325312 1.471815 0
129.7596 1.425311 1.271815 0
129.8096 1.375311 1.321815 0
129.8096 1.425311 1.271815 0
129.7596 1.525311 1.421815 0
129.8596 1.425311 1.321815 0
129.8096 1.425311 1.471815 0
129.8096 1.475312 1.471815 0
129.9096 1.525311 1.521815 0
129.9096 1.475312 1.571815 0
130.5596 0.3253115 0.2218147 0
130.5596 0.3253115 0.2718147 0
130.6096 0.3253115 0.2718147 0
130.5596 0.3253115 0.5218147 0
130.6096 0.3253115 0.5218147 0
130.5596 0.3253115 0.5718147 0
130.5596 0.3253115 0.7718147 0
130.6096 0.3253115 0.7718147 0
130.4596 0.5753115 0.1218147 0
130.5596 0.3753115 0.2218147 0
130.5596 0.4253115 0.1718147 0
130.5596 0.4253115 0.2218147 0
130.6096 0.3753115 0.1718147 0
130.6096 0.3753115 0.2218147 0
130.6096 0.4253115 0.2218147 0
130.5596 0.5253115 0.1218147 0
130.5596 0.4753115 0.2218147 0
130.5596 0.5253115 0.2218147 0
130.6096 0.4753115 0.1718147 0
130.6096 0.5253115 0.2218147 0
130.6596 0.3753115 0.1718147 0
130.6596 0.4253115 0.2218147 0
130.7096 0.3753115 0.2218147 0
130.6596 0.5253115 0.2218147 0
130.7096 0.4753115 0.2218147 0
130.7096 0.5253115 0.2218147 0
130.5596 0.3753115 0.2718147 0
130.5596 0.4253115 0.2718147 0
130.5596 0.4253115 0.4218147 0
130.6096 0.3753115 0.4218147 0
130.5596 0.5253115 0.4218147 0
130.5596 0.5753115 0.2218147 0
130.5096 0.5253115 0.5218147 0
130.4596 0.5753115 0.5218147 0
130.5596 0.3753115 0.4718147 0
130.5596 0.3753115 0.5218147 0
130.5596 0.4253115 0.4718147 0
130.5596 0.4253115 0.5218147 0
130.6096 0.3753115 0.4718147 0
130.6096 0.4253115 0.4718147 0
130.5596 0.4253115 0.5718147 0
130.6096 0.4253115 0.6218147 0
130.5596 0.4753115 0.5218147 0
130.5596 0.5253115 0.4718147 0
130.6096 0.4753115 0.5218147 0
130.6096 0.5253115 0.4718147 0
130.6096 0.5253115 0.6218147 0
130.6596 0.4253115 0.4718147 0
130.7096 0.3753115 0.5218147 0
130.6596 0.5253115 0.4718147 0
130.7096 0.4753115 0.4718147 0
130.5596 0.3753115 0.6718147 0
130.5596 0.4253115 0.6718147 0
130.5596 0.4253115 0.7218148 0
130.6096 0.3753115 0.6718147 0
130.5596 0.3753115 0.7718147 0
130.5596 0.4253115 0.7718147 0
130.6096 0.3753115 0.7718147 0
130.6096 0.4253115 0.8218147 0
130.5596 0.5253115 0.7718147 0
130.5596 0.5253115 0.8218147 0
130.6096 0.4753115 0.8218147 0
130.7096 0.4253115 0.8218147 0
130.6596 0.4753115 0.7218148 0
130.6596 0.5253115 0.7218148 0
130.7096 0.4753115 0.7218148 0
130.5596 0.3753115 0.8718147 0
130.5596 0.4253115 0.8718147 0
130.6096 0.3753115 0.8718147 0
130.5596 0.4753115 0.8718147 0
130.5596 0.4753115 0.9718148 0
130.6596 0.4253115 0.9718148 0
130.6596 0.5253115 1.021815 0
130.7096 0.4753115 0.9718148 0
130.7096 0.5253115 0.9718148 0
130.1096 1.125311 1.271815 0
130.2096 1.225312 1.221815 0
130.3096 1.275311 1.221815 0
129.9596 1.225312 1.421815 0
129.9596 1.425311 1.321815 0
129.9596 1.475312 1.321815 0
130.0096 1.475312 1.321815 0
130.0096 1.525311 1.321815 0
130.0596 1.525311 1.371815 0
130.1096 1.525311 1.371815 0
130.1096 1.375311 1.521815 0
130.1596 1.425311 1.521815 0
130.2096 1.525311 1.521815 0
130.5096 1.075312 1.221815 0
130.6596 0.9253115 1.221815 0
130.5096 1.375311 1.221815 0
130.6596 1.225312 1.021815 0
130.6096 1.175311 1.071815 0
130.7096 1.525311 1.621815 0
129.5096 0.07531147 1.671815 0
129.5096 0.1253115 1.671815 0
129.5096 0.2253115 1.671815 0
129.5096 0.1753115 1.921815 0
129.5096 0.2253115 1.921815 0
129.5096 0.2753115 1.921815 0
129.5096 0.3753115 1.671815 0
129.5096 0.3753115 1.721815 0
129.5096 0.4253115 1.721815 0
129.5096 0.4253115 1.771815 0
129.5096 0.5253115 1.671815 0
129.5096 0.5253115 1.721815 0
129.4596 0.5253115 1.771815 0
129.5096 0.5253115 1.771815 0
129.5096 0.3753115 1.921815 0
129.5096 0.6253115 1.671815 0
129.5096 0.6253115 1.771815 0
129.5596 -0.02468853 1.671815 0
129.6096 0.02531147 1.721815 0
129.5596 0.1253115 1.671815 0
129.6596 -0.02468853 1.721815 0
129.7096 -0.02468853 1.721815 0
129.7096 0.02531147 1.671815 0
129.7096 -0.02468853 1.771815 0
129.6596 0.1253115 1.671815 0
129.6596 0.1253115 1.721815 0
129.7096 0.07531147 1.721815 0
129.7096 0.07531147 1.771815 0
129.7096 0.07531147 1.821815 0
129.6096 -0.02468853 1.921815 0
129.5596 0.07531147 1.921815 0
129.5596 0.1253115 1.921815 0
129.7096 -0.02468853 1.871815 0
129.5596 0.2253115 1.671815 0
129.6096 0.1753115 1.671815 0
129.6096 0.1753115 1.721815 0
129.6096 0.2253115 1.721815 0
129.5596 0.2753115 1.671815 0
129.5596 0.2753115 1.721815 0
129.5596 0.3253115 1.671815 0
129.6096 0.2753115 1.671815 0
129.6096 0.2753115 1.721815 0
129.6096 0.3253115 1.671815 0
129.5596 0.3253115 1.771815 0
129.5596 0.3253115 1.821815 0
129.6096 0.2753115 1.821815 0
129.6596 0.1753115 1.721815 0
129.6596 0.1753115 1.821815 0
129.7096 0.1753115 1.771815 0
129.6596 0.3253115 1.721815 0
129.6596 0.2753115 1.771815 0
129.5596 0.1753115 1.871815 0
129.6096 0.2753115 1.871815 0
129.6096 0.3253115 1.871815 0
129.6096 0.2753115 2.021815 0
129.6596 0.1753115 1.871815 0
129.6596 0.1753115 2.021815 0
129.7096 0.1753115 1.971815 0
129.7096 0.1753115 2.021815 0
129.7096 0.2253115 1.971815 0
129.7096 0.3253115 1.871815 0
129.7096 0.2753115 1.971815 0
129.7096 0.3253115 2.021815 0
129.7596 -0.02468853 1.721815 0
129.8096 -0.02468853 1.721815 0
129.7596 -0.02468853 1.821815 0
129.8096 -0.02468853 1.771815 0
129.7596 0.1253115 1.721815 0
129.7596 0.07531147 1.771815 0
129.8096 0.07531147 1.821815 0
129.8596 -0.02468853 1.821815 0
129.8596 0.07531147 1.821815 0
129.7596 -0.02468853 2.021815 0
129.7596 0.02531147 1.971815 0
129.8096 -0.02468853 1.971815 0
129.8096 0.1253115 1.871815 0
129.7596 0.07531147 1.971815 0
129.7596 0.07531147 2.021815 0
129.8096 0.1253115 1.971815 0
129.9096 0.02531147 1.921815 0
129.8596 -0.02468853 1.971815 0
129.8596 -0.02468853 2.021815 0
129.9096 -0.02468853 1.971815 0
129.9096 0.1253115 1.871815 0
129.7596 0.1753115 1.871815 0
129.8096 0.1753115 1.871815 0
129.7596 0.1753115 1.971815 0
129.7596 0.2753115 1.871815 0
129.7596 0.3253115 1.871815 0
129.7596 0.2753115 1.971815 0
129.8596 0.1753115 1.921815 0
129.8596 0.2253115 1.871815 0
129.8596 0.2253115 1.921815 0
129.8596 0.3253115 1.921815 0
129.7096 0.07531147 2.071815 0
129.7096 0.1253115 2.071815 0
129.7096 0.07531147 2.221815 0
129.7096 0.1253115 2.221815 0
129.6596 0.1753115 2.221815 0
129.7096 0.2253115 2.171815 0
129.6596 0.2753115 2.271815 0
129.7596 -0.02468853 2.071815 0
129.8096 0.02531147 2.121815 0
129.8096 -0.02468853 2.221815 0
129.7596 0.07531147 2.121815 0
129.8096 0.07531147 2.121815 0
129.8096 0.1253115 2.171815 0
129.8596 -0.02468853 2.121815 0
129.8596 0.02531147 2.171815 0
129.9096 -0.02468853 2.171815 0
129.9096 0.02531147 2.171815 0
129.9096 0.07531147 2.071815 0
129.9096 0.07531147 2.221815 0
129.8096 0.07531147 2.271815 0
129.8596 0.02531147 2.271815 0
129.8096 0.1753115 2.221815 0
129.8596 0.2253115 2.071815 0
129.8596 0.1753115 2.171815 0
129.8596 0.2753115 2.171815 0
129.8596 0.3253115 2.171815 0
129.9096 0.2753115 2.221815 0
129.8596 0.1753115 2.271815 0
129.8596 0.2253115 2.321815 0
129.8596 0.2753115 2.271815 0
129.8596 0.2753115 2.321815 0
129.8596 0.3253115 2.371815 0
129.5596 0.3753115 1.671815 0
129.5596 0.3753115 1.721815 0
129.5596 0.4253115 1.671815 0
129.6096 0.4253115 1.771815 0
129.5596 0.4753115 1.721815 0
129.5596 0.5253115 1.721815 0
129.6096 0.4753115 1.721815 0
129.5596 0.5253115 1.771815 0
129.6596 0.4753115 1.671815 0
129.6596 0.4753115 1.771815 0
129.5596 0.3753115 1.921815 0
129.6096 0.4253115 2.021815 0
129.5596 0.4753115 1.921815 0
129.5596 0.5253115 1.871815 0
129.5596 0.5253115 2.021815 0
129.7096 0.4253115 1.871815 0
129.6596 0.3753115 1.971815 0
129.6596 0.4253115 2.021815 0
129.7096 0.3753115 2.021815 0
129.6596 0.5253115 1.871815 0
129.7096 0.4753115 1.871815 0
129.6596 0.4753115 2.021815 0
129.6596 0.5253115 1.971815 0
129.7096 0.4753115 2.021815 0
129.6096 0.6253115 1.721815 0
129.5596 0.5753115 1.771815 0
129.5596 0.6253115 1.771815 0
129.6596 0.5753115 1.671815 0
129.7096 0.5753115 1.721815 0
129.7096 0.5753115 1.771815 0
129.7096 0.6753115 1.771815 0
129.5596 0.6253115 2.021815 0
129.6096 0.7253115 2.021815 0
129.6596 0.6253115 1.871815 0
129.6596 0.5753115 2.021815 0
129.6596 0.6253115 2.021815 0
129.7096 0.6253115 2.021815 0
129.7096 0.6753115 1.921815 0
129.6596 0.6753115 2.021815 0
129.7596 0.3753115 1.871815 0
129.7596 0.6253115 1.821815 0
129.7596 0.7253115 1.721815 0
129.7596 0.7253115 1.821815 0
129.8096 0.6753115 1.871815 0
129.7596 0.6753115 2.021815 0
129.8096 0.7253115 2.021815 0
129.7096 0.4253115 2.221815 0
129.6596 0.4753115 2.221815 0
129.7096 0.5253115 2.171815 0
129.7096 0.5253115 2.221815 0
129.6596 0.4253115 2.271815 0
129.7096 0.5253115 2.271815 0
129.6596 0.6253115 2.071815 0
129.6596 0.5753115 2.221815 0
129.6596 0.7253115 2.071815 0
129.7096 0.6753115 2.171815 0
129.6596 0.6753115 2.271815 0
129.7096 0.6753115 2.321815 0
129.8096 0.3753115 2.071815 0
129.8096 0.5253115 2.071815 0
129.8096 0.4753115 2.171815 0
129.8596 0.3753115 2.171815 0
129.9096 0.3753115 2.221815 0
129.8596 0.5253115 2.171815 0
129.9096 0.4753115 2.221815 0
129.8096 0.3753115 2.271815 0
129.7596 0.4753115 2.271815 0
129.8096 0.4753115 2.271815 0
129.9096 0.3753115 2.321815 0
129.9096 0.4253115 2.321815 0
129.9096 0.3753115 2.421815 0
129.8596 0.5253115 2.321815 0
129.9096 0.4753115 2.371815 0
129.7596 0.6253115 2.221815 0
129.8096 0.5753115 2.221815 0
129.7596 0.6753115 2.071815 0
129.8096 0.6753115 2.221815 0
129.7596 0.6753115 2.271815 0
129.9096 0.5753115 2.271815 0
129.9096 0.5753115 2.321815 0
129.9096 0.6253115 2.371815 0
129.9096 0.7253115 2.371815 0
129.9096 0.1253115 2.571815 0
129.8096 0.2753115 2.571815 0
129.9096 0.1753115 2.471815 0
129.9096 0.2253115 2.521815 0
129.8596 0.2253115 2.571815 0
129.9096 0.1753115 2.571815 0
129.9096 0.2753115 2.571815 0
129.9096 0.4253115 2.521815 0
129.8596 0.4253115 2.621815 0
129.9096 0.3753115 2.621815 0
129.9096 0.5253115 2.521815 0
129.8596 0.5253115 2.621815 0
129.9096 0.4753115 2.621815 0
129.8596 0.5253115 2.771815 0
129.9096 0.6253115 2.521815 0
129.9096 0.5753115 2.621815 0
129.9096 0.5753115 2.671815 0
129.9096 0.6253115 2.721815 0
129.8596 0.5753115 2.821815 0
129.8596 0.6753115 2.721815 0
129.9096 0.7253115 2.671815 0
129.8596 0.5753115 2.871815 0
129.5096 0.9753115 1.821815 0
129.6096 0.8253115 1.721815 0
129.5596 0.7753115 1.821815 0
129.6096 0.7753115 1.821815 0
129.6096 0.8753115 1.821815 0
129.6596 0.8253115 1.671815 0
129.6596 0.7753115 1.821815 0
129.7096 0.7753115 1.771815 0
129.7096 0.8753115 1.721815 0
129.7096 0.9253115 1.671815 0
129.6596 0.9253115 1.821815 0
129.7096 0.9253115 1.821815 0
129.6096 0.8753115 2.021815 0
129.6596 0.7753115 2.021815 0
129.6096 0.9753115 1.771815 0
129.6596 1.025311 1.771815 0
129.7096 1.025311 1.821815 0
129.7096 1.075312 1.771815 0
129.8096 0.8253115 1.771815 0
129.7596 0.9253115 1.671815 0
129.8096 0.8753115 1.771815 0
129.8596 0.7753115 1.821815 0
129.9096 0.9253115 1.821815 0
129.7596 0.7753115 1.921815 0
129.7596 0.8253115 1.871815 0
129.8096 0.7753115 1.871815 0
129.7596 0.9253115 1.871815 0
129.8596 0.7753115 1.871815 0
129.7596 1.025311 1.671815 0
129.7596 1.075312 1.721815 0
129.8096 1.075312 1.671815 0
129.7596 1.125311 1.821815 0
129.9096 0.9753115 1.771815 0
129.8596 1.125311 1.671815 0
129.7596 1.025311 2.021815 0
129.8096 1.075312 1.871815 0
129.7596 1.075312 1.971815 0
129.7596 1.125311 1.971815 0
129.9096 1.025311 1.871815 0
129.9096 1.025311 1.921815 0
129.9096 0.9753115 1.971815 0
129.8596 1.075312 1.871815 0
129.6596 0.8253115 2.071815 0
129.6596 0.8753115 2.071815 0
129.6596 0.9253115 2.071815 0
129.7096 0.7753115 2.371815 0
129.6596 0.9753115 2.221815 0
129.7596 0.8753115 2.071815 0
129.9096 0.8753115 2.071815 0
129.9096 0.9253115 2.071815 0
129.8096 0.8253115 2.321815 0
129.8596 0.8753115 2.371815 0
129.7596 1.075312 2.071815 0
129.8096 1.125311 2.221815 0
129.9096 1.125311 2.171815 0
129.8096 1.075312 2.321815 0
129.9096 1.025311 2.371815 0
129.8596 1.175311 1.671815 0
129.9096 1.175311 1.671815 0
129.9096 1.225312 1.671815 0
129.9096 1.325312 1.671815 0
129.8596 1.225312 1.921815 0
129.8096 1.525311 1.821815 0
129.9096 1.425311 1.871815 0
129.9096 1.425311 1.921815 0
129.9096 1.425311 2.021815 0
129.6096 1.325312 2.071815 0
129.9096 0.7753115 3.021815 0
129.7596 0.9253115 3.071815 0
129.8096 1.125311 3.121815 0
129.9596 -0.02468853 1.871815 0
130.0096 0.1253115 2.321815 0
130.1096 0.02531147 2.321815 0
130.1096 0.07531147 2.321815 0
130.1096 0.07531147 2.371815 0
129.9596 0.1753115 2.321815 0
130.0096 0.1753115 2.321815 0
129.9596 0.2753115 2.421815 0
130.0596 0.1753115 2.421815 0
130.2096 -0.02468853 2.371815 0
130.1596 0.07531147 2.421815 0
130.2596 0.02531147 2.421815 0
129.9596 0.5253115 2.421815 0
129.9596 0.6253115 2.421815 0
129.9596 0.7253115 2.321815 0
129.9596 0.02531147 2.571815 0
129.9596 0.07531147 2.621815 0
130.1096 0.02531147 2.571815 0
130.0596 0.1253115 2.571815 0
130.1096 0.07531147 2.571815 0
130.0096 0.07531147 2.671815 0
130.1096 0.02531147 2.821815 0
130.0596 0.07531147 2.771815 0
129.9596 0.2253115 2.571815 0
130.0096 0.1753115 2.571815 0
130.0096 0.2753115 2.471815 0
129.9596 0.2753115 2.621815 0
130.0596 0.2253115 2.521815 0
130.1096 0.1753115 2.471815 0
130.0096 0.1753115 2.671815 0
129.9596 0.3253115 2.671815 0
130.0596 0.1753115 2.821815 0
130.0596 0.2253115 2.821815 0
130.1096 0.1753115 2.821815 0
130.0596 0.3253115 2.821815 0
130.1096 0.3253115 2.821815 0
130.1596 -0.02468853 2.571815 0
130.1596 0.07531147 2.471815 0
130.2096 0.07531147 2.521815 0
130.1596 0.07531147 2.571815 0
130.2596 0.02531147 2.471815 0
130.2596 0.02531147 2.521815 0
130.3096 -0.02468853 2.521815 0
130.2596 0.02531147 2.621815 0
130.2096 0.07531147 2.721815 0
130.1596 0.1753115 2.471815 0
130.1096 0.07531147 2.971815 0
130.0596 0.07531147 3.121815 0
130.1096 0.1253115 3.171815 0
130.0596 0.1753115 3.221815 0
130.1096 0.2753115 3.171815 0
130.1096 0.2753115 3.221815 0
130.1096 0.3253115 3.221815 0
130.1596 -0.02468853 2.921815 0
130.2096 0.07531147 2.921815 0
130.1596 0.07531147 2.971815 0
130.3096 -0.02468853 2.971815 0
130.2096 -0.02468853 3.121815 0
130.1596 0.1253115 3.221815 0
130.2596 0.02531147 3.221815 0
130.2596 0.07531147 3.221815 0
130.1596 0.2253115 2.921815 0
130.1596 0.2253115 2.971815 0
130.1596 0.3253115 3.071815 0
130.0096 0.3753115 2.521815 0
129.9596 0.4253115 2.621815 0
130.0096 0.4753115 2.521815 0
129.9596 0.4253115 2.721815 0
129.9596 0.5253115 2.721815 0
130.1096 0.4253115 2.821815 0
130.1096 0.4753115 2.821815 0
129.9596 0.6253115 2.521815 0
130.0596 0.6253115 2.571815 0
130.0096 0.7253115 2.671815 0
130.0096 0.7253115 2.821815 0
130.0596 0.5753115 2.821815 0
129.9596 0.3753115 2.921815 0
129.9596 0.5253115 3.021815 0
130.1096 0.4753115 3.171815 0
129.9596 0.5753115 2.921815 0
130.0096 0.5753115 2.871815 0
129.9596 0.7253115 2.921815 0
129.9596 0.6753115 3.021815 0
130.0096 0.5753115 3.071815 0
130.0096 0.6253115 3.071815 0
130.0096 0.7253115 3.121815 0
130.1596 0.3753115 3.021815 0
130.1596 0.4253115 3.021815 0
130.1596 0.4753115 3.221815 0
130.1596 0.5753115 3.071815 0
130.2096 0.6253115 3.121815 0
130.1596 0.6753115 3.071815 0
130.1596 0.6753115 3.221815 0
130.4096 0.02531147 2.721815 0
130.6596 -0.02468853 2.721815 0
130.4596 -0.02468853 3.121815 0
130.4596 0.07531147 3.221815 0
129.9596 1.025311 1.821815 0
130.0096 1.025311 1.871815 0
129.9596 0.7753115 2.121815 0
130.0096 0.8753115 2.171815 0
130.0096 0.7753115 2.421815 0
130.1096 0.9253115 2.371815 0
129.9596 1.075312 2.071815 0
130.1096 1.125311 2.121815 0
130.0096 0.9753115 2.371815 0
130.1096 0.9753115 2.371815 0
130.3096 1.025311 2.371815 0
129.9596 1.225312 1.721815 0
130.0096 1.275311 1.721815 0
130.0096 1.325312 1.671815 0
130.0096 1.275311 1.821815 0
130.0596 1.325312 1.721815 0
130.0596 1.275311 1.821815 0
130.0096 1.175311 2.021815 0
129.9596 1.275311 1.921815 0
130.1096 1.275311 1.971815 0
130.1096 1.325312 1.971815 0
130.0596 1.375311 1.721815 0
130.0596 1.425311 1.671815 0
130.0596 1.425311 1.771815 0
130.0596 1.425311 1.821815 0
130.1096 1.375311 1.771815 0
130.1096 1.425311 1.771815 0
130.1096 1.375311 1.921815 0
130.1096 1.475312 1.871815 0
130.1596 1.225312 1.871815 0
130.1596 1.475312 1.721815 0
130.2096 1.525311 1.721815 0
130.2096 1.475312 1.771815 0
130.2096 1.525311 1.771815 0
130.2096 1.525311 1.821815 0
130.3096 1.525311 1.821815 0
130.1596 1.525311 1.871815 0
130.1596 1.525311 2.021815 0
130.2596 1.375311 1.871815 0
130.2596 1.375311 1.921815 0
130.3096 1.375311 1.971815 0
130.2596 1.475312 1.871815 0
130.0596 1.175311 2.121815 0
130.0596 1.225312 2.171815 0
129.9596 1.175311 2.321815 0
130.2096 1.325312 2.121815 0
130.2596 1.175311 2.221815 0
130.3096 1.325312 2.171815 0
130.2096 1.475312 2.421815 0
130.4096 0.9753115 2.271815 0
130.4596 1.325312 1.871815 0
130.5096 1.325312 1.921815 0
130.4596 1.325312 1.971815 0
130.4096 1.475312 1.821815 0
130.4596 1.425311 1.821815 0
130.4596 1.525311 1.771815 0
130.3596 1.375311 1.871815 0
130.3596 1.425311 1.871815 0
130.4096 1.375311 1.921815 0
130.4596 1.375311 2.021815 0
130.4596 1.475312 1.971815 0
130.5096 1.525311 1.971815 0
130.7096 1.275311 1.821815 0
130.6096 1.275311 1.871815 0
130.7096 1.225312 1.871815 0
130.6596 1.325312 1.871815 0
130.7096 1.325312 2.021815 0
130.5596 1.375311 1.821815 0
130.6096 1.375311 1.821815 0
130.7096 1.375311 1.821815 0
130.6596 1.525311 1.721815 0
130.5596 1.475312 2.021815 0
130.6096 1.475312 1.971815 0
130.3596 1.175311 2.171815 0
130.5096 1.325312 2.421815 0
130.4096 1.425311 2.071815 0
130.5096 1.475312 2.121815 0
130.3596 1.425311 2.421815 0
130.7096 1.225312 2.271815 0
130.6596 1.225312 2.421815 0
130.7096 1.425311 2.071815 0
130.6596 1.375311 2.171815 0
130.7096 1.375311 2.171815 0
130.6596 1.525311 2.071815 0
130.6596 1.375311 2.271815 0
130.1096 0.8753115 2.471815 0
130.0096 0.8753115 2.771815 0
130.0596 0.7753115 2.671815 0
130.1096 0.9753115 2.671815 0
130.1096 0.9753115 2.771815 0
130.2596 1.025311 2.671815 0
130.0096 0.8253115 2.871815 0
130.1096 0.9253115 2.871815 0
129.9596 0.8753115 3.071815 0
129.9596 0.9253115 3.121815 0
130.1096 0.7753115 3.171815 0
130.0096 1.075312 3.021815 0
130.0596 1.125311 2.971815 0
130.0596 1.125311 3.071815 0
130.3096 1.075312 2.971815 0
130.0596 1.225312 2.721815 0
130.0596 1.175311 2.821815 0
130.0596 1.325312 2.721815 0
130.3096 1.275311 2.571815 0
130.2596 1.175311 2.671815 0
130.2596 1.225312 2.821815 0
130.2596 1.325312 2.671815 0
130.3096 1.325312 2.721815 0
130.2096 1.175311 2.971815 0
130.2596 1.175311 2.971815 0
130.2596 1.175311 3.071815 0
130.3596 0.9253115 2.621815 0
130.4096 1.025311 2.721815 0
130.6596 1.125311 2.521815 0
130.6096 1.125311 2.921815 0
130.6596 1.075312 2.921815 0
130.6096 1.025311 3.071815 0
130.3596 1.275311 2.471815 0
130.3596 1.325312 2.521815 0
130.4596 1.175311 2.571815 0
130.4596 1.225312 2.571815 0
130.4596 1.275311 2.471815 0
130.4596 1.275311 2.521815 0
130.4096 1.225312 2.771815 0
130.4596 1.275311 2.671815 0
130.5096 1.275311 2.671815 0
130.5596 1.225312 2.521815 0
130.6096 1.225312 2.471815 0
130.5596 1.275311 2.521815 0
130.6596 1.225312 2.471815 0
130.7096 1.175311 2.471815 0
130.5596 1.175311 2.771815 0
130.6096 1.275311 2.671815 0
130.7096 1.225312 2.671815 0
130.6596 1.175311 2.771815 0
130.3596 1.175311 2.921815 0
130.4096 1.175311 2.921815 0
130.5096 1.175311 2.921815 0
130.4596 1.175311 3.021815 0
130.5596 1.175311 2.921815 0
130.8096 -1.524689 0.07181472 0
130.8596 -1.524689 0.07181472 0
130.7596 -1.274689 0.1718147 0
130.8096 -1.324689 0.1718147 0
131.0096 -1.574689 0.07181472 0
131.0096 -1.474689 0.1718147 0
131.0596 -1.574689 0.07181472 0
130.9596 -1.424689 0.1718147 0
