# .PCD v0.7 - Point Cloud Data file format
VERSION 0.7
FIELDS x y z intensity
SIZE 4 4 4 4
TYPE F F F F
COUNT 1 1 1 1
WIDTH 1568
HEIGHT 1
VIEWPOINT 0 0 0 1 0 0 0
POINTS 1568
DATA ascii
-2.790388 19.07531 0.1718147 0
-3.640388 19.52531 0.1718147 0
-3.540388 19.42531 0.1718147 0
-3.490388 19.47531 0.1218147 0
-3.440388 19.17531 0.1718147 0
-3.390388 19.27531 0.1218147 0
-3.440388 19.27531 0.1718147 0
-3.340388 19.32531 0.1718147 0
-3.440388 19.42531 0.1218147 0
-3.390388 19.37531 0.1218147 0
-3.440388 19.37531 0.1718147 0
-3.440388 19.47531 0.1718147 0
-3.640388 19.62531 0.1218147 0
-3.590388 19.57531 0.1218147 0
-3.640388 19.72531 0.1218147 0
-3.440388 19.62531 0.1718147 0
-3.390388 19.67531 0.1718147 0
-3.290388 19.62531 0.1718147 0
-3.290388 19.72531 0.1718147 0
-3.390388 19.77531 0.1718147 0
-3.390388 19.87531 0.1718147 0
-3.390388 19.92531 0.1718147 0
-3.340388 19.82531 0.1718147 0
-3.340388 19.92531 0.1718147 0
-3.190388 19.27531 0.1718147 0
-3.090388 19.22531 0.1718147 0
-3.090388 19.32531 0.1718147 0
-3.190388 19.42531 0.1718147 0
-3.190388 19.52531 0.1718147 0
-3.140388 19.37531 0.1718147 0
-3.040388 19.17531 0.1718147 0
-2.990388 19.17531 0.1718147 0
-2.890388 19.17531 0.1218147 0
-2.890388 19.27531 0.1218147 0
-2.890388 19.37531 0.1218147 0
-2.890388 19.42531 0.1218147 0
-2.890388 19.47531 0.1218147 0
-3.240388 19.57531 0.1718147 0
-2.890388 19.57531 0.1218147 0
-2.890388 19.67531 0.1218147 0
-2.890388 19.77531 0.1218147 0
-2.890388 19.87531 0.1218147 0
-3.640388 20.27531 0.1218147 0
-3.640388 20.32531 0.1218147 0
-3.490388 20.22531 0.1718147 0
-3.540388 20.27531 0.1218147 0
-3.490388 20.32531 0.1718147 0
-3.390388 20.02531 0.1718147 0
-3.440388 20.12531 0.1718147 0
-3.440388 20.17531 0.1718147 0
-3.390388 20.27531 0.1218147 0
-3.290388 20.32531 0.1218147 0
-3.590388 20.37531 0.1218147 0
-3.540388 20.42531 0.1218147 0
-3.540388 20.42531 0.1718147 0
-3.490388 20.47531 0.1218147 0
-3.540388 20.52531 0.1718147 0
-3.590388 20.72531 0.1718147 0
-3.540388 20.57531 0.1718147 0
-3.540388 20.72531 0.1718147 0
-3.440388 20.52531 0.1218147 0
-3.390388 20.57531 0.1218147 0
-3.290388 20.62531 0.1218147 0
-3.190388 20.32531 0.1218147 0
-2.890388 19.97531 0.1218147 0
-2.890388 20.07531 0.1218147 0
-3.040388 20.32531 0.1718147 0
-3.240388 20.67531 0.1218147 0
-3.190388 20.67531 0.1218147 0
-3.140388 20.72531 0.1218147 0
-2.940388 20.37531 0.1718147 0
-2.840388 19.22531 0.1218147 0
-2.790388 19.17531 0.07181472 0
-2.790388 19.22531 0.07181472 0
-2.790388 19.22531 0.1218147 0
-2.840388 19.32531 0.07181472 0
-2.840388 19.32531 0.1218147 0
-2.790388 19.27531 0.07181472 0
-2.790388 19.32531 0.07181472 0
-2.790388 19.37531 0.07181472 0
-2.790388 19.42531 0.07181472 0
-2.790388 19.42531 0.1218147 0
-2.790388 19.47531 0.07181472 0
-2.790388 19.52531 0.07181472 0
-2.790388 19.52531 0.1218147 0
-2.790388 19.57531 0.07181472 0
-2.790388 19.62531 0.07181472 0
-2.790388 19.62531 0.1218147 0
-2.790388 19.67531 0.07181472 0
-2.790388 19.67531 0.1218147 0
-2.790388 19.72531 0.07181472 0
-2.790388 19.72531 0.1218147 0
-2.690388 19.67531 0.1218147 0
-2.790388 19.77531 0.07181472 0
-2.790388 19.77531 0.1218147 0
-2.790388 19.82531 0.07181472 0
-2.790388 19.82531 0.1218147 0
-2.790388 19.87531 0.07181472 0
-2.790388 19.92531 0.07181472 0
-2.740388 19.87531 0.1218147 0
-2.790388 19.97531 0.07181472 0
-2.790388 20.02531 0.07181472 0
-2.790388 20.07531 0.07181472 0
-2.790388 20.12531 0.07181472 0
-2.740388 20.02531 0.1218147 0
-2.740388 20.07531 0.07181472 0
-2.740388 20.07531 0.1218147 0
-2.690388 20.12531 0.1718147 0
-2.840388 20.17531 0.1218147 0
-2.790388 20.17531 0.07181472 0
-2.790388 20.22531 0.07181472 0
-2.790388 20.27531 0.07181472 0
-2.790388 20.27531 0.1218147 0
-2.790388 20.32531 0.07181472 0
-2.790388 20.32531 0.1218147 0
-2.740388 20.17531 0.1218147 0
-2.740388 20.22531 0.07181472 0
-2.740388 20.27531 0.1218147 0
-2.740388 20.32531 0.07181472 0
-2.790388 20.37531 0.07181472 0
-2.790388 20.37531 0.1218147 0
-2.790388 20.37531 0.1718147 0
-2.790388 20.47531 0.07181472 0
-2.790388 20.52531 0.07181472 0
-2.740388 20.37531 0.1218147 0
-2.740388 20.42531 0.07181472 0
-2.740388 20.47531 0.07181472 0
-2.740388 20.47531 0.1218147 0
-2.740388 20.52531 0.1218147 0
-2.690388 20.52531 0.1718147 0
-2.790388 20.67531 0.07181472 0
-2.740388 20.57531 0.07181472 0
-2.740388 20.57531 0.1218147 0
-2.740388 20.62531 0.07181472 0
-2.740388 20.62531 0.1218147 0
-2.740388 20.67531 0.1218147 0
-2.740388 20.72531 0.1218147 0
-5.840388 20.77531 0.2218147 0
-5.840388 20.82531 0.2218147 0
-5.790388 20.77531 0.2218147 0
-5.790388 20.82531 0.2218147 0
-5.840388 20.87531 0.1718147 0
-5.840388 20.87531 0.2218147 0
-5.790388 20.87531 0.1718147 0
-5.790388 20.87531 0.2218147 0
-5.790388 20.92531 0.2218147 0
-5.840388 20.77531 0.2718147 0
-5.840388 20.77531 0.4218147 0
-5.840388 20.82531 0.4218147 0
-5.790388 20.77531 0.4218147 0
-5.840388 20.87531 0.2718147 0
-5.840388 20.92531 0.4218147 0
-5.790388 20.87531 0.4218147 0
-5.790388 20.92531 0.4218147 0
-5.840388 20.97531 0.2218147 0
-5.840388 21.02531 0.1718147 0
-5.790388 20.97531 0.2218147 0
-5.790388 21.02531 0.2218147 0
-5.790388 21.07531 0.2218147 0
-5.790388 21.12531 0.2218147 0
-5.740388 21.02531 0.1718147 0
-5.740388 21.07531 0.1718147 0
-5.740388 21.12531 0.2218147 0
-5.790388 20.97531 0.2718147 0
-5.840388 21.02531 0.4218147 0
-5.790388 20.97531 0.4218147 0
-5.790388 21.02531 0.4218147 0
-5.790388 21.07531 0.2718147 0
-5.840388 21.07531 0.4218147 0
-5.790388 21.07531 0.4218147 0
-5.790388 21.12531 0.4218147 0
-5.940388 20.77531 0.8218147 0
-5.940388 20.82531 0.8218147 0
-5.940388 20.87531 0.8218147 0
-5.940388 20.92531 0.7718147 0
-5.940388 20.92531 0.8218147 0
-5.940388 20.97531 0.8218147 0
-5.940388 21.02531 0.8218147 0
-5.890388 21.02531 0.8218147 0
-5.940388 21.07531 0.7718147 0
-5.940388 21.07531 0.8218147 0
-5.890388 21.12531 0.8218147 0
-5.840388 20.77531 0.4718147 0
-5.790388 20.77531 0.4718147 0
-5.790388 20.82531 0.4718147 0
-5.840388 20.77531 0.5718147 0
-5.840388 20.77531 0.6218147 0
-5.790388 20.77531 0.6218147 0
-5.790388 20.82531 0.6218147 0
-5.840388 20.87531 0.4718147 0
-5.790388 20.87531 0.4718147 0
-5.790388 20.92531 0.4718147 0
-5.840388 20.87531 0.6218147 0
-5.790388 20.92531 0.6218147 0
-5.740388 20.77531 0.5718147 0
-5.740388 20.87531 0.5218147 0
-5.790388 20.77531 0.6718147 0
-5.790388 20.77531 0.7218148 0
-5.790388 20.82531 0.7218148 0
-5.840388 20.87531 0.7218148 0
-5.790388 20.87531 0.6718147 0
-5.790388 20.92531 0.6718147 0
-5.790388 20.92531 0.7218148 0
-5.790388 20.92531 0.7718147 0
-5.740388 20.82531 0.7718147 0
-5.840388 20.97531 0.4718147 0
-5.840388 21.02531 0.4718147 0
-5.790388 20.97531 0.4718147 0
-5.790388 21.02531 0.4718147 0
-5.840388 20.97531 0.6218147 0
-5.790388 21.02531 0.6218147 0
-5.840388 21.07531 0.4718147 0
-5.840388 21.07531 0.5218147 0
-5.790388 21.07531 0.4718147 0
-5.790388 21.12531 0.4718147 0
-5.840388 21.07531 0.6218147 0
-5.840388 21.12531 0.6218147 0
-5.790388 21.07531 0.6218147 0
-5.790388 21.12531 0.6218147 0
-5.740388 21.02531 0.5218147 0
-5.740388 21.02531 0.5718147 0
-5.740388 21.02531 0.6218147 0
-5.740388 21.07531 0.5218147 0
-5.840388 20.97531 0.7218148 0
-5.790388 20.97531 0.7218148 0
-5.790388 21.02531 0.6718147 0
-5.790388 21.02531 0.7218148 0
-5.790388 21.02531 0.7718147 0
-5.840388 21.07531 0.7218148 0
-5.790388 21.07531 0.7218148 0
-5.790388 21.12531 0.7218148 0
-5.790388 21.12531 0.7718147 0
-5.790388 21.17531 0.1718147 0
-5.790388 21.17531 0.2218147 0
-5.790388 21.22531 0.1718147 0
-5.790388 21.22531 0.2218147 0
-5.790388 21.27531 0.2218147 0
-5.790388 21.32531 0.1718147 0
-5.790388 21.32531 0.2218147 0
-5.740388 21.17531 0.1718147 0
-5.740388 21.22531 0.2218147 0
-5.740388 21.27531 0.1718147 0
-5.790388 21.17531 0.2718147 0
-5.840388 21.17531 0.4218147 0
-5.790388 21.17531 0.4218147 0
-5.790388 21.22531 0.4218147 0
-5.790388 21.27531 0.2718147 0
-5.790388 21.27531 0.4218147 0
-5.790388 21.32531 0.4218147 0
-5.790388 21.37531 0.1218147 0
-5.790388 21.37531 0.1718147 0
-5.790388 21.37531 0.2218147 0
-5.790388 21.42531 0.1718147 0
-5.790388 21.42531 0.2218147 0
-5.790388 21.47531 0.2218147 0
-5.790388 21.52531 0.2218147 0
-5.740388 21.37531 0.2218147 0
-5.740388 21.42531 0.1718147 0
-5.740388 21.42531 0.2218147 0
-5.740388 21.47531 0.2218147 0
-5.740388 21.52531 0.2218147 0
-5.790388 21.37531 0.2718147 0
-5.790388 21.37531 0.4218147 0
-5.790388 21.42531 0.4218147 0
-5.790388 21.47531 0.2718147 0
-5.790388 21.47531 0.4218147 0
-5.790388 21.52531 0.4218147 0
-5.940388 21.17531 0.8218147 0
-5.940388 21.22531 0.7718147 0
-5.940388 21.22531 0.8218147 0
-5.890388 21.17531 0.8218147 0
-5.940388 21.27531 0.8218147 0
-5.940388 21.32531 0.8218147 0
-5.890388 21.32531 0.8218147 0
-5.940388 21.37531 0.8218147 0
-5.940388 21.42531 0.7718147 0
-5.940388 21.42531 0.8218147 0
-5.890388 21.42531 0.8218147 0
-5.940388 21.47531 0.8218147 0
-5.940388 21.52531 0.8218147 0
-5.840388 21.22531 0.4718147 0
-5.790388 21.17531 0.4718147 0
-5.790388 21.22531 0.4718147 0
-5.840388 21.22531 0.6218147 0
-5.790388 21.17531 0.6218147 0
-5.790388 21.22531 0.5718147 0
-5.790388 21.22531 0.6218147 0
-5.790388 21.27531 0.4718147 0
-5.790388 21.32531 0.4718147 0
-5.790388 21.27531 0.6218147 0
-5.790388 21.32531 0.6218147 0
-5.740388 21.17531 0.5218147 0
-5.740388 21.27531 0.5218147 0
-5.740388 21.27531 0.5718147 0
-5.790388 21.17531 0.6718147 0
-5.790388 21.17531 0.7218148 0
-5.790388 21.22531 0.7218148 0
-5.790388 21.22531 0.7718147 0
-5.790388 21.27531 0.6718147 0
-5.790388 21.27531 0.7218148 0
-5.790388 21.32531 0.7218148 0
-5.740388 21.32531 0.7218148 0
-5.790388 21.37531 0.4718147 0
-5.790388 21.42531 0.4718147 0
-5.790388 21.42531 0.5218147 0
-5.790388 21.37531 0.6218147 0
-5.790388 21.42531 0.6218147 0
-5.790388 21.47531 0.4718147 0
-5.790388 21.52531 0.4718147 0
-5.790388 21.47531 0.5718147 0
-5.790388 21.47531 0.6218147 0
-5.790388 21.52531 0.6218147 0
-5.740388 21.37531 0.4718147 0
-5.740388 21.42531 0.5218147 0
-5.740388 21.37531 0.6218147 0
-5.740388 21.47531 0.4718147 0
-5.740388 21.47531 0.5218147 0
-5.740388 21.52531 0.4718147 0
-5.740388 21.52531 0.5718147 0
-5.790388 21.37531 0.6718147 0
-5.790388 21.37531 0.7218148 0
-5.790388 21.42531 0.6718147 0
-5.790388 21.42531 0.7218148 0
-5.790388 21.47531 0.6718147 0
-5.790388 21.47531 0.7218148 0
-5.740388 21.37531 0.7218148 0
-5.740388 21.47531 0.6718147 0
-5.740388 21.47531 0.7218148 0
-5.740388 21.52531 0.7218148 0
-5.490388 20.82531 0.1718147 0
-5.540388 20.92531 0.1718147 0
-5.640388 21.02531 0.1718147 0
-5.390388 20.77531 0.1718147 0
-5.940388 20.77531 0.9218147 0
-5.940388 20.77531 0.9718148 0
-5.940388 20.82531 0.9718148 0
-5.940388 20.82531 1.021815 0
-5.940388 20.87531 0.9218147 0
-5.940388 20.92531 0.8718147 0
-5.890388 20.87531 0.8718147 0
-5.890388 20.87531 0.9218147 0
-5.890388 20.92531 0.9218147 0
-5.940388 20.87531 0.9718148 0
-5.940388 20.87531 1.021815 0
-5.940388 20.92531 0.9718148 0
-5.940388 20.92531 1.021815 0
-5.890388 20.92531 1.021815 0
-5.940388 20.77531 1.071815 0
-5.890388 20.77531 1.121815 0
-5.890388 20.82531 1.071815 0
-5.940388 20.77531 1.171815 0
-5.940388 20.77531 1.221815 0
-5.940388 20.82531 1.171815 0
-5.940388 20.82531 1.221815 0
-5.890388 20.77531 1.171815 0
-5.940388 20.87531 1.071815 0
-5.940388 20.87531 1.121815 0
-5.940388 20.92531 1.071815 0
-5.940388 20.87531 1.171815 0
-5.940388 20.87531 1.221815 0
-5.940388 20.92531 1.171815 0
-5.940388 20.92531 1.221815 0
-5.890388 20.87531 1.171815 0
-5.940388 20.97531 0.8718147 0
-5.940388 20.97531 0.9218147 0
-5.940388 21.02531 0.8718147 0
-5.940388 20.97531 1.021815 0
-5.940388 21.02531 0.9718148 0
-5.940388 21.02531 1.021815 0
-5.890388 21.02531 0.9718148 0
-5.890388 21.02531 1.021815 0
-5.940388 21.07531 0.9218147 0
-5.940388 21.12531 0.8718147 0
-5.890388 21.12531 0.8718147 0
-5.890388 21.12531 0.9218147 0
-5.940388 21.07531 1.021815 0
-5.940388 21.12531 0.9718148 0
-5.890388 21.12531 1.021815 0
-5.940388 20.97531 1.071815 0
-5.890388 20.97531 1.121815 0
-5.940388 20.97531 1.171815 0
-5.940388 20.97531 1.221815 0
-5.940388 21.02531 1.221815 0
-5.890388 21.02531 1.171815 0
-5.940388 21.07531 1.071815 0
-5.940388 21.12531 1.071815 0
-5.890388 21.12531 1.121815 0
-5.940388 21.07531 1.171815 0
-5.940388 21.07531 1.221815 0
-5.940388 21.12531 1.221815 0
-5.890388 21.12531 1.171815 0
-5.840388 21.07531 1.021815 0
-5.940388 20.77531 1.271815 0
-5.940388 20.82531 1.271815 0
-5.890388 20.82531 1.321815 0
-5.940388 20.77531 1.371815 0
-5.940388 20.82531 1.421815 0
-5.940388 20.92531 1.271815 0
-5.890388 20.92531 1.321815 0
-5.940388 20.87531 1.371815 0
-5.940388 20.87531 1.421815 0
-5.940388 20.92531 1.421815 0
-5.940388 20.77531 1.471815 0
-5.940388 20.82531 1.471815 0
-5.890388 20.82531 1.521815 0
-5.890388 20.77531 1.571815 0
-5.890388 20.82531 1.571815 0
-5.940388 20.87531 1.471815 0
-5.940388 20.92531 1.521815 0
-5.890388 20.87531 1.521815 0
-5.890388 20.87531 1.571815 0
-5.940388 20.97531 1.271815 0
-5.890388 21.02531 1.321815 0
-5.940388 20.97531 1.371815 0
-5.940388 20.97531 1.421815 0
-5.940388 21.02531 1.421815 0
-5.890388 20.97531 1.371815 0
-5.940388 21.07531 1.321815 0
-5.890388 21.12531 1.321815 0
-5.940388 21.07531 1.371815 0
-5.940388 21.07531 1.421815 0
-5.940388 21.12531 1.421815 0
-5.940388 20.97531 1.521815 0
-5.940388 21.02531 1.471815 0
-5.890388 21.02531 1.521815 0
-5.940388 21.07531 1.521815 0
-5.940388 21.12531 1.471815 0
-5.890388 21.07531 1.521815 0
-5.890388 21.07531 1.571815 0
-5.840388 20.77531 1.571815 0
-5.840388 20.77531 1.621815 0
-5.840388 20.82531 1.571815 0
-5.840388 20.82531 1.621815 0
-5.840388 20.87531 1.571815 0
-5.840388 20.92531 1.621815 0
-5.790388 20.92531 1.621815 0
-5.840388 21.12531 1.321815 0
-5.840388 20.97531 1.571815 0
-5.840388 21.02531 1.621815 0
-5.840388 21.07531 1.571815 0
-5.840388 21.07531 1.621815 0
-5.840388 21.12531 1.621815 0
-5.790388 21.07531 1.571815 0
-5.940388 21.17531 0.9218147 0
-5.940388 21.22531 0.8718147 0
-5.890388 21.17531 0.8718147 0
-5.890388 21.17531 0.9218147 0
-5.890388 21.22531 0.9218147 0
-5.940388 21.17531 1.021815 0
-5.940388 21.22531 0.9718148 0
-5.940388 21.22531 1.021815 0
-5.890388 21.22531 1.021815 0
-5.940388 21.27531 0.9218147 0
-5.940388 21.32531 0.8718147 0
-5.890388 21.27531 0.8718147 0
-5.890388 21.32531 0.9218147 0
-5.940388 21.27531 1.021815 0
-5.940388 21.32531 0.9718148 0
-5.940388 21.32531 1.021815 0
-5.890388 21.27531 1.021815 0
-5.940388 21.22531 1.071815 0
-5.940388 21.22531 1.121815 0
-5.890388 21.17531 1.121815 0
-5.940388 21.17531 1.171815 0
-5.940388 21.17531 1.221815 0
-5.940388 21.22531 1.221815 0
-5.890388 21.17531 1.171815 0
-5.940388 21.32531 1.071815 0
-5.890388 21.27531 1.121815 0
-5.940388 21.27531 1.171815 0
-5.940388 21.27531 1.221815 0
-5.940388 21.32531 1.221815 0
-5.890388 21.32531 1.171815 0
-5.940388 21.37531 0.8718147 0
-5.940388 21.37531 0.9218147 0
-5.890388 21.37531 0.9218147 0
-5.890388 21.42531 0.8718147 0
-5.940388 21.37531 1.021815 0
-5.940388 21.42531 0.9718148 0
-5.890388 21.37531 1.021815 0
-5.890388 21.42531 1.021815 0
-5.940388 21.47531 0.8718147 0
-5.940388 21.47531 0.9218147 0
-5.940388 21.52531 0.8718147 0
-5.890388 21.47531 0.8718147 0
-5.890388 21.47531 0.9218147 0
-5.890388 21.52531 0.9218147 0
-5.940388 21.47531 0.9718148 0
-5.940388 21.47531 1.021815 0
-5.940388 21.52531 1.021815 0
-5.890388 21.47531 1.021815 0
-5.890388 21.52531 1.021815 0
-5.940388 21.37531 1.071815 0
-5.940388 21.42531 1.121815 0
-5.890388 21.42531 1.121815 0
-5.940388 21.37531 1.171815 0
-5.940388 21.37531 1.221815 0
-5.940388 21.42531 1.221815 0
-5.890388 21.37531 1.171815 0
-5.890388 21.42531 1.171815 0
-5.940388 21.52531 1.121815 0
-5.890388 21.47531 1.121815 0
-5.940388 21.47531 1.221815 0
-5.890388 21.47531 1.171815 0
-5.890388 21.52531 1.171815 0
-5.890388 21.52531 1.221815 0
-5.840388 21.32531 0.9218147 0
-5.840388 21.32531 1.021815 0
-5.840388 21.47531 0.9218147 0
-5.940388 21.22531 1.321815 0
-5.890388 21.17531 1.321815 0
-5.890388 21.22531 1.321815 0
-5.940388 21.17531 1.371815 0
-5.940388 21.17531 1.421815 0
-5.940388 21.22531 1.421815 0
-5.890388 21.22531 1.421815 0
-5.940388 21.27531 1.321815 0
-5.890388 21.27531 1.271815 0
-5.890388 21.32531 1.321815 0
-5.940388 21.27531 1.371815 0
-5.940388 21.27531 1.421815 0
-5.940388 21.32531 1.421815 0
-5.940388 21.22531 1.521815 0
-5.890388 21.17531 1.471815 0
-5.890388 21.17531 1.521815 0
-5.890388 21.27531 1.521815 0
-5.890388 21.32531 1.471815 0
-5.890388 21.27531 1.571815 0
-5.940388 21.37531 1.271815 0
-5.940388 21.37531 1.321815 0
-5.890388 21.37531 1.271815 0
-5.890388 21.37531 1.321815 0
-5.890388 21.42531 1.271815 0
-5.940388 21.37531 1.371815 0
-5.940388 21.37531 1.421815 0
-5.940388 21.42531 1.421815 0
-5.890388 21.37531 1.421815 0
-5.890388 21.42531 1.421815 0
-5.940388 21.47531 1.271815 0
-5.940388 21.52531 1.321815 0
-5.890388 21.47531 1.321815 0
-5.890388 21.52531 1.271815 0
-5.940388 21.47531 1.371815 0
-5.940388 21.47531 1.421815 0
-5.940388 21.52531 1.421815 0
-5.890388 21.47531 1.421815 0
-5.940388 21.37531 1.521815 0
-5.940388 21.42531 1.471815 0
-5.890388 21.37531 1.521815 0
-5.890388 21.42531 1.471815 0
-5.940388 21.47531 1.521815 0
-5.890388 21.47531 1.521815 0
-5.890388 21.52531 1.521815 0
-5.840388 21.32531 1.321815 0
-5.840388 21.17531 1.571815 0
-5.840388 21.22531 1.621815 0
-5.790388 21.22531 1.571815 0
-5.840388 21.27531 1.521815 0
-5.840388 21.32531 1.471815 0
-5.840388 21.27531 1.571815 0
-5.840388 21.27531 1.621815 0
-5.840388 21.32531 1.571815 0
-5.840388 21.32531 1.621815 0
-5.790388 21.27531 1.571815 0
-5.840388 21.47531 1.271815 0
-5.840388 21.37531 1.521815 0
-5.840388 21.37531 1.571815 0
-5.840388 21.37531 1.621815 0
-5.840388 21.42531 1.571815 0
-5.790388 21.37531 1.571815 0
-5.790388 21.42531 1.621815 0
-5.840388 21.47531 1.571815 0
-5.840388 21.47531 1.621815 0
-5.840388 21.52531 1.571815 0
-5.840388 21.52531 1.621815 0
-5.790388 21.57531 0.1718147 0
-5.790388 21.57531 0.2218147 0
-5.790388 21.62531 0.2218147 0
-5.790388 21.67531 0.1218147 0
-5.790388 21.67531 0.1718147 0
-5.790388 21.67531 0.2218147 0
-5.790388 21.72531 0.2218147 0
-5.740388 21.57531 0.1718147 0
-5.740388 21.57531 0.2218147 0
-5.740388 21.62531 0.1718147 0
-5.740388 21.62531 0.2218147 0
-5.740388 21.67531 0.1718147 0
-5.740388 21.67531 0.2218147 0
-5.740388 21.72531 0.2218147 0
-5.790388 21.57531 0.2718147 0
-5.790388 21.62531 0.4218147 0
-5.790388 21.67531 0.2718147 0
-5.790388 21.67531 0.4218147 0
-5.790388 21.72531 0.4218147 0
-5.740388 21.57531 0.4218147 0
-5.790388 21.77531 0.1718147 0
-5.790388 21.77531 0.2218147 0
-5.790388 21.82531 0.1718147 0
-5.790388 21.82531 0.2218147 0
-5.790388 21.92531 0.1218147 0
-5.790388 21.87531 0.2218147 0
-5.790388 21.92531 0.1718147 0
-5.790388 21.92531 0.2218147 0
-5.740388 21.77531 0.2218147 0
-5.740388 21.82531 0.1718147 0
-5.740388 21.82531 0.2218147 0
-5.690388 21.82531 0.1718147 0
-5.740388 21.87531 0.2218147 0
-5.740388 21.92531 0.1718147 0
-5.740388 21.92531 0.2218147 0
-5.790388 21.77531 0.2718147 0
-5.790388 21.77531 0.4218147 0
-5.790388 21.87531 0.2718147 0
-5.790388 21.87531 0.4218147 0
-5.790388 21.92531 0.4218147 0
-5.740388 21.77531 0.4218147 0
-5.740388 21.82531 0.4218147 0
-5.740388 21.87531 0.4218147 0
-5.940388 21.57531 0.8218147 0
-5.940388 21.62531 0.8218147 0
-5.890388 21.62531 0.8218147 0
-5.890388 21.67531 0.8218147 0
-5.890388 21.72531 0.8218147 0
-5.940388 21.77531 0.8218147 0
-5.890388 21.82531 0.8218147 0
-5.940388 21.87531 0.8218147 0
-5.890388 21.92531 0.8218147 0
-5.790388 21.57531 0.4718147 0
-5.790388 21.57531 0.6218147 0
-5.790388 21.62531 0.6218147 0
-5.790388 21.67531 0.4718147 0
-5.790388 21.67531 0.5218147 0
-5.790388 21.72531 0.4718147 0
-5.790388 21.67531 0.6218147 0
-5.790388 21.72531 0.6218147 0
-5.740388 21.57531 0.4718147 0
-5.740388 21.57531 0.5218147 0
-5.740388 21.62531 0.4718147 0
-5.690388 21.62531 0.5218147 0
-5.740388 21.67531 0.4718147 0
-5.740388 21.72531 0.4718147 0
-5.740388 21.72531 0.5218147 0
-5.740388 21.67531 0.6218147 0
-5.690388 21.72531 0.5718147 0
-5.790388 21.57531 0.6718147 0
-5.790388 21.57531 0.7218148 0
-5.790388 21.62531 0.6718147 0
-5.840388 21.57531 0.8218147 0
-5.790388 21.67531 0.7218148 0
-5.790388 21.72531 0.6718147 0
-5.790388 21.72531 0.7218148 0
-5.840388 21.72531 0.8218147 0
-5.740388 21.57531 0.6718147 0
-5.740388 21.57531 0.7218148 0
-5.740388 21.62531 0.6718147 0
-5.740388 21.62531 0.7218148 0
-5.740388 21.67531 0.6718147 0
-5.740388 21.67531 0.7218148 0
-5.740388 21.72531 0.6718147 0
-5.740388 21.72531 0.7218148 0
-5.790388 21.82531 0.4718147 0
-5.790388 21.77531 0.6218147 0
-5.790388 21.82531 0.6218147 0
-5.790388 21.87531 0.4718147 0
-5.790388 21.92531 0.4718147 0
-5.790388 21.87531 0.5718147 0
-5.790388 21.87531 0.6218147 0
-5.790388 21.92531 0.6218147 0
-5.740388 21.77531 0.4718147 0
-5.740388 21.82531 0.4718147 0
-5.740388 21.82531 0.5218147 0
-5.740388 21.87531 0.4718147 0
-5.740388 21.92531 0.4718147 0
-5.740388 21.92531 0.5218147 0
-5.740388 21.87531 0.6218147 0
-5.790388 21.82531 0.6718147 0
-5.790388 21.82531 0.7218148 0
-5.840388 21.82531 0.8218147 0
-5.790388 21.87531 0.6718147 0
-5.790388 21.87531 0.7218148 0
-5.790388 21.92531 0.7218148 0
-5.740388 21.77531 0.6718147 0
-5.740388 21.77531 0.7218148 0
-5.740388 21.82531 0.7218148 0
-5.740388 21.87531 0.6718147 0
-5.740388 21.87531 0.7218148 0
-5.740388 21.92531 0.6718147 0
-5.790388 21.97531 0.1718147 0
-5.790388 21.97531 0.2218147 0
-5.790388 22.07531 0.1718147 0
-5.790388 22.07531 0.2218147 0
-5.740388 21.97531 0.2218147 0
-5.740388 22.02531 0.2218147 0
-5.690388 21.97531 0.1718147 0
-5.740388 22.07531 0.1718147 0
-5.740388 22.07531 0.2218147 0
-5.740388 22.12531 0.2218147 0
-5.790388 21.97531 0.2718147 0
-5.790388 21.97531 0.4218147 0
-5.790388 22.02531 0.4218147 0
-5.790388 22.07531 0.2718147 0
-5.790388 22.07531 0.4218147 0
-5.790388 22.12531 0.4218147 0
-5.740388 21.97531 0.4218147 0
-5.740388 22.07531 0.4218147 0
-5.790388 22.17531 0.1718147 0
-5.790388 22.17531 0.2218147 0
-5.790388 22.22531 0.1718147 0
-5.790388 22.27531 0.1218147 0
-5.790388 22.27531 0.1718147 0
-5.740388 22.17531 0.2218147 0
-5.740388 22.22531 0.2218147 0
-5.690388 22.17531 0.1718147 0
-5.740388 22.27531 0.2218147 0
-5.740388 22.32531 0.2218147 0
-5.690388 22.27531 0.2218147 0
-5.690388 22.32531 0.1718147 0
-5.790388 22.17531 0.4218147 0
-5.790388 22.27531 0.4218147 0
-5.740388 22.17531 0.2718147 0
-5.740388 22.17531 0.4218147 0
-5.740388 22.22531 0.4218147 0
-5.740388 22.27531 0.2718147 0
-5.740388 22.27531 0.4218147 0
-5.740388 22.32531 0.4218147 0
-5.940388 21.97531 0.8218147 0
-5.890388 22.02531 0.8218147 0
-5.890388 22.12531 0.8218147 0
-5.940388 22.17531 0.8218147 0
-5.890388 22.17531 0.8218147 0
-5.890388 22.27531 0.8218147 0
-5.890388 22.32531 0.8218147 0
-5.790388 21.97531 0.4718147 0
-5.790388 21.97531 0.5218147 0
-5.790388 21.97531 0.6218147 0
-5.790388 22.02531 0.6218147 0
-5.790388 22.07531 0.4718147 0
-5.790388 22.07531 0.6218147 0
-5.740388 21.97531 0.4718147 0
-5.740388 22.02531 0.4718147 0
-5.690388 21.97531 0.5218147 0
-5.740388 21.97531 0.6218147 0
-5.690388 21.97531 0.5718147 0
-5.740388 22.07531 0.4718147 0
-5.740388 22.07531 0.5218147 0
-5.740388 22.12531 0.4718147 0
-5.690388 22.12531 0.5218147 0
-5.740388 22.07531 0.6218147 0
-5.790388 21.97531 0.6718147 0
-5.790388 21.97531 0.7218148 0
-5.840388 21.97531 0.8218147 0
-5.790388 22.07531 0.6718147 0
-5.790388 22.07531 0.7218148 0
-5.840388 22.07531 0.8218147 0
-5.740388 21.97531 0.7218148 0
-5.740388 22.02531 0.6718147 0
-5.740388 22.02531 0.7218148 0
-5.740388 22.07531 0.7218148 0
-5.740388 22.12531 0.6718147 0
-5.790388 22.17531 0.4718147 0
-5.790388 22.22531 0.4718147 0
-5.790388 22.17531 0.6218147 0
-5.790388 22.27531 0.5218147 0
-5.790388 22.27531 0.6218147 0
-5.790388 22.32531 0.5718147 0
-5.740388 22.17531 0.4718147 0
-5.740388 22.17531 0.5218147 0
-5.740388 22.22531 0.4718147 0
-5.740388 22.17531 0.6218147 0
-5.740388 22.22531 0.6218147 0
-5.690388 22.22531 0.5718147 0
-5.740388 22.27531 0.4718147 0
-5.740388 22.32531 0.4718147 0
-5.690388 22.32531 0.4718147 0
-5.690388 22.32531 0.5218147 0
-5.740388 22.27531 0.6218147 0
-5.740388 22.32531 0.6218147 0
-5.790388 22.17531 0.6718147 0
-5.840388 22.22531 0.8218147 0
-5.790388 22.22531 0.7718147 0
-5.790388 22.27531 0.6718147 0
-5.790388 22.27531 0.7218148 0
-5.840388 22.32531 0.8218147 0
-5.740388 22.17531 0.7218148 0
-5.740388 22.22531 0.6718147 0
-5.690388 22.17531 0.7218148 0
-5.740388 22.27531 0.7218148 0
-5.740388 22.32531 0.6718147 0
-5.690388 22.32531 0.7218148 0
-5.340388 22.27531 0.1718147 0
-5.940388 21.57531 0.9218147 0
-5.940388 21.62531 0.8718147 0
-5.890388 21.57531 0.8718147 0
-5.890388 21.62531 0.9218147 0
-5.940388 21.62531 1.021815 0
-5.890388 21.62531 1.021815 0
-5.940388 21.67531 0.8718147 0
-5.940388 21.72531 0.8718147 0
-5.890388 21.67531 0.8718147 0
-5.890388 21.67531 0.9218147 0
-5.940388 21.67531 1.021815 0
-5.940388 21.72531 1.021815 0
-5.890388 21.67531 0.9718148 0
-5.890388 21.72531 1.021815 0
-5.940388 21.57531 1.121815 0
-5.940388 21.62531 1.121815 0
-5.890388 21.57531 1.071815 0
-5.890388 21.57531 1.121815 0
-5.940388 21.57531 1.171815 0
-5.940388 21.57531 1.221815 0
-5.940388 21.62531 1.221815 0
-5.890388 21.62531 1.171815 0
-5.940388 21.72531 1.121815 0
-5.890388 21.67531 1.071815 0
-5.890388 21.72531 1.121815 0
-5.940388 21.72531 1.221815 0
-5.890388 21.67531 1.171815 0
-5.890388 21.67531 1.221815 0
-5.940388 21.82531 0.8718147 0
-5.890388 21.77531 0.8718147 0
-5.890388 21.77531 0.9218147 0
-5.940388 21.77531 1.021815 0
-5.940388 21.82531 1.021815 0
-5.890388 21.82531 1.021815 0
-5.940388 21.92531 0.9218147 0
-5.890388 21.87531 0.8718147 0
-5.890388 21.87531 0.9218147 0
-5.940388 21.87531 1.021815 0
-5.890388 21.92531 1.021815 0
-5.940388 21.77531 1.121815 0
-5.940388 21.82531 1.071815 0
-5.940388 21.82531 1.121815 0
-5.890388 21.77531 1.071815 0
-5.940388 21.82531 1.221815 0
-5.890388 21.77531 1.171815 0
-5.940388 21.87531 1.121815 0
-5.940388 21.92531 1.071815 0
-5.890388 21.87531 1.071815 0
-5.890388 21.87531 1.171815 0
-5.890388 21.92531 1.221815 0
-5.840388 21.57531 0.9718148 0
-5.840388 21.57531 1.021815 0
-5.840388 21.67531 0.9218147 0
-5.840388 21.82531 0.8718147 0
-5.840388 21.77531 0.9718148 0
-5.840388 21.77531 1.021815 0
-5.840388 21.87531 0.9718148 0
-5.840388 21.77531 1.121815 0
-5.840388 21.82531 1.121815 0
-5.840388 21.77531 1.221815 0
-5.840388 21.87531 1.221815 0
-5.940388 21.57531 1.271815 0
-5.890388 21.57531 1.321815 0
-5.890388 21.62531 1.271815 0
-5.890388 21.62531 1.321815 0
-5.940388 21.57531 1.421815 0
-5.890388 21.57531 1.371815 0
-5.890388 21.57531 1.421815 0
-5.890388 21.62531 1.421815 0
-5.940388 21.67531 1.271815 0
-5.940388 21.72531 1.271815 0
-5.890388 21.67531 1.321815 0
-5.890388 21.72531 1.271815 0
-5.940388 21.72531 1.371815 0
-5.890388 21.67531 1.371815 0
-5.890388 21.67531 1.421815 0
-5.890388 21.72531 1.371815 0
-5.890388 21.72531 1.421815 0
-5.940388 21.57531 1.471815 0
-5.890388 21.57531 1.471815 0
-5.890388 21.57531 1.521815 0
-5.890388 21.62531 1.521815 0
-5.890388 21.57531 1.571815 0
-5.890388 21.62531 1.571815 0
-5.940388 21.67531 1.471815 0
-5.890388 21.67531 1.521815 0
-5.890388 21.72531 1.521815 0
-5.890388 21.77531 1.271815 0
-5.890388 21.77531 1.321815 0
-5.890388 21.82531 1.271815 0
-5.940388 21.82531 1.371815 0
-5.890388 21.77531 1.371815 0
-5.890388 21.82531 1.421815 0
-5.940388 21.87531 1.321815 0
-5.940388 21.92531 1.321815 0
-5.890388 21.87531 1.271815 0
-5.890388 21.87531 1.321815 0
-5.890388 21.92531 1.271815 0
-5.940388 21.92531 1.371815 0
-5.890388 21.87531 1.371815 0
-5.890388 21.92531 1.421815 0
-5.940388 21.77531 1.471815 0
-5.940388 21.82531 1.471815 0
-5.890388 21.77531 1.521815 0
-5.890388 21.82531 1.471815 0
-5.890388 21.82531 1.521815 0
-5.940388 21.92531 1.471815 0
-5.890388 21.87531 1.521815 0
-5.890388 21.92531 1.521815 0
-5.840388 21.57531 1.271815 0
-5.840388 21.67531 1.271815 0
-5.840388 21.57531 1.471815 0
-5.840388 21.62531 1.521815 0
-5.840388 21.57531 1.571815 0
-5.840388 21.62531 1.571815 0
-5.840388 21.62531 1.621815 0
-5.790388 21.57531 1.621815 0
-5.790388 21.62531 1.621815 0
-5.840388 21.72531 1.471815 0
-5.840388 21.67531 1.571815 0
-5.840388 21.72531 1.571815 0
-5.840388 21.72531 1.621815 0
-5.790388 21.72531 1.621815 0
-5.840388 21.82531 1.271815 0
-5.840388 21.82531 1.421815 0
-5.840388 21.77531 1.521815 0
-5.840388 21.77531 1.571815 0
-5.840388 21.82531 1.571815 0
-5.790388 21.82531 1.621815 0
-5.840388 21.87531 1.521815 0
-5.840388 21.87531 1.571815 0
-5.840388 21.92531 1.571815 0
-5.840388 21.92531 1.621815 0
-5.790388 21.87531 1.621815 0
-5.740388 21.77531 1.621815 0
-5.740388 21.92531 1.621815 0
-5.940388 21.97531 0.9218147 0
-5.890388 21.97531 0.8718147 0
-5.890388 21.97531 0.9218147 0
-5.890388 22.02531 0.9218147 0
-5.940388 21.97531 1.021815 0
-5.890388 22.02531 0.9718148 0
-5.890388 22.02531 1.021815 0
-5.940388 22.07531 0.9218147 0
-5.890388 22.07531 0.8718147 0
-5.890388 22.07531 0.9218147 0
-5.890388 22.12531 0.9218147 0
-5.940388 22.12531 1.021815 0
-5.890388 22.07531 1.021815 0
-5.890388 22.12531 0.9718148 0
-5.890388 22.12531 1.021815 0
-5.940388 21.97531 1.121815 0
-5.890388 21.97531 1.071815 0
-5.940388 21.97531 1.171815 0
-5.890388 21.97531 1.171815 0
-5.890388 22.02531 1.171815 0
-5.890388 22.02531 1.221815 0
-5.890388 22.07531 1.071815 0
-5.940388 22.07531 1.171815 0
-5.890388 22.07531 1.171815 0
-5.890388 22.12531 1.171815 0
-5.890388 22.12531 1.221815 0
-5.890388 22.17531 0.8718147 0
-5.890388 22.17531 0.9218147 0
-5.890388 22.22531 0.8718147 0
-5.890388 22.22531 0.9218147 0
-5.940388 22.22531 1.021815 0
-5.890388 22.17531 1.021815 0
-5.890388 22.27531 0.9218147 0
-5.890388 22.32531 0.8718147 0
-5.890388 22.27531 1.021815 0
-5.890388 22.32531 1.021815 0
-5.890388 22.17531 1.071815 0
-5.890388 22.22531 1.121815 0
-5.940388 22.17531 1.171815 0
-5.890388 22.17531 1.171815 0
-5.890388 22.17531 1.221815 0
-5.890388 22.27531 1.071815 0
-5.890388 22.27531 1.171815 0
-5.890388 22.27531 1.221815 0
-5.890388 22.32531 1.221815 0
-5.840388 22.02531 0.8718147 0
-5.840388 21.97531 0.9718148 0
-5.840388 22.02531 1.021815 0
-5.840388 22.07531 0.9718148 0
-5.840388 21.97531 1.121815 0
-5.840388 21.97531 1.221815 0
-5.840388 22.07531 1.121815 0
-5.840388 22.12531 1.221815 0
-5.840388 22.17531 0.8718147 0
-5.840388 22.17531 0.9718148 0
-5.840388 22.22531 0.9718148 0
-5.840388 22.32531 0.8718147 0
-5.840388 22.27531 0.9718148 0
-5.840388 22.32531 0.9718148 0
-5.790388 22.27531 0.9718148 0
-5.840388 22.22531 1.121815 0
-5.840388 22.17531 1.221815 0
-5.840388 22.22531 1.221815 0
-5.840388 22.32531 1.121815 0
-5.840388 22.27531 1.221815 0
-5.840388 22.32531 1.221815 0
-5.940388 21.97531 1.321815 0
-5.890388 21.97531 1.271815 0
-5.890388 22.02531 1.271815 0
-5.940388 21.97531 1.371815 0
-5.890388 21.97531 1.371815 0
-5.890388 22.02531 1.371815 0
-5.890388 22.02531 1.421815 0
-5.940388 22.12531 1.321815 0
-5.890388 22.07531 1.271815 0
-5.890388 22.12531 1.271815 0
-5.940388 22.07531 1.371815 0
-5.890388 22.07531 1.371815 0
-5.890388 22.07531 1.421815 0
-5.890388 22.12531 1.371815 0
-5.890388 22.12531 1.421815 0
-5.940388 21.97531 1.471815 0
-5.940388 21.97531 1.521815 0
-5.890388 21.97531 1.521815 0
-5.890388 22.02531 1.521815 0
-5.890388 22.07531 1.471815 0
-5.890388 22.07531 1.521815 0
-5.940388 22.22531 1.321815 0
-5.890388 22.17531 1.271815 0
-5.890388 22.17531 1.371815 0
-5.890388 22.17531 1.421815 0
-5.890388 22.22531 1.421815 0
-5.890388 22.27531 1.271815 0
-5.890388 22.27531 1.321815 0
-5.890388 22.27531 1.371815 0
-5.890388 22.27531 1.421815 0
-5.890388 22.32531 1.421815 0
-5.940388 22.17531 1.521815 0
-5.940388 22.22531 1.521815 0
-5.890388 22.17531 1.471815 0
-5.890388 22.22531 1.521815 0
-5.890388 22.27531 1.471815 0
-5.890388 22.32531 1.521815 0
-5.840388 22.02531 1.271815 0
-5.840388 22.02531 1.421815 0
-5.840388 22.07531 1.421815 0
-5.840388 21.97531 1.471815 0
-5.840388 21.97531 1.571815 0
-5.840388 22.02531 1.571815 0
-5.840388 22.02531 1.621815 0
-5.790388 21.97531 1.621815 0
-5.790388 22.02531 1.571815 0
-5.840388 22.12531 1.471815 0
-5.840388 22.12531 1.621815 0
-5.790388 22.07531 1.571815 0
-5.790388 22.07531 1.621815 0
-5.790388 22.12531 1.571815 0
-5.740388 22.12531 1.621815 0
-5.840388 22.22531 1.421815 0
-5.840388 22.27531 1.371815 0
-5.840388 22.32531 1.421815 0
-5.840388 22.17531 1.521815 0
-5.840388 22.22531 1.471815 0
-5.840388 22.17531 1.621815 0
-5.790388 22.17531 1.571815 0
-5.790388 22.22531 1.571815 0
-5.790388 22.22531 1.621815 0
-5.840388 22.32531 1.471815 0
-5.840388 22.27531 1.621815 0
-5.840388 22.32531 1.571815 0
-5.790388 22.27531 1.571815 0
-5.790388 22.32531 1.571815 0
-5.790388 22.32531 1.621815 0
-5.740388 22.17531 1.571815 0
-5.740388 22.27531 1.571815 0
-5.890388 20.77531 1.671815 0
-5.890388 20.82531 1.721815 0
-5.890388 20.77531 1.771815 0
-5.890388 20.82531 1.821815 0
-5.890388 20.87531 1.721815 0
-5.890388 20.92531 1.671815 0
-5.890388 20.92531 1.721815 0
-5.890388 20.77531 1.921815 0
-5.890388 20.77531 1.971815 0
-5.890388 20.82531 1.971815 0
-5.890388 20.92531 1.971815 0
-5.890388 20.92531 2.021815 0
-5.890388 21.02531 1.721815 0
-5.890388 21.12531 1.721815 0
-5.890388 21.12531 1.771815 0
-5.890388 21.07531 1.971815 0
-5.890388 21.12531 2.021815 0
-5.840388 20.82531 1.671815 0
-5.790388 20.82531 1.721815 0
-5.840388 20.77531 1.821815 0
-5.840388 20.82531 1.771815 0
-5.840388 20.82531 1.821815 0
-5.840388 20.87531 1.821815 0
-5.840388 20.92531 1.821815 0
-5.840388 20.77531 1.921815 0
-5.790388 20.82531 1.871815 0
-5.840388 20.82531 2.021815 0
-5.840388 20.87531 1.871815 0
-5.840388 20.87531 1.921815 0
-5.840388 20.92531 1.921815 0
-5.840388 20.87531 2.021815 0
-5.790388 20.92531 1.971815 0
-5.840388 20.97531 1.671815 0
-5.840388 20.97531 1.721815 0
-5.840388 21.02531 1.671815 0
-5.790388 20.97531 1.671815 0
-5.790388 21.02531 1.721815 0
-5.840388 20.97531 1.821815 0
-5.840388 21.02531 1.821815 0
-5.790388 20.97531 1.821815 0
-5.840388 21.07531 1.721815 0
-5.840388 21.12531 1.671815 0
-5.840388 21.07531 1.771815 0
-5.840388 21.07531 1.821815 0
-5.840388 21.12531 1.771815 0
-5.840388 21.12531 1.821815 0
-5.790388 21.12531 1.821815 0
-5.840388 20.97531 1.921815 0
-5.840388 21.02531 1.921815 0
-5.790388 21.02531 1.871815 0
-5.840388 20.97531 2.021815 0
-5.840388 21.02531 2.021815 0
-5.840388 21.12531 1.871815 0
-5.790388 21.07531 1.871815 0
-5.840388 21.07531 2.021815 0
-5.790388 21.12531 2.021815 0
-5.890388 20.77531 2.221815 0
-5.890388 20.87531 2.071815 0
-5.890388 20.77531 2.271815 0
-5.890388 20.82531 2.271815 0
-5.890388 20.92531 2.271815 0
-5.890388 20.92531 2.321815 0
-5.890388 21.12531 2.271815 0
-5.890388 21.12531 2.371815 0
-5.840388 20.77531 2.071815 0
-5.840388 20.82531 2.071815 0
-5.790388 20.82531 2.121815 0
-5.840388 20.82531 2.171815 0
-5.790388 20.77531 2.171815 0
-5.790388 20.82531 2.221815 0
-5.840388 20.92531 2.171815 0
-5.790388 20.87531 2.171815 0
-5.790388 20.92531 2.221815 0
-5.790388 20.92531 2.421815 0
-5.790388 21.02531 2.121815 0
-5.840388 21.02531 2.171815 0
-5.790388 20.97531 2.171815 0
-5.840388 21.12531 2.121815 0
-5.840388 21.07531 2.171815 0
-5.790388 21.12531 2.171815 0
-5.840388 21.02531 2.271815 0
-5.790388 21.07531 2.421815 0
-5.890388 21.17531 1.871815 0
-5.890388 21.27531 2.021815 0
-5.840388 21.22531 1.721815 0
-5.840388 21.17531 1.821815 0
-5.840388 21.22531 1.771815 0
-5.840388 21.22531 1.821815 0
-5.790388 21.22531 1.821815 0
-5.840388 21.27531 1.721815 0
-5.790388 21.27531 1.671815 0
-5.840388 21.27531 1.821815 0
-5.840388 21.32531 1.771815 0
-5.840388 21.32531 1.821815 0
-5.790388 21.27531 1.771815 0
-5.790388 21.27531 1.821815 0
-5.790388 21.32531 1.821815 0
-5.740388 21.22531 1.671815 0
-5.790388 21.17531 1.921815 0
-5.790388 21.22531 1.871815 0
-5.840388 21.17531 1.971815 0
-5.840388 21.17531 2.021815 0
-5.840388 21.27531 1.871815 0
-5.840388 21.32531 1.871815 0
-5.840388 21.27531 1.971815 0
-5.840388 21.27531 2.021815 0
-5.790388 21.27531 2.021815 0
-5.840388 21.37531 1.771815 0
-5.840388 21.37531 1.821815 0
-5.840388 21.42531 1.771815 0
-5.790388 21.37531 1.771815 0
-5.790388 21.42531 1.821815 0
-5.840388 21.47531 1.671815 0
-5.840388 21.47531 1.771815 0
-5.840388 21.47531 1.821815 0
-5.840388 21.52531 1.771815 0
-5.790388 21.47531 1.771815 0
-5.790388 21.47531 1.821815 0
-5.790388 21.52531 1.771815 0
-5.740388 21.42531 1.671815 0
-5.840388 21.42531 1.871815 0
-5.840388 21.37531 1.971815 0
-5.840388 21.37531 2.021815 0
-5.840388 21.42531 2.021815 0
-5.790388 21.42531 1.971815 0
-5.840388 21.47531 2.021815 0
-5.790388 21.47531 2.021815 0
-5.790388 21.52531 1.971815 0
-5.740388 21.47531 1.921815 0
-5.890388 21.27531 2.071815 0
-5.890388 21.32531 2.121815 0
-5.890388 21.17531 2.321815 0
-5.890388 21.47531 2.421815 0
-5.790388 21.22531 2.071815 0
-5.790388 21.22531 2.121815 0
-5.840388 21.27531 2.121815 0
-5.790388 21.27531 2.121815 0
-5.790388 21.32531 2.071815 0
-5.790388 21.32531 2.121815 0
-5.790388 21.27531 2.171815 0
-5.840388 21.22531 2.321815 0
-5.790388 21.17531 2.371815 0
-5.790388 21.22531 2.421815 0
-5.840388 21.27531 2.371815 0
-5.790388 21.32531 2.421815 0
-5.840388 21.37531 2.071815 0
-5.840388 21.42531 2.071815 0
-5.790388 21.37531 2.121815 0
-5.790388 21.42531 2.121815 0
-5.840388 21.47531 2.071815 0
-5.790388 21.47531 2.071815 0
-5.790388 21.47531 2.121815 0
-5.790388 21.52531 2.121815 0
-5.740388 21.42531 2.071815 0
-5.840388 21.37531 2.321815 0
-5.790388 21.37531 2.371815 0
-5.790388 21.42531 2.421815 0
-5.840388 21.47531 2.371815 0
-5.840388 21.47531 2.421815 0
-5.790388 21.52531 2.371815 0
-5.790388 21.52531 2.421815 0
-5.740388 21.42531 2.371815 0
-5.740388 21.42531 2.421815 0
-5.890388 20.77531 2.621815 0
-5.890388 20.87531 2.571815 0
-5.890388 20.82531 2.721815 0
-5.890388 20.92531 2.671815 0
-5.890388 21.07531 2.671815 0
-5.840388 20.77531 2.471815 0
-5.790388 20.82531 2.521815 0
-5.790388 20.82531 2.571815 0
-5.840388 20.87531 2.471815 0
-5.840388 20.97531 2.471815 0
-5.790388 20.97531 2.521815 0
-5.790388 21.02531 2.521815 0
-5.790388 21.12531 2.471815 0
-5.790388 20.97531 2.721815 0
-5.790388 21.12531 2.821815 0
-5.890388 20.82531 3.171815 0
-5.890388 20.87531 3.071815 0
-5.790388 20.82531 2.921815 0
-5.790388 20.97531 2.871815 0
-5.790388 21.02531 2.921815 0
-5.790388 21.07531 3.021815 0
-5.890388 21.17531 2.771815 0
-5.890388 21.27531 2.721815 0
-5.890388 21.37531 2.621815 0
-5.890388 21.47531 2.771815 0
-5.890388 21.47531 2.821815 0
-5.790388 21.27531 2.471815 0
-5.740388 21.22531 2.471815 0
-5.790388 21.27531 2.671815 0
-5.790388 21.27531 2.821815 0
-5.740388 21.22531 2.821815 0
-5.790388 21.37531 2.471815 0
-5.790388 21.37531 2.771815 0
-5.790388 21.52531 2.771815 0
-5.740388 21.42531 2.821815 0
-5.740388 21.47531 2.821815 0
-5.890388 21.17531 3.221815 0
-5.890388 21.47531 3.221815 0
-5.790388 21.22531 2.871815 0
-5.790388 21.27531 3.221815 0
-5.740388 21.42531 3.221815 0
-5.790388 21.57531 1.721815 0
-5.840388 21.57531 1.771815 0
-5.840388 21.57531 1.821815 0
-5.840388 21.62531 1.771815 0
-5.840388 21.62531 1.821815 0
-5.790388 21.57531 1.821815 0
-5.840388 21.72531 1.671815 0
-5.790388 21.67531 1.721815 0
-5.840388 21.67531 1.821815 0
-5.840388 21.72531 1.771815 0
-5.840388 21.72531 1.821815 0
-5.790388 21.67531 1.771815 0
-5.790388 21.67531 1.821815 0
-5.790388 21.72531 1.821815 0
-5.740388 21.57531 1.671815 0
-5.840388 21.57531 1.921815 0
-5.790388 21.57531 1.871815 0
-5.790388 21.62531 1.871815 0
-5.840388 21.57531 2.021815 0
-5.790388 21.57531 1.971815 0
-5.790388 21.57531 2.021815 0
-5.790388 21.62531 2.021815 0
-5.840388 21.72531 1.871815 0
-5.840388 21.67531 2.021815 0
-5.790388 21.67531 1.971815 0
-5.740388 21.57531 2.021815 0
-5.740388 21.67531 1.871815 0
-5.840388 21.82531 1.671815 0
-5.790388 21.77531 1.721815 0
-5.840388 21.82531 1.771815 0
-5.840388 21.82531 1.821815 0
-5.790388 21.77531 1.771815 0
-5.790388 21.77531 1.821815 0
-5.790388 21.82531 1.771815 0
-5.790388 21.82531 1.821815 0
-5.790388 21.87531 1.721815 0
-5.790388 21.92531 1.721815 0
-5.840388 21.87531 1.821815 0
-5.840388 21.92531 1.821815 0
-5.790388 21.87531 1.771815 0
-5.790388 21.92531 1.771815 0
-5.740388 21.77531 1.771815 0
-5.840388 21.82531 1.871815 0
-5.790388 21.77531 1.971815 0
-5.790388 21.77531 2.021815 0
-5.840388 21.87531 1.871815 0
-5.790388 21.87531 1.921815 0
-5.840388 21.87531 2.021815 0
-5.740388 21.77531 2.021815 0
-5.740388 21.92531 1.871815 0
-5.740388 21.92531 1.971815 0
-5.740388 21.92531 2.021815 0
-5.840388 21.62531 2.121815 0
-5.790388 21.57531 2.071815 0
-5.790388 21.62531 2.071815 0
-5.790388 21.62531 2.121815 0
-5.840388 21.72531 2.071815 0
-5.840388 21.72531 2.121815 0
-5.790388 21.67531 2.071815 0
-5.790388 21.72531 2.071815 0
-5.740388 21.67531 2.071815 0
-5.790388 21.57531 2.321815 0
-5.840388 21.57531 2.371815 0
-5.840388 21.62531 2.371815 0
-5.790388 21.57531 2.371815 0
-5.790388 21.57531 2.421815 0
-5.840388 21.72531 2.421815 0
-5.790388 21.67531 2.371815 0
-5.790388 21.67531 2.421815 0
-5.740388 21.67531 2.321815 0
-5.840388 21.77531 2.071815 0
-5.840388 21.82531 2.071815 0
-5.790388 21.77531 2.071815 0
-5.790388 21.82531 2.071815 0
-5.840388 21.82531 2.171815 0
-5.840388 21.92531 2.071815 0
-5.790388 21.87531 2.071815 0
-5.790388 21.92531 2.071815 0
-5.790388 21.92531 2.121815 0
-5.840388 21.87531 2.171815 0
-5.790388 21.77531 2.271815 0
-5.790388 21.77531 2.321815 0
-5.790388 21.77531 2.371815 0
-5.790388 21.87531 2.321815 0
-5.840388 21.87531 2.421815 0
-5.740388 21.77531 2.371815 0
-5.740388 21.92531 2.271815 0
-5.740388 21.92531 2.371815 0
-5.840388 21.97531 1.671815 0
-5.840388 22.02531 1.721815 0
-5.790388 21.97531 1.721815 0
-5.790388 22.02531 1.721815 0
-5.840388 22.02531 1.821815 0
-5.790388 21.97531 1.771815 0
-5.790388 21.97531 1.821815 0
-5.790388 22.02531 1.771815 0
-5.840388 22.07531 1.671815 0
-5.790388 22.07531 1.721815 0
-5.790388 22.07531 1.771815 0
-5.790388 22.07531 1.821815 0
-5.790388 22.12531 1.771815 0
-5.790388 22.12531 1.821815 0
-5.740388 22.02531 1.721815 0
-5.740388 22.12531 1.721815 0
-5.740388 22.12531 1.821815 0
-5.840388 21.97531 1.871815 0
-5.840388 22.02531 1.871815 0
-5.790388 21.97531 1.921815 0
-5.840388 21.97531 1.971815 0
-5.790388 21.97531 2.021815 0
-5.840388 22.07531 1.871815 0
-5.840388 22.12531 1.871815 0
-5.790388 22.07531 1.921815 0
-5.790388 22.07531 2.021815 0
-5.790388 22.12531 2.021815 0
-5.740388 22.02531 1.971815 0
-5.740388 22.02531 2.021815 0
-5.740388 22.12531 1.971815 0
-5.790388 22.17531 1.671815 0
-5.790388 22.17531 1.721815 0
-5.790388 22.17531 1.821815 0
-5.790388 22.22531 1.771815 0
-5.790388 22.22531 1.821815 0
-5.840388 22.27531 1.671815 0
-5.840388 22.32531 1.721815 0
-5.790388 22.27531 1.671815 0
-5.790388 22.32531 1.721815 0
-5.790388 22.27531 1.821815 0
-5.790388 22.32531 1.821815 0
-5.740388 22.17531 1.721815 0
-5.740388 22.22531 1.721815 0
-5.740388 22.27531 1.721815 0
-5.840388 22.17531 1.921815 0
-5.840388 22.22531 1.871815 0
-5.790388 22.17531 1.921815 0
-5.790388 22.22531 1.921815 0
-5.790388 22.22531 2.021815 0
-5.840388 22.27531 1.921815 0
-5.790388 22.27531 1.921815 0
-5.790388 22.32531 2.021815 0
-5.740388 22.22531 1.971815 0
-5.740388 22.27531 1.921815 0
-5.740388 22.27531 1.971815 0
-5.740388 22.27531 2.021815 0
-5.840388 22.02531 2.121815 0
-5.790388 21.97531 2.071815 0
-5.840388 22.02531 2.171815 0
-5.840388 22.12531 2.121815 0
-5.790388 22.07531 2.071815 0
-5.790388 22.12531 2.071815 0
-5.740388 22.12531 2.221815 0
-5.790388 21.97531 2.321815 0
-5.840388 21.97531 2.421815 0
-5.790388 22.07531 2.321815 0
-5.740388 22.02531 2.271815 0
-5.740388 22.02531 2.371815 0
-5.740388 22.12531 2.321815 0
-5.840388 22.22531 2.121815 0
-5.790388 22.17531 2.071815 0
-5.790388 22.22531 2.071815 0
-5.840388 22.17531 2.221815 0
-5.840388 22.22531 2.221815 0
-5.790388 22.27531 2.071815 0
-5.790388 22.32531 2.071815 0
-5.840388 22.27531 2.221815 0
-5.840388 22.32531 2.171815 0
-5.790388 22.27531 2.171815 0
-5.740388 22.22531 2.071815 0
-5.740388 22.22531 2.221815 0
-5.740388 22.27531 2.221815 0
-5.790388 22.17531 2.271815 0
-5.790388 22.22531 2.271815 0
-5.790388 22.32531 2.271815 0
-5.740388 22.17531 2.271815 0
-5.740388 22.17531 2.321815 0
-5.740388 22.27531 2.321815 0
-5.890388 21.57531 2.821815 0
-5.840388 21.62531 2.471815 0
-5.790388 21.57531 2.671815 0
-5.840388 21.62531 2.821815 0
-5.790388 21.67531 2.721815 0
-5.740388 21.57531 2.771815 0
-5.740388 21.67531 2.771815 0
-5.840388 21.77531 2.471815 0
-5.840388 21.82531 2.521815 0
-5.790388 21.87531 2.621815 0
-5.840388 21.82531 2.821815 0
-5.790388 21.92531 2.721815 0
-5.740388 21.77531 2.721815 0
-5.740388 21.77531 2.771815 0
-5.740388 21.92531 2.721815 0
-5.790388 21.57531 3.171815 0
-5.740388 21.62531 3.171815 0
-5.740388 21.72531 3.221815 0
-5.840388 21.77531 2.871815 0
-5.790388 21.92531 3.121815 0
-5.740388 21.77531 3.171815 0
-5.740388 21.92531 3.121815 0
-5.740388 21.92531 3.171815 0
-5.840388 22.02531 2.471815 0
-5.840388 22.02531 2.521815 0
-5.740388 22.02531 2.671815 0
-5.740388 22.12531 2.671815 0
-5.740388 22.12531 2.721815 0
-5.840388 22.17531 2.521815 0
-5.840388 22.22531 2.571815 0
-5.790388 22.17531 2.571815 0
-5.840388 22.27531 2.521815 0
-5.840388 22.32531 2.571815 0
-5.740388 22.27531 2.621815 0
-5.740388 22.17531 2.671815 0
-5.740388 22.27531 2.671815 0
-5.840388 21.97531 2.921815 0
-5.840388 22.02531 2.871815 0
-5.840388 22.02531 2.921815 0
-5.740388 22.12531 3.071815 0
-5.840388 22.22531 2.921815 0
-5.840388 22.32531 2.971815 0
-5.740388 22.17531 3.121815 0
-5.740388 22.22531 3.071815 0
-5.740388 22.27531 3.071815 0
-5.790388 22.37531 0.1218147 0
-5.790388 22.37531 0.1718147 0
-5.790388 22.37531 0.2218147 0
-5.790388 22.47531 0.1718147 0
-5.790388 22.47531 0.2218147 0
-5.740388 22.37531 0.2218147 0
-5.740388 22.42531 0.2218147 0
-5.690388 22.42531 0.2218147 0
-5.740388 22.47531 0.2218147 0
-5.740388 22.52531 0.1718147 0
-5.740388 22.52531 0.2218147 0
-5.690388 22.47531 0.1718147 0
-5.690388 22.52531 0.2218147 0
-5.790388 22.37531 0.4218147 0
-5.790388 22.47531 0.4218147 0
-5.740388 22.37531 0.2718147 0
-5.740388 22.37531 0.4218147 0
-5.740388 22.42531 0.4218147 0
-5.740388 22.47531 0.2718147 0
-5.740388 22.47531 0.4218147 0
-5.740388 22.52531 0.4218147 0
-5.790388 22.57531 0.1218147 0
-5.740388 22.57531 0.1218147 0
-5.740388 22.57531 0.1718147 0
-5.740388 22.57531 0.2218147 0
-5.740388 22.62531 0.2218147 0
-5.690388 22.57531 0.2218147 0
-5.690388 22.62531 0.1718147 0
-5.740388 22.67531 0.1718147 0
-5.740388 22.67531 0.2218147 0
-5.740388 22.72531 0.2218147 0
-5.690388 22.67531 0.2218147 0
-5.790388 22.67531 0.4218147 0
-5.740388 22.57531 0.2718147 0
-5.740388 22.57531 0.4218147 0
-5.740388 22.62531 0.4218147 0
-5.740388 22.67531 0.4218147 0
-5.740388 22.72531 0.4218147 0
-5.890388 22.37531 0.8218147 0
-5.890388 22.42531 0.8218147 0
-5.890388 22.52531 0.8218147 0
-5.890388 22.57531 0.7718147 0
-5.890388 22.62531 0.8218147 0
-5.890388 22.72531 0.7718147 0
-5.790388 22.37531 0.4718147 0
-5.790388 22.42531 0.6218147 0
-5.740388 22.37531 0.4718147 0
-5.740388 22.42531 0.4718147 0
-5.690388 22.42531 0.4718147 0
-5.740388 22.37531 0.6218147 0
-5.690388 22.42531 0.5718147 0
-5.740388 22.47531 0.4718147 0
-5.740388 22.52531 0.4718147 0
-5.690388 22.47531 0.5218147 0
-5.690388 22.52531 0.4718147 0
-5.740388 22.47531 0.6218147 0
-5.740388 22.52531 0.6218147 0
-5.690388 22.52531 0.6218147 0
-5.790388 22.37531 0.6718147 0
-5.790388 22.47531 0.6718147 0
-5.740388 22.37531 0.7218148 0
-5.740388 22.42531 0.6718147 0
-5.740388 22.42531 0.7218148 0
-5.690388 22.42531 0.7218148 0
-5.740388 22.47531 0.6718147 0
-5.740388 22.47531 0.7218148 0
-5.740388 22.52531 0.6718147 0
-5.690388 22.52531 0.7218148 0
-5.690388 22.52531 0.7718147 0
-5.790388 22.57531 0.5218147 0
-5.790388 22.62531 0.4718147 0
-5.740388 22.57531 0.4718147 0
-5.740388 22.62531 0.4718147 0
-5.690388 22.57531 0.4718147 0
-5.690388 22.62531 0.5218147 0
-5.740388 22.57531 0.6218147 0
-5.740388 22.62531 0.6218147 0
-5.690388 22.62531 0.5718147 0
-5.740388 22.67531 0.4718147 0
-5.740388 22.72531 0.4718147 0
-5.690388 22.67531 0.4718147 0
-5.740388 22.72531 0.5718147 0
