# .PCD v0.7 - Point Cloud Data file format
VERSION 0.7
FIELDS x y z intensity
SIZE 4 4 4 4
TYPE F F F F
COUNT 1 1 1 1
WIDTH 1529
HEIGHT 1
VIEWPOINT 0 0 0 1 0 0 0
POINTS 1529
DATA ascii
142.2596 -56.12469 -0.02818528 0
142.4096 -56.02469 0.02181472 0
142.4096 -55.97469 -0.02818528 0
142.4596 -55.97469 0.02181472 0
142.4596 -55.92469 0.02181472 0
142.5096 -55.82469 -0.02818528 0
142.5596 -55.77469 0.02181472 0
142.6596 -55.67469 -0.02818528 0
142.6596 -55.67469 0.02181472 0
142.7096 -55.67469 0.02181472 0
142.7596 -55.57469 0.02181472 0
142.8096 -55.57469 -0.02818528 0
142.8096 -55.57469 0.02181472 0
142.8596 -55.47469 0.02181472 0
142.9596 -55.47469 0.02181472 0
142.9596 -55.42469 -0.02818528 0
142.9596 -55.37469 0.02181472 0
143.0596 -55.32469 0.02181472 0
143.3596 -55.27469 -0.1281853 0
143.0096 -55.17469 0.02181472 0
143.0596 -55.22469 -0.02818528 0
143.1096 -55.12469 0.02181472 0
143.1096 -55.02469 0.02181472 0
143.0596 -54.72469 0.02181472 0
143.1596 -54.87469 0.02181472 0
143.0096 -54.42469 0.02181472 0
143.0596 -54.37469 0.02181472 0
143.0096 -54.12469 0.02181472 0
143.0596 -54.07469 0.02181472 0
143.0096 -53.92469 -0.02818528 0
144.4596 -55.52469 0.02181472 0
144.6596 -55.57469 -0.07818528 0
144.7096 -55.57469 -0.02818528 0
144.8096 -55.52469 -0.1781853 0
145.1096 -55.57469 -0.1781853 0
141.2596 -68.37469 0.07181472 0
141.4596 -68.27469 0.07181472 0
141.6596 -68.17469 0.07181472 0
141.8096 -68.07469 0.07181472 0
141.2596 -66.52469 0.07181472 0
141.4096 -66.42469 0.07181472 0
141.6096 -66.27469 0.07181472 0
141.7596 -66.17469 0.07181472 0
141.9096 -66.02469 0.07181472 0
142.0096 -67.97469 0.07181472 0
142.0596 -65.87469 0.07181472 0
142.2596 -65.77469 0.07181472 0
142.4096 -65.62469 0.07181472 0
141.3096 -56.07469 1.821815 0
141.4596 -56.12469 1.921815 0
141.9096 -59.17469 4.521815 0
141.8096 -58.87469 4.471815 0
141.8596 -58.47469 4.471815 0
141.3596 -58.42469 4.371815 0
141.8096 -58.42469 4.471815 0
141.8096 -58.22469 4.471815 0
141.2596 -59.02469 5.071815 0
141.3096 -58.82469 5.121815 0
141.3596 -58.82469 5.071815 0
141.4096 -58.67469 5.071815 0
141.3596 -58.62469 5.071815 0
141.4096 -56.32469 4.821815 0
141.4096 -56.22469 4.571815 0
141.6096 -56.27469 4.571815 0
141.6096 -56.42469 4.821815 0
141.8596 -56.32469 4.621815 0
141.8596 -56.47469 4.871815 0
142.3096 -56.47469 4.671815 0
142.1096 -56.37469 4.371815 0
142.0596 -56.42469 4.621815 0
142.4096 -56.62469 4.471815 0
142.6096 -56.92469 5.021815 0
142.0596 -56.52469 4.871815 0
142.2596 -56.62469 4.921815 0
141.3096 -56.02469 1.821815 0
141.2596 -55.87469 1.971815 0
141.3096 -55.82469 2.021815 0
141.4596 -56.02469 1.821815 0
141.5096 -55.92469 1.821815 0
141.3596 -55.87469 1.971815 0
141.4096 -55.77469 2.021815 0
141.5096 -55.82469 1.971815 0
141.3096 -55.72469 2.071815 0
141.3596 -55.77469 2.071815 0
141.4096 -55.72469 2.071815 0
141.5096 -55.77469 2.071815 0
141.4596 -55.67469 2.071815 0
141.5096 -55.72469 2.071815 0
141.2596 -55.62469 2.271815 0
141.3096 -55.37469 2.221815 0
141.2596 -55.37469 2.271815 0
141.3096 -55.42469 2.271815 0
141.5096 -55.47469 2.221815 0
141.4596 -55.32469 2.221815 0
141.3596 -55.37469 2.271815 0
141.4096 -55.42469 2.321815 0
141.3596 -55.37469 2.421815 0
141.4596 -55.42469 2.321815 0
141.5096 -55.42469 2.321815 0
141.5596 -55.97469 1.821815 0
141.7096 -55.92469 1.821815 0
141.7096 -55.87469 1.821815 0
141.6096 -55.77469 1.971815 0
141.7096 -55.77469 1.971815 0
141.8596 -55.87469 1.871815 0
141.9096 -55.82469 1.821815 0
141.9096 -55.82469 1.871815 0
141.8596 -55.72469 2.021815 0
141.5596 -55.67469 2.121815 0
141.6096 -55.72469 2.071815 0
141.6596 -55.67469 2.071815 0
141.7096 -55.72469 2.071815 0
141.8096 -55.67469 2.071815 0
141.6596 -55.62469 2.121815 0
141.6596 -55.52469 2.221815 0
141.5596 -55.47469 2.321815 0
141.6596 -55.42469 2.221815 0
141.5596 -55.42469 2.321815 0
141.6096 -55.42469 2.321815 0
141.6096 -55.37469 2.371815 0
141.6596 -55.42469 2.321815 0
141.7096 -55.37469 2.321815 0
141.7096 -55.32469 2.371815 0
141.7596 -55.57469 2.121815 0
141.8096 -55.52469 2.121815 0
141.9096 -55.62469 2.071815 0
141.8096 -55.47469 2.271815 0
141.8096 -55.42469 2.221815 0
141.7596 -55.42469 2.321815 0
141.9096 -55.42469 2.271815 0
141.8596 -55.32469 2.371815 0
141.9096 -55.27469 2.421815 0
141.2596 -55.27469 2.571815 0
141.3596 -55.42469 2.571815 0
141.6096 -55.37469 2.921815 0
141.5096 -55.02469 2.271815 0
141.5096 -54.57469 1.671815 0
141.2596 -54.62469 2.421815 0
141.3096 -54.52469 2.321815 0
141.3096 -54.52469 2.421815 0
141.5096 -54.57469 2.321815 0
141.6596 -55.02469 2.271815 0
141.6596 -54.87469 2.271815 0
141.8096 -55.07469 2.321815 0
141.8096 -55.02469 2.271815 0
141.8596 -54.92469 2.321815 0
141.4596 -54.92469 2.571815 0
141.4096 -54.97469 2.971815 0
141.3596 -54.92469 3.021815 0
141.3096 -54.82469 2.521815 0
141.2596 -54.72469 2.471815 0
141.2596 -54.72469 2.521815 0
141.3096 -54.62469 2.471815 0
141.4596 -54.82469 2.571815 0
141.4096 -54.47469 2.571815 0
141.6596 -54.87469 2.571815 0
141.7096 -55.07469 3.021815 0
141.6596 -55.22469 3.071815 0
141.5596 -54.97469 3.021815 0
141.5596 -54.82469 2.571815 0
141.6096 -54.67469 2.571815 0
141.6596 -54.57469 2.521815 0
141.6596 -54.47469 2.571815 0
141.7596 -54.77469 2.571815 0
141.8096 -54.62469 2.571815 0
141.8596 -54.52469 2.571815 0
141.4096 -54.02469 1.421815 0
141.5096 -53.97469 1.521815 0
141.5596 -54.07469 1.421815 0
141.8096 -54.42469 1.571815 0
141.6596 -53.97469 1.521815 0
141.6596 -53.87469 1.621815 0
141.5596 -53.72469 1.521815 0
141.5596 -53.72469 1.621815 0
141.7596 -54.02469 1.521815 0
141.7596 -53.87469 1.621815 0
141.9096 -54.02469 1.571815 0
141.9096 -53.87469 1.621815 0
141.7596 -53.82469 1.571815 0
141.7596 -53.82469 1.621815 0
141.3096 -53.47469 1.621815 0
141.4596 -52.97469 1.621815 0
141.5596 -53.57469 1.621815 0
141.3096 -54.22469 1.671815 0
141.2596 -54.07469 1.671815 0
141.4096 -54.42469 1.671815 0
141.3596 -54.32469 1.671815 0
141.4596 -54.32469 1.771815 0
141.5096 -54.32469 1.821815 0
141.3596 -54.07469 1.821815 0
141.4096 -54.22469 1.871815 0
141.4096 -54.17469 1.871815 0
141.3096 -54.42469 2.371815 0
141.3596 -54.42469 2.421815 0
141.4096 -54.37469 2.421815 0
141.4096 -54.27469 2.371815 0
141.4596 -54.07469 2.121815 0
141.4596 -54.17469 2.371815 0
141.4596 -54.12469 2.421815 0
141.3096 -53.97469 1.771815 0
141.2596 -53.92469 1.821815 0
141.3096 -53.92469 1.871815 0
141.2596 -53.82469 2.021815 0
141.3096 -53.77469 2.021815 0
141.3096 -53.67469 1.971815 0
141.3596 -53.72469 1.871815 0
141.4596 -53.72469 1.971815 0
141.3596 -53.92469 2.071815 0
141.4596 -54.02469 2.071815 0
141.5596 -54.42469 1.871815 0
141.5596 -54.42469 1.921815 0
141.6596 -54.42469 2.271815 0
141.6596 -54.37469 2.321815 0
141.7096 -54.32469 2.271815 0
141.5596 -54.22469 2.171815 0
141.6096 -54.17469 2.421815 0
141.7096 -54.17469 2.421815 0
141.7096 -54.12469 2.271815 0
141.7596 -54.27469 2.271815 0
141.8096 -54.17469 2.371815 0
141.7596 -54.07469 2.271815 0
141.6596 -53.77469 1.721815 0
141.7096 -53.72469 1.771815 0
141.8596 -53.92469 1.821815 0
141.8096 -53.77469 1.721815 0
141.8596 -53.72469 1.821815 0
141.7096 -53.97469 2.271815 0
141.7096 -53.77469 2.271815 0
141.7596 -53.87469 2.271815 0
141.9096 -53.87469 2.421815 0
141.7596 -53.72469 2.271815 0
141.9096 -53.77469 2.421815 0
141.8596 -53.72469 2.371815 0
141.2596 -54.32469 2.621815 0
141.4596 -54.32469 2.621815 0
141.2596 -54.27469 2.921815 0
141.3096 -53.87469 2.721815 0
141.4596 -53.87469 2.571815 0
141.4096 -53.87469 2.721815 0
141.5096 -53.87469 2.721815 0
141.3596 -53.77469 2.721815 0
141.3596 -53.77469 2.771815 0
141.4596 -53.77469 2.771815 0
141.5096 -53.77469 2.771815 0
141.6096 -54.12469 2.471815 0
141.7096 -54.17469 2.471815 0
141.6596 -54.07469 2.471815 0
141.8096 -54.12469 2.471815 0
141.8596 -54.17469 2.471815 0
141.9096 -54.12469 2.471815 0
141.6096 -53.87469 2.571815 0
141.6596 -53.87469 2.771815 0
141.6096 -53.77469 2.771815 0
141.6596 -53.77469 2.771815 0
141.8096 -53.92469 2.621815 0
141.9096 -53.87469 2.471815 0
141.8096 -53.87469 2.771815 0
141.7596 -53.77469 2.821815 0
141.8096 -53.82469 2.771815 0
141.9096 -53.82469 2.821815 0
141.8596 -53.67469 2.771815 0
141.3096 -53.62469 1.971815 0
141.3096 -53.57469 1.971815 0
141.3096 -53.47469 1.971815 0
141.2596 -53.32469 1.721815 0
141.2596 -53.37469 1.971815 0
141.3096 -53.32469 1.921815 0
141.4096 -53.57469 1.821815 0
141.4596 -53.62469 1.671815 0
141.3596 -53.52469 1.871815 0
141.3596 -53.47469 1.971815 0
141.4596 -53.52469 1.971815 0
141.4096 -53.27469 1.771815 0
141.3596 -53.27469 1.921815 0
141.5096 -53.37469 1.871815 0
141.4596 -53.27469 1.921815 0
141.2596 -53.22469 1.921815 0
141.2596 -53.12469 1.921815 0
141.3096 -53.12469 1.921815 0
141.3096 -52.97469 1.921815 0
141.3596 -53.12469 1.821815 0
141.4596 -53.12469 1.771815 0
141.3596 -53.22469 1.921815 0
141.3596 -53.17469 1.921815 0
141.5096 -53.22469 1.971815 0
141.4596 -53.12469 1.971815 0
141.5096 -52.87469 1.671815 0
141.8096 -53.52469 1.821815 0
141.7596 -53.42469 2.021815 0
141.7096 -53.57469 2.271815 0
141.7096 -53.42469 2.271815 0
141.6596 -53.32469 2.271815 0
141.7596 -53.52469 2.271815 0
141.7596 -53.52469 2.321815 0
141.8096 -53.47469 2.371815 0
141.8596 -53.57469 2.271815 0
141.5596 -53.17469 1.971815 0
141.6596 -53.22469 1.921815 0
141.8596 -53.22469 2.021815 0
141.9096 -52.87469 1.971815 0
141.6096 -53.17469 2.221815 0
141.5596 -53.02469 2.221815 0
141.4096 -53.57469 2.821815 0
141.3096 -53.47469 3.021815 0
141.3096 -53.52469 3.071815 0
141.3096 -53.32469 3.071815 0
141.4596 -53.47469 3.021815 0
141.4596 -53.47469 3.121815 0
141.3596 -53.42469 3.121815 0
141.5096 -53.42469 3.121815 0
141.6096 -53.62469 2.821815 0
141.7096 -53.62469 2.721815 0
141.7596 -53.62469 2.821815 0
141.8596 -53.47469 2.771815 0
141.5596 -53.52469 3.121815 0
141.6596 -53.47469 3.071815 0
141.6596 -53.47469 3.171815 0
141.7096 -53.52469 3.171815 0
141.5596 -53.32469 3.071815 0
141.8096 -53.52469 3.071815 0
141.8096 -53.47469 3.171815 0
141.8596 -53.47469 3.171815 0
141.7596 -53.32469 3.071815 0
141.4596 -55.42469 3.971815 0
141.4096 -55.47469 4.071815 0
141.3096 -55.02469 3.471815 0
141.4596 -55.12469 3.671815 0
141.8596 -54.52469 4.671815 0
141.5096 -53.07469 3.371815 0
141.3596 -52.92469 3.271815 0
141.5596 -52.97469 3.271815 0
141.7596 -52.97469 3.321815 0
141.7596 -53.02469 3.421815 0
141.9096 -53.02469 3.471815 0
141.9096 -52.87469 3.471815 0
141.3096 -52.52469 1.571815 0
141.4596 -52.82469 1.621815 0
141.3596 -52.47469 1.521815 0
141.4096 -52.47469 1.571815 0
141.5096 -52.62469 1.621815 0
141.4096 -52.42469 1.521815 0
141.5096 -52.37469 1.521815 0
141.5096 -52.42469 1.571815 0
141.7596 -52.57469 1.571815 0
141.5596 -52.37469 1.621815 0
141.6096 -52.32469 1.521815 0
141.6596 -52.32469 1.621815 0
141.7096 -52.32469 1.621815 0
141.8096 -52.27469 1.621815 0
141.8596 -52.32469 1.571815 0
141.7596 -52.22469 1.571815 0
141.8096 -52.22469 1.571815 0
141.9096 -52.22469 1.621815 0
141.9096 -51.92469 1.521815 0
141.3096 -52.52469 1.671815 0
141.5096 -52.72469 1.671815 0
141.3596 -52.62469 1.671815 0
141.3096 -52.42469 1.671815 0
141.4096 -52.42469 1.671815 0
141.5096 -52.37469 1.671815 0
141.7096 -52.77469 1.771815 0
141.7096 -52.57469 1.671815 0
141.9096 -52.72469 1.971815 0
141.7596 -52.52469 1.671815 0
141.8596 -52.62469 1.921815 0
141.8596 -52.57469 1.921815 0
141.9096 -52.57469 2.021815 0
141.8596 -52.52469 1.871815 0
141.9096 -52.52469 1.921815 0
141.9096 -52.47469 2.021815 0
141.5596 -52.32469 1.721815 0
141.7096 -52.42469 1.721815 0
141.6596 -52.27469 1.721815 0
141.8096 -52.37469 1.721815 0
141.7596 -52.27469 1.721815 0
141.9096 -52.32469 1.721815 0
141.8596 -52.22469 1.771815 0
141.3096 -52.77469 3.421815 0
141.3596 -52.77469 3.421815 0
141.5096 -52.82469 3.421815 0
141.4596 -52.82469 3.471815 0
141.7096 -52.82469 3.421815 0
141.6096 -52.77469 3.471815 0
141.7596 -52.82469 3.471815 0
141.8596 -52.82469 3.471815 0
141.9096 -52.82469 3.521815 0
142.2596 -55.97469 0.07181472 0
142.3096 -55.97469 0.07181472 0
142.3096 -55.82469 0.1718147 0
142.3596 -55.87469 0.07181472 0
142.4096 -55.77469 0.07181472 0
142.3596 -55.77469 0.1718147 0
142.4096 -55.67469 0.1718147 0
142.5096 -55.72469 0.07181472 0
142.5096 -55.67469 0.07181472 0
142.5096 -55.57469 0.1718147 0
142.5596 -55.62469 0.07181472 0
142.6096 -55.62469 0.07181472 0
142.6096 -55.52469 0.1718147 0
142.6596 -55.57469 0.07181472 0
142.7096 -55.52469 0.07181472 0
142.7096 -55.42469 0.1718147 0
143.0596 -55.72469 0.5218147 0
142.8096 -55.47469 0.07181472 0
142.8096 -55.42469 0.07181472 0
142.8096 -55.32469 0.1718147 0
142.8596 -55.37469 0.07181472 0
142.8596 -55.32469 0.07181472 0
142.9096 -55.42469 0.4218147 0
142.9596 -55.27469 0.4218147 0
142.8596 -55.37469 0.4718147 0
142.9096 -55.42469 0.4718147 0
143.0096 -55.57469 0.4718147 0
142.9596 -55.47469 0.5218147 0
142.9596 -55.27469 0.4718147 0
143.0096 -55.27469 0.5218147 0
143.0596 -55.27469 0.5218147 0
143.1096 -55.32469 0.4718147 0
142.9596 -55.42469 0.7718147 0
143.0096 -55.37469 0.7718147 0
142.9596 -55.27469 0.7718147 0
143.1596 -55.62469 0.7718147 0
143.2096 -55.27469 0.5218147 0
143.0096 -55.72469 1.171815 0
143.1096 -55.72469 1.171815 0
143.0096 -55.47469 1.121815 0
143.0096 -55.47469 1.171815 0
143.0596 -55.47469 1.071815 0
143.0096 -55.32469 0.8718147 0
143.0096 -55.37469 1.121815 0
142.9596 -55.32469 1.071815 0
143.0096 -55.32469 1.221815 0
143.1096 -55.32469 1.171815 0
143.0096 -55.52469 1.271815 0
143.0096 -55.47469 1.471815 0
142.9596 -55.42469 1.371815 0
142.9596 -55.32469 1.371815 0
143.0096 -55.32469 1.471815 0
142.9596 -55.27469 1.621815 0
143.1596 -55.42469 0.9218147 0
143.2596 -55.32469 1.071815 0
143.1596 -55.42469 1.421815 0
143.2596 -55.32469 1.571815 0
142.8096 -55.22469 0.1718147 0
142.9096 -55.22469 0.07181472 0
142.8596 -55.12469 0.1718147 0
142.9096 -55.02469 0.1718147 0
142.9096 -54.92469 0.1718147 0
142.9596 -55.12469 0.07181472 0
142.9596 -55.07469 0.07181472 0
143.0096 -55.17469 0.4218147 0
143.1096 -55.07469 0.4218147 0
142.9596 -55.02469 0.07181472 0
142.9096 -55.22469 0.4718147 0
142.9096 -55.07469 0.4718147 0
143.0096 -55.12469 0.4718147 0
143.1096 -55.07469 0.4718147 0
142.9596 -55.17469 0.7718147 0
143.0096 -55.07469 0.7718147 0
143.0596 -55.22469 0.7718147 0
143.1096 -55.12469 0.7718147 0
143.0096 -54.97469 0.4718147 0
143.1096 -54.92469 0.4718147 0
143.1096 -55.02469 0.7718147 0
142.9096 -54.82469 0.07181472 0
142.9096 -54.82469 0.1218147 0
142.8596 -54.82469 0.1718147 0
142.9096 -54.67469 0.1218147 0
142.8596 -54.67469 0.1718147 0
142.8096 -54.47469 0.1718147 0
142.8596 -54.57469 0.07181472 0
142.8596 -54.57469 0.1718147 0
142.8596 -54.52469 0.1218147 0
143.2596 -54.97469 0.4218147 0
143.4096 -54.97469 0.4218147 0
143.1596 -55.12469 0.4718147 0
143.2096 -55.12469 0.5218147 0
143.2096 -55.07469 0.5218147 0
143.3096 -55.17469 0.5218147 0
143.1596 -55.12469 0.8218147 0
143.2096 -55.07469 0.7718147 0
143.2096 -55.02469 0.4718147 0
143.2096 -54.92469 0.4718147 0
143.2596 -55.02469 0.4718147 0
143.2596 -55.02469 0.5218147 0
143.3096 -54.92469 0.5218147 0
143.2596 -55.02469 0.8218147 0
143.2596 -54.97469 0.7718147 0
143.3096 -55.02469 0.7718147 0
143.5096 -55.07469 0.7718147 0
143.3596 -55.02469 0.4718147 0
143.3596 -54.92469 0.4718147 0
143.3596 -54.92469 0.5218147 0
143.4096 -54.92469 0.4718147 0
143.5096 -55.02469 0.5218147 0
143.5096 -54.92469 0.4718147 0
143.5096 -54.87469 0.5218147 0
143.0596 -55.17469 0.8718147 0
143.0096 -55.22469 1.071815 0
143.0096 -55.12469 1.071815 0
143.0596 -55.22469 1.121815 0
143.0596 -55.22469 1.221815 0
143.1096 -55.07469 1.071815 0
143.1096 -55.07469 1.221815 0
143.1096 -54.97469 1.071815 0
142.9096 -55.07469 1.621815 0
142.9096 -54.92469 1.621815 0
142.9596 -55.17469 1.371815 0
143.0096 -55.12469 1.371815 0
143.0096 -55.07469 1.471815 0
142.9596 -55.07469 1.621815 0
143.0596 -55.22469 1.471815 0
143.0096 -55.02469 1.371815 0
143.1096 -54.92469 1.371815 0
143.0096 -54.97469 1.621815 0
143.0096 -54.87469 1.621815 0
143.1096 -54.97469 1.471815 0
143.1096 -54.92469 1.621815 0
143.0596 -54.82469 1.621815 0
143.2096 -55.17469 0.9218147 0
143.3096 -55.07469 0.9218147 0
143.3096 -55.12469 1.021815 0
143.1596 -55.17469 1.121815 0
143.2096 -55.12469 1.121815 0
143.2596 -55.17469 1.171815 0
143.3096 -55.17469 1.171815 0
143.1596 -55.02469 1.121815 0
143.2096 -55.02469 1.221815 0
143.3096 -55.02469 1.121815 0
143.3096 -54.97469 1.071815 0
143.3096 -54.92469 1.121815 0
143.4096 -55.07469 0.8718147 0
143.5096 -55.07469 1.171815 0
143.4096 -54.97469 0.9218147 0
143.4096 -54.97469 1.021815 0
143.4096 -54.97469 1.121815 0
143.3596 -54.97469 1.221815 0
143.4096 -54.92469 1.071815 0
143.5096 -54.92469 1.121815 0
143.2096 -55.22469 1.371815 0
143.2096 -54.97469 1.371815 0
143.2096 -54.92469 1.371815 0
143.2096 -54.97469 1.521815 0
143.2096 -54.92469 1.471815 0
143.3096 -54.87469 1.471815 0
143.2596 -54.87469 1.621815 0
143.3596 -54.92469 1.371815 0
143.4596 -54.87469 1.371815 0
143.3596 -54.87469 1.521815 0
143.4096 -54.87469 1.621815 0
143.5096 -54.92469 1.471815 0
143.3096 -54.82469 1.371815 0
143.4596 -54.77469 1.521815 0
142.0096 -55.87469 1.871815 0
142.1096 -55.82469 1.821815 0
141.9596 -55.72469 2.021815 0
142.1096 -55.82469 1.871815 0
142.1096 -55.67469 1.921815 0
142.1096 -55.72469 2.021815 0
142.2596 -55.72469 1.771815 0
142.2596 -55.67469 1.921815 0
142.2596 -55.72469 2.021815 0
142.1096 -55.77469 2.121815 0
142.1596 -55.67469 2.221815 0
142.2596 -55.72469 2.121815 0
142.2596 -55.72469 2.321815 0
142.2596 -55.57469 1.921815 0
141.9596 -55.62469 2.071815 0
142.0096 -55.37469 2.221815 0
142.0096 -55.27469 2.421815 0
142.1596 -55.57469 2.071815 0
142.2096 -55.62469 2.221815 0
142.2596 -55.57469 2.221815 0
142.2596 -55.47469 2.271815 0
142.3596 -55.72469 1.821815 0
142.5596 -55.77469 1.771815 0
142.6596 -55.77469 1.771815 0
142.4596 -55.57469 1.821815 0
142.4096 -55.57469 1.921815 0
142.5096 -55.52469 1.921815 0
142.3596 -55.62469 2.121815 0
142.3596 -55.52469 2.221815 0
142.5096 -55.52469 2.121815 0
142.4096 -55.42469 2.221815 0
142.5096 -55.37469 2.221815 0
141.9596 -55.07469 2.321815 0
142.1096 -55.12469 2.371815 0
141.9596 -55.02469 2.271815 0
142.0596 -55.02469 2.321815 0
142.1096 -55.02469 2.371815 0
142.2596 -55.12469 2.371815 0
142.4096 -55.17469 2.421815 0
142.0596 -54.92469 2.621815 0
142.2096 -55.07469 2.621815 0
142.3096 -54.87469 2.621815 0
142.2596 -54.62469 2.621815 0
142.3596 -55.07469 2.471815 0
142.5096 -55.07469 2.471815 0
142.6596 -55.07469 2.521815 0
143.0096 -55.67469 1.721815 0
143.0096 -55.72469 1.821815 0
143.0596 -55.82469 1.671815 0
143.0096 -55.77469 2.021815 0
142.9596 -55.52469 1.671815 0
142.9596 -55.47469 1.671815 0
142.9596 -55.47469 1.821815 0
143.0096 -55.47469 1.821815 0
142.9596 -55.62469 2.021815 0
142.9596 -55.52469 2.021815 0
143.0596 -55.47469 2.021815 0
142.9596 -55.42469 1.671815 0
142.9596 -55.27469 1.671815 0
143.0096 -55.27469 1.821815 0
142.9596 -55.52469 2.321815 0
142.9596 -55.17469 1.671815 0
143.1096 -54.82469 1.771815 0
143.1596 -55.02469 1.671815 0
143.1596 -54.77469 1.671815 0
143.2096 -54.77469 1.771815 0
143.2596 -54.77469 1.671815 0
143.2596 -54.77469 1.821815 0
143.2596 -54.72469 1.671815 0
143.2596 -54.72469 1.771815 0
143.4096 -54.67469 1.671815 0
143.3596 -54.67469 1.821815 0
143.5096 -54.67469 1.821815 0
143.4596 -54.62469 1.771815 0
141.9596 -53.87469 1.571815 0
142.0596 -54.02469 1.571815 0
142.0596 -53.87469 1.621815 0
142.1096 -53.87469 1.571815 0
142.8596 -54.42469 0.07181472 0
142.8596 -54.37469 0.1218147 0
142.8596 -54.37469 0.1718147 0
142.9096 -54.32469 0.1718147 0
142.8596 -54.22469 0.07181472 0
142.9596 -54.32469 0.1218147 0
143.0596 -53.97469 0.07181472 0
141.9596 -54.12469 2.321815 0
142.1596 -54.12469 2.321815 0
141.9596 -53.87469 1.671815 0
142.1096 -53.87469 1.721815 0
141.9596 -53.82469 1.771815 0
142.0096 -53.72469 1.821815 0
142.1096 -53.82469 1.771815 0
142.1096 -53.72469 1.821815 0
142.2096 -53.87469 1.671815 0
142.3096 -53.87469 1.721815 0
142.2596 -53.82469 1.771815 0
142.3096 -53.77469 1.871815 0
142.3596 -53.92469 1.671815 0
142.4096 -53.87469 1.821815 0
142.4596 -53.87469 1.771815 0
142.4096 -53.77469 1.871815 0
142.5596 -53.92469 1.671815 0
142.5596 -53.77469 1.921815 0
141.9596 -54.17469 2.471815 0
141.9596 -54.17469 2.521815 0
142.1096 -54.17469 2.521815 0
142.0596 -54.12469 2.471815 0
142.2096 -54.17469 2.621815 0
142.2096 -54.12469 2.521815 0
141.9596 -53.92469 2.621815 0
142.1096 -53.87469 2.521815 0
141.9596 -53.82469 2.771815 0
142.0096 -53.67469 2.771815 0
142.1596 -53.92469 2.621815 0
142.3096 -53.87469 2.521815 0
142.1596 -53.72469 2.771815 0
142.3096 -53.72469 2.821815 0
141.9596 -53.67469 3.221815 0
142.3096 -53.92469 2.921815 0
142.5096 -54.12469 2.521815 0
142.3596 -53.92469 2.621815 0
142.5096 -53.97469 2.671815 0
142.3596 -53.67469 2.821815 0
142.5596 -53.87469 2.521815 0
142.7096 -53.97469 2.671815 0
142.5596 -53.72469 2.821815 0
142.4596 -53.87469 2.971815 0
142.4596 -53.77469 2.871815 0
142.5096 -53.77469 2.971815 0
142.5596 -53.72469 2.971815 0
142.0096 -53.62469 1.871815 0
141.9596 -53.47469 1.971815 0
142.1096 -53.62469 1.921815 0
142.1096 -53.52469 2.021815 0
142.1096 -53.37469 2.021815 0
142.0596 -53.27469 2.021815 0
142.2596 -53.62469 1.971815 0
142.2596 -53.32469 2.021815 0
141.9596 -53.47469 2.071815 0
142.0596 -53.47469 2.071815 0
142.1096 -53.47469 2.071815 0
142.0596 -53.57469 2.421815 0
142.1096 -53.27469 2.071815 0
142.3096 -53.62469 2.321815 0
142.1596 -53.42469 2.121815 0
142.1596 -53.42469 2.371815 0
142.1596 -53.37469 2.371815 0
142.2596 -53.37469 2.421815 0
142.3096 -53.32469 2.371815 0
142.1096 -53.22469 1.771815 0
142.0096 -53.07469 1.971815 0
142.0596 -53.22469 1.971815 0
142.0596 -53.12469 2.021815 0
142.0096 -52.97469 2.021815 0
141.9596 -52.87469 1.921815 0
141.9596 -52.87469 1.971815 0
142.0596 -53.02469 2.121815 0
142.0596 -52.92469 2.071815 0
142.2096 -53.07469 2.221815 0
142.4596 -53.62469 2.021815 0
142.6596 -53.62469 2.021815 0
142.5096 -53.52469 2.271815 0
142.4096 -53.42469 2.421815 0
142.4096 -53.37469 2.421815 0
142.4596 -53.37469 2.421815 0
142.6096 -53.37469 2.421815 0
142.6096 -53.32469 2.371815 0
142.5096 -53.07469 2.221815 0
142.4596 -53.17469 2.321815 0
142.5096 -53.12469 2.321815 0
142.3596 -52.97469 2.321815 0
142.4096 -52.97469 2.371815 0
142.4096 -52.92469 2.321815 0
142.4096 -52.87469 2.321815 0
142.4596 -52.87469 2.371815 0
142.6096 -53.22469 2.271815 0
142.5596 -53.12469 2.421815 0
142.6096 -52.97469 2.271815 0
142.6096 -52.97469 2.371815 0
142.6096 -52.92469 2.421815 0
141.9596 -53.62469 2.821815 0
142.0096 -53.57469 2.771815 0
142.0096 -53.52469 2.771815 0
142.1596 -53.62469 2.771815 0
142.1596 -53.57469 2.821815 0
142.3096 -53.57469 2.821815 0
142.3096 -53.42469 2.771815 0
141.9596 -53.47469 3.071815 0
141.9596 -53.47469 3.171815 0
142.0096 -53.52469 3.171815 0
142.1096 -53.52469 3.221815 0
142.1096 -53.47469 3.221815 0
141.9596 -53.37469 3.071815 0
142.1596 -53.62469 2.871815 0
142.1596 -53.52469 3.071815 0
142.2596 -53.47469 3.221815 0
142.1596 -53.37469 3.121815 0
142.3096 -53.37469 3.221815 0
142.1596 -53.12469 2.771815 0
142.3096 -52.97469 2.771815 0
142.4596 -53.32469 2.821815 0
142.5096 -53.32469 2.771815 0
142.5596 -53.52469 2.821815 0
142.6096 -53.47469 2.821815 0
142.7096 -53.47469 2.821815 0
142.5596 -53.42469 2.471815 0
142.5596 -53.37469 2.471815 0
142.6596 -53.37469 2.471815 0
142.7096 -53.42469 2.471815 0
142.6596 -53.32469 2.821815 0
142.7096 -53.27469 2.821815 0
142.4596 -53.62469 2.871815 0
142.5096 -53.52469 2.971815 0
142.3596 -53.52469 3.121815 0
142.4596 -53.47469 3.121815 0
142.3596 -53.37469 3.121815 0
142.3596 -53.37469 3.221815 0
142.4096 -53.27469 3.171815 0
142.4596 -53.27469 3.221815 0
142.6096 -53.57469 2.971815 0
142.6596 -53.47469 2.871815 0
142.6596 -53.42469 2.971815 0
142.7096 -53.37469 2.971815 0
142.6096 -53.37469 3.121815 0
142.4096 -52.92469 2.471815 0
142.5596 -52.97469 2.521815 0
142.4596 -53.07469 3.021815 0
142.4096 -53.07469 3.121815 0
142.4596 -53.02469 3.171815 0
142.5596 -53.07469 3.171815 0
142.7096 -53.22469 3.071815 0
142.6596 -53.07469 3.171815 0
142.6096 -52.97469 3.171815 0
142.7096 -52.92469 3.171815 0
142.7096 -52.87469 3.171815 0
142.7596 -53.77469 1.921815 0
142.7596 -53.92469 2.521815 0
142.8596 -53.62469 2.071815 0
142.8596 -52.97469 2.221815 0
142.8096 -52.92469 2.421815 0
142.9096 -53.02469 2.421815 0
143.0096 -53.12469 2.421815 0
142.9596 -52.92469 2.421815 0
143.0596 -52.97469 2.421815 0
143.1096 -52.87469 2.421815 0
143.2096 -52.92469 2.321815 0
143.4096 -53.07469 2.171815 0
143.3596 -52.87469 2.221815 0
143.5096 -53.02469 2.171815 0
143.5096 -52.87469 2.171815 0
143.3596 -52.92469 2.321815 0
142.8096 -53.37469 2.521815 0
142.7596 -53.27469 3.121815 0
142.8096 -53.12469 2.471815 0
142.7596 -52.97469 2.521815 0
142.7596 -53.22469 2.971815 0
142.8096 -53.22469 3.021815 0
142.8596 -53.07469 3.021815 0
142.8096 -53.07469 3.071815 0
142.8596 -53.02469 3.021815 0
142.9096 -52.92469 3.021815 0
142.9096 -52.87469 3.021815 0
142.8596 -52.92469 3.071815 0
142.9596 -52.87469 3.021815 0
143.0596 -52.92469 3.071815 0
143.3596 -53.17469 2.821815 0
143.4596 -53.02469 2.821815 0
143.3096 -52.87469 3.221815 0
143.5596 -55.07469 0.4718147 0
143.6596 -54.87469 0.5218147 0
143.7096 -54.92469 0.5218147 0
143.8596 -54.87469 0.5218147 0
143.5596 -54.97469 0.9218147 0
143.5596 -54.92469 1.021815 0
143.7096 -54.92469 1.121815 0
143.6596 -54.87469 1.171815 0
143.8096 -55.02469 1.021815 0
143.6096 -55.07469 1.271815 0
143.7096 -54.92469 1.371815 0
143.8096 -54.77469 1.171815 0
143.6596 -54.77469 1.521815 0
143.6096 -54.67469 1.671815 0
143.5596 -54.52469 1.821815 0
143.9096 -54.52469 2.071815 0
145.1096 -55.27469 1.971815 0
143.8596 -54.37469 1.821815 0
143.9596 -54.32469 2.021815 0
143.9596 -54.22469 2.021815 0
143.9596 -54.12469 2.021815 0
143.9596 -54.42469 2.071815 0
144.2096 -54.12469 2.421815 0
143.9596 -54.02469 2.021815 0
144.2096 -54.02469 2.421815 0
144.2096 -53.92469 2.371815 0
143.5596 -53.47469 1.921815 0
143.6096 -53.32469 1.921815 0
143.6096 -53.17469 1.921815 0
143.6596 -53.12469 1.921815 0
143.6596 -53.02469 1.871815 0
143.6596 -52.92469 1.871815 0
143.6096 -52.92469 2.221815 0
143.6596 -52.97469 2.071815 0
143.6596 -53.32469 3.171815 0
143.8596 -53.32469 3.171815 0
143.5596 -52.87469 2.821815 0
143.7596 -52.87469 3.121815 0
144.2096 -53.32469 2.671815 0
143.9596 -53.27469 3.021815 0
144.0596 -53.42469 2.921815 0
144.2096 -53.37469 2.921815 0
144.2596 -53.07469 2.621815 0
144.3096 -52.87469 2.621815 0
144.0096 -53.12469 2.971815 0
144.1096 -53.22469 2.921815 0
143.9596 -53.07469 3.121815 0
144.0096 -52.97469 2.971815 0
143.9596 -52.87469 3.121815 0
144.1596 -53.07469 2.871815 0
144.3096 -53.07469 2.871815 0
144.2096 -53.12469 3.171815 0
144.2096 -52.87469 2.871815 0
144.7096 -53.17469 2.521815 0
142.0096 -54.72469 4.821815 0
142.1096 -54.62469 4.821815 0
143.2596 -54.52469 3.771815 0
142.2096 -54.62469 4.871815 0
142.3596 -54.52469 4.871815 0
142.4096 -54.47469 4.921815 0
141.9596 -54.32469 4.321815 0
142.2096 -54.32469 4.221815 0
142.1596 -54.32469 4.371815 0
142.0096 -54.37469 4.671815 0
142.2096 -54.17469 4.621815 0
142.1596 -54.17469 4.721815 0
142.4596 -54.37469 4.221815 0
142.3596 -54.32469 4.371815 0
142.5096 -54.32469 4.421815 0
142.5596 -54.22469 4.221815 0
142.4096 -54.12469 4.621815 0
142.5596 -54.02469 4.321815 0
142.3596 -54.02469 4.721815 0
142.6096 -54.02469 4.621815 0
142.5596 -53.67469 4.721815 0
142.1596 -53.52469 3.271815 0
142.2096 -53.32469 3.271815 0
141.9596 -53.02469 3.321815 0
142.0596 -52.87469 3.471815 0
142.1596 -53.07469 3.321815 0
142.3096 -53.12469 3.271815 0
142.3096 -53.02469 3.371815 0
142.4096 -52.97469 3.271815 0
142.4596 -52.87469 3.321815 0
143.0096 -54.27469 3.721815 0
143.3596 -54.17469 3.771815 0
143.1596 -53.92469 3.721815 0
143.1596 -53.87469 3.721815 0
142.7596 -54.12469 4.221815 0
142.7596 -54.17469 4.321815 0
142.9096 -54.07469 4.321815 0
143.0096 -54.07469 4.371815 0
143.0096 -53.87469 4.321815 0
143.0596 -53.87469 4.371815 0
143.1096 -53.72469 4.371815 0
142.8096 -53.92469 4.621815 0
142.9596 -53.87469 4.571815 0
143.3096 -53.97469 4.221815 0
143.1596 -53.82469 4.321815 0
143.1596 -53.72469 4.371815 0
143.4596 -53.87469 4.221815 0
143.1596 -53.77469 4.571815 0
143.3596 -53.67469 4.571815 0
143.4096 -52.97469 3.271815 0
143.4596 -52.87469 3.271815 0
142.7596 -53.57469 4.721815 0
142.9096 -53.52469 4.721815 0
143.0596 -53.42469 4.721815 0
143.1596 -53.52469 4.371815 0
143.2596 -53.57469 4.271815 0
143.3596 -53.47469 4.271815 0
143.2096 -53.37469 4.721815 0
143.5096 -53.57469 4.571815 0
143.4096 -53.27469 4.721815 0
143.4096 -53.17469 4.221815 0
142.2596 -54.42469 4.871815 0
142.4596 -54.37469 4.871815 0
142.4596 -54.12469 4.871815 0
142.5596 -54.37469 4.921815 0
142.6096 -54.32469 4.871815 0
142.6596 -54.37469 4.971815 0
142.8596 -54.22469 5.021815 0
142.9596 -54.07469 5.021815 0
143.0096 -54.07469 5.021815 0
143.0096 -53.87469 5.021815 0
143.0596 -53.87469 5.021815 0
143.1096 -53.72469 5.021815 0
143.1596 -53.67469 5.271815 0
142.9096 -53.57469 5.221815 0
143.3096 -53.47469 5.221815 0
143.4596 -53.42469 5.221815 0
143.5596 -53.72469 4.171815 0
143.6096 -53.52469 3.871815 0
143.8596 -53.27469 3.821815 0
143.5596 -52.97469 3.271815 0
143.6096 -52.87469 3.271815 0
143.6596 -52.87469 3.271815 0
143.8596 -52.92469 3.321815 0
143.6596 -53.47469 4.121815 0
143.8096 -53.57469 4.371815 0
143.6096 -53.27469 4.521815 0
143.6096 -53.27469 4.721815 0
143.8596 -53.42469 4.771815 0
143.8096 -52.87469 4.471815 0
143.9596 -53.62469 4.221815 0
143.9596 -53.57469 4.621815 0
144.1096 -53.52469 4.821815 0
143.7596 -53.57469 5.321815 0
143.9596 -53.52469 5.321815 0
144.1596 -53.52469 5.321815 0
144.3596 -53.57469 4.871815 0
144.5096 -53.47469 4.871815 0
144.3596 -53.42469 5.321815 0
144.5096 -53.22469 5.271815 0
142.0096 -52.27469 1.571815 0
141.9596 -52.17469 1.621815 0
141.9596 -52.12469 1.571815 0
142.0596 -52.07469 1.571815 0
142.1596 -52.17469 1.571815 0
142.3096 -52.07469 1.521815 0
142.0596 -51.92469 1.521815 0
142.1596 -52.02469 1.571815 0
142.2096 -51.97469 1.571815 0
142.2096 -51.87469 1.471815 0
142.1596 -51.87469 1.571815 0
142.3096 -51.92469 1.571815 0
142.3096 -51.82469 1.471815 0
142.2596 -51.82469 1.571815 0
142.4096 -51.97469 1.521815 0
142.4596 -51.87469 1.571815 0
142.4096 -51.77469 1.471815 0
142.3596 -51.77469 1.571815 0
142.4596 -51.72469 1.621815 0
142.5596 -51.87469 1.521815 0
142.5596 -51.82469 1.571815 0
142.5596 -51.67469 1.471815 0
142.7096 -51.82469 1.521815 0
142.6596 -51.62469 1.471815 0
142.8596 -51.72469 1.521815 0
143.0096 -51.72469 1.521815 0
143.3096 -51.87469 1.571815 0
141.9596 -52.67469 2.021815 0
141.9596 -52.47469 1.671815 0
141.9596 -52.47469 1.871815 0
141.9596 -52.47469 1.921815 0
142.1096 -52.62469 1.921815 0
141.9596 -52.77469 2.071815 0
142.0096 -52.82469 2.071815 0
142.3096 -52.77469 2.321815 0
142.3096 -52.72469 2.321815 0
142.2596 -52.52469 2.271815 0
142.0096 -52.27469 1.721815 0
142.0596 -52.37469 1.671815 0
142.0596 -52.42469 1.921815 0
142.0596 -52.37469 1.871815 0
142.1096 -52.37469 1.921815 0
142.0596 -52.42469 2.021815 0
142.1096 -52.42469 1.971815 0
142.0096 -52.12469 1.771815 0
142.0596 -52.17469 1.671815 0
142.1096 -52.17469 1.721815 0
142.1096 -52.12469 1.671815 0
142.2096 -52.37469 1.721815 0
142.2096 -52.32469 1.721815 0
142.2096 -52.37469 1.971815 0
142.1596 -52.32469 1.871815 0
142.2096 -52.32469 1.921815 0
142.2596 -52.32469 1.921815 0
142.2596 -52.27469 1.871815 0
142.3096 -52.32469 1.971815 0
142.2096 -52.12469 1.721815 0
142.2096 -52.07469 1.671815 0
142.2096 -52.07469 1.821815 0
142.3096 -52.22469 1.871815 0
141.9596 -52.42469 2.121815 0
142.1596 -52.37469 2.071815 0
142.2096 -52.42469 2.221815 0
142.2596 -52.32469 2.071815 0
142.4096 -52.67469 2.321815 0
142.4596 -52.47469 2.171815 0
142.3596 -52.47469 2.271815 0
142.6596 -52.67469 2.371815 0
142.6096 -52.47469 2.171815 0
142.4096 -52.27469 1.721815 0
142.3596 -52.27469 1.921815 0
142.4096 -52.27469 1.971815 0
142.3596 -52.22469 1.921815 0
142.4096 -52.17469 1.871815 0
142.5096 -52.17469 1.921815 0
142.5096 -52.12469 1.871815 0
142.5596 -52.37469 1.921815 0
142.5596 -52.17469 1.721815 0
142.6596 -52.17469 1.921815 0
142.4596 -52.07469 2.371815 0
142.1096 -52.62469 2.571815 0
142.2596 -52.62469 2.571815 0
142.2596 -52.47469 2.621815 0
142.4096 -52.77469 2.721815 0
142.3596 -52.62469 2.621815 0
142.3596 -52.52469 2.621815 0
142.3596 -52.47469 2.621815 0
142.5096 -52.57469 2.621815 0
142.5096 -52.62469 2.671815 0
142.5096 -52.47469 2.671815 0
142.6596 -52.62469 2.671815 0
142.6596 -52.57469 2.671815 0
142.6596 -52.47469 2.671815 0
142.6096 -52.37469 2.621815 0
142.2596 -52.02469 1.671815 0
142.3096 -52.02469 1.721815 0
142.3096 -52.02469 1.821815 0
142.3596 -51.97469 1.671815 0
142.4596 -51.97469 1.721815 0
142.5596 -51.92469 1.721815 0
142.7096 -52.02469 1.721815 0
142.6596 -51.82469 1.721815 0
142.7096 -52.02469 2.571815 0
142.7096 -52.02469 2.621815 0
142.6596 -51.87469 2.521815 0
142.9096 -52.72469 2.221815 0
142.8096 -52.47469 2.171815 0
142.7596 -52.62469 2.371815 0
143.1096 -52.67469 2.171815 0
143.0096 -52.82469 2.421815 0
143.0596 -52.77469 2.421815 0
143.1096 -52.67469 2.421815 0
143.1096 -52.52469 2.421815 0
142.8096 -52.27469 1.921815 0
142.9096 -52.32469 1.971815 0
142.7596 -52.22469 1.921815 0
142.9096 -52.12469 1.921815 0
142.9096 -52.27469 2.371815 0
142.9596 -52.32469 2.371815 0
143.1096 -52.37469 2.421815 0
143.1096 -52.22469 2.421815 0
143.0596 -52.07469 2.371815 0
143.2096 -52.62469 1.971815 0
143.2096 -52.52469 1.971815 0
143.5096 -52.72469 2.021815 0
143.1596 -52.72469 2.371815 0
143.1596 -52.57469 2.421815 0
143.2096 -52.62469 2.371815 0
143.1596 -52.52469 2.421815 0
143.2096 -52.52469 2.371815 0
143.2096 -52.47469 2.421815 0
143.3096 -52.52469 2.371815 0
143.4096 -52.77469 2.221815 0
143.4096 -52.67469 2.221815 0
143.4096 -52.72469 2.421815 0
143.4596 -52.77469 2.321815 0
143.4596 -52.62469 2.221815 0
143.5096 -52.47469 2.221815 0
143.5096 -52.62469 2.271815 0
143.5096 -52.47469 2.371815 0
143.2096 -52.27469 1.921815 0
143.2596 -52.42469 2.371815 0
143.2596 -52.37469 2.371815 0
143.2596 -52.27469 2.321815 0
143.2596 -52.27469 2.371815 0
143.3096 -52.22469 2.371815 0
143.3096 -52.17469 2.371815 0
143.3596 -52.42469 2.371815 0
143.4096 -52.27469 2.371815 0
143.3596 -52.12469 2.371815 0
143.3596 -52.07469 2.371815 0
143.4596 -52.17469 2.321815 0
143.5096 -52.07469 2.321815 0
142.9096 -52.57469 2.471815 0
142.8096 -52.62469 2.721815 0
142.8096 -52.57469 2.671815 0
142.8596 -52.62469 2.671815 0
142.8596 -52.57469 2.671815 0
142.8596 -52.52469 2.721815 0
142.9596 -52.82469 2.471815 0
143.0096 -52.72469 2.471815 0
143.0096 -52.67469 2.471815 0
142.9596 -52.82469 2.671815 0
143.0096 -52.67469 2.671815 0
143.0596 -52.57469 2.471815 0
143.1096 -52.47469 2.471815 0
142.7596 -52.82469 3.171815 0
142.8096 -52.82469 3.171815 0
142.8596 -52.72469 3.121815 0
142.9096 -52.72469 3.121815 0
142.9096 -52.57469 3.121815 0
143.0096 -52.82469 3.021815 0
143.1096 -52.67469 3.021815 0
143.0096 -52.62469 3.121815 0
142.8096 -52.37469 2.671815 0
142.8096 -52.32469 2.671815 0
142.7596 -52.22469 2.621815 0
143.0096 -52.27469 2.621815 0
143.2096 -52.67469 2.721815 0
143.4096 -52.57469 2.521815 0
143.2096 -52.72469 3.071815 0
143.3096 -52.52469 3.021815 0
143.5096 -52.57469 3.221815 0
143.1596 -52.42469 2.471815 0
143.2096 -52.17469 2.621815 0
143.4596 -52.37469 2.471815 0
142.9096 -51.97469 1.721815 0
142.8596 -51.92469 1.721815 0
143.0596 -51.92469 1.721815 0
143.0096 -51.97469 2.371815 0
143.3096 -52.02469 1.721815 0
143.2096 -51.97469 2.321815 0
143.1596 -51.92469 2.421815 0
143.3096 -51.92469 2.321815 0
143.1596 -51.82469 2.371815 0
143.3096 -51.77469 2.321815 0
143.3096 -51.72469 2.321815 0
143.4096 -51.97469 2.371815 0
143.3596 -51.87469 2.321815 0
143.5096 -51.97469 2.321815 0
143.7096 -52.82469 1.871815 0
143.7096 -52.77469 1.871815 0
143.7096 -52.52469 1.971815 0
143.7596 -52.67469 2.021815 0
143.8096 -52.62469 2.021815 0
143.7596 -52.52469 2.021815 0
143.5596 -52.77469 2.171815 0
143.5596 -52.67469 2.121815 0
143.7096 -52.82469 2.071815 0
143.7096 -52.67469 2.221815 0
143.6096 -52.57469 2.121815 0
143.6596 -52.47469 2.121815 0
143.5596 -52.52469 2.271815 0
143.7596 -52.82469 2.071815 0
143.7596 -52.47469 2.171815 0
143.7596 -52.42469 1.971815 0
143.8096 -52.37469 2.021815 0
143.8596 -52.42469 2.021815 0
143.8596 -52.27469 2.021815 0
143.9096 -52.17469 1.971815 0
143.6096 -52.27469 2.121815 0
143.5596 -52.32469 2.221815 0
143.6096 -52.27469 2.221815 0
143.6596 -52.32469 2.121815 0
143.6596 -52.37469 2.271815 0
143.6096 -52.17469 2.121815 0
143.6096 -52.17469 2.221815 0
143.6096 -52.12469 2.121815 0
143.6096 -52.07469 2.221815 0
143.7096 -52.22469 2.121815 0
143.7096 -52.12469 2.121815 0
143.7096 -52.22469 2.271815 0
143.8596 -52.27469 2.171815 0
143.8596 -52.32469 2.371815 0
143.7596 -52.07469 2.221815 0
143.9596 -52.07469 2.171815 0
143.6596 -52.82469 3.071815 0
143.8096 -52.62469 3.121815 0
143.8596 -52.62469 3.121815 0
143.9096 -52.47469 3.121815 0
143.8596 -52.42469 3.121815 0
143.9096 -52.32469 3.221815 0
143.8096 -52.22469 3.121815 0
144.2096 -52.67469 2.821815 0
144.2596 -52.52469 2.571815 0
144.2596 -52.52469 2.821815 0
143.9596 -52.82469 2.971815 0
143.9596 -52.72469 2.921815 0
144.0596 -52.82469 2.921815 0
144.1096 -52.67469 2.921815 0
144.0096 -52.62469 2.921815 0
144.0096 -52.47469 2.921815 0
144.1096 -52.52469 2.921815 0
144.0096 -52.62469 3.071815 0
144.3096 -52.77469 3.121815 0
144.3096 -52.32469 2.771815 0
144.2096 -52.12469 2.821815 0
144.0596 -52.37469 2.921815 0
144.1096 -52.27469 2.921815 0
144.0096 -52.37469 3.221815 0
144.0596 -52.42469 3.071815 0
144.1096 -52.17469 2.871815 0
144.1096 -52.22469 3.021815 0
143.9596 -52.17469 3.221815 0
144.0096 -52.22469 3.171815 0
144.1096 -52.07469 3.171815 0
144.1596 -52.37469 2.871815 0
144.1596 -52.22469 2.871815 0
144.1596 -52.07469 2.871815 0
143.6096 -52.02469 2.121815 0
143.6596 -51.97469 2.221815 0
143.6596 -51.92469 2.121815 0
143.6596 -51.87469 2.121815 0
143.6596 -51.87469 2.221815 0
143.5596 -51.92469 2.321815 0
143.7096 -51.82469 2.171815 0
143.7596 -52.02469 2.071815 0
143.8096 -51.92469 2.221815 0
143.8096 -51.72469 2.221815 0
144.0096 -51.82469 2.121815 0
143.6096 -52.02469 3.121815 0
143.8096 -51.87469 3.121815 0
143.9096 -51.62469 3.071815 0
144.2596 -51.97469 2.821815 0
144.3096 -51.87469 2.821815 0
144.2096 -51.72469 2.821815 0
144.3096 -51.72469 2.821815 0
144.1596 -51.97469 2.871815 0
144.1596 -52.02469 3.021815 0
144.2096 -51.82469 2.871815 0
144.2096 -51.82469 2.971815 0
144.2596 -51.62469 2.821815 0
144.4096 -52.62469 2.521815 0
144.3596 -52.62469 2.571815 0
144.4096 -52.52469 2.821815 0
144.3596 -52.82469 2.871815 0
144.3596 -52.47469 3.071815 0
144.4096 -52.42469 2.571815 0
144.4596 -52.27469 2.771815 0
144.3596 -52.17469 2.771815 0
144.7596 -52.82469 2.471815 0
144.7596 -52.82469 2.621815 0
144.8096 -52.77469 2.621815 0
144.8596 -52.77469 2.621815 0
144.8096 -52.82469 2.721815 0
144.8596 -52.72469 2.721815 0
144.8096 -52.47469 2.471815 0
144.9596 -52.62469 2.621815 0
145.0096 -52.62469 2.621815 0
145.0596 -52.52469 2.621815 0
144.9596 -52.62469 2.721815 0
145.0596 -52.57469 2.721815 0
144.7596 -52.37469 3.121815 0
144.8096 -52.17469 3.121815 0
145.0096 -52.37469 2.871815 0
145.0096 -52.27469 2.871815 0
145.1096 -52.42469 2.871815 0
145.0096 -52.17469 2.871815 0
145.1096 -52.22469 3.071815 0
144.3596 -51.97469 2.721815 0
144.5096 -52.02469 2.771815 0
144.4096 -51.82469 2.721815 0
144.7096 -51.97469 3.221815 0
144.3596 -51.57469 2.771815 0
144.8596 -51.97469 3.071815 0
144.7596 -51.77469 3.221815 0
141.9596 -52.82469 3.471815 0
141.9596 -52.72469 3.471815 0
142.0596 -52.82469 3.521815 0
142.0596 -52.67469 3.471815 0
142.1096 -52.72469 3.471815 0
142.0596 -52.57469 3.471815 0
142.1096 -52.52469 3.471815 0
142.1596 -52.72469 3.521815 0
142.2596 -52.57469 3.421815 0
142.2096 -52.57469 3.471815 0
142.3096 -52.47469 3.471815 0
142.0096 -52.17469 3.521815 0
142.1596 -52.37469 3.471815 0
142.2096 -52.32469 3.471815 0
142.2096 -52.22469 3.571815 0
142.5096 -52.77469 3.321815 0
142.3596 -52.47469 3.421815 0
142.5596 -52.72469 3.321815 0
142.7096 -52.57469 3.271815 0
142.4596 -52.32469 3.421815 0
142.4096 -52.37469 3.471815 0
142.4596 -52.27469 3.471815 0
142.3596 -52.17469 3.571815 0
142.5596 -52.22469 3.371815 0
142.5096 -52.02469 3.521815 0
142.7096 -51.92469 3.321815 0
142.8096 -52.42469 3.271815 0
142.9096 -52.27469 3.271815 0
142.9596 -52.17469 3.321815 0
143.0596 -52.17469 3.271815 0
143.1096 -52.07469 3.421815 0
143.3096 -52.27469 3.271815 0
143.3596 -52.07469 3.321815 0
143.3096 -52.07469 3.971815 0
142.9096 -51.97469 3.371815 0
143.1096 -51.92469 3.271815 0
143.3096 -51.77469 3.871815 0
143.4596 -51.77469 3.771815 0
143.4596 -51.77469 3.921815 0
143.6096 -52.62469 3.571815 0
143.8096 -52.72469 3.321815 0
143.9096 -52.72469 3.271815 0
143.9096 -52.77469 3.621815 0
143.8596 -52.57469 3.271815 0
143.8596 -52.47469 3.271815 0
143.5596 -52.52469 3.671815 0
143.8596 -52.67469 3.721815 0
143.5596 -52.37469 3.321815 0
143.6596 -52.22469 3.321815 0
143.7596 -52.07469 3.621815 0
144.0596 -52.72469 3.621815 0
143.9596 -52.57469 3.271815 0
144.0096 -52.62469 3.771815 0
144.1596 -52.57469 3.771815 0
144.2596 -52.52469 3.771815 0
144.1096 -52.32469 3.371815 0
144.3096 -52.32469 3.371815 0
144.0596 -52.32469 3.671815 0
144.3096 -52.32469 3.721815 0
143.6596 -52.62469 4.421815 0
143.6596 -52.62469 4.471815 0
143.6096 -52.42469 4.421815 0
143.7096 -51.87469 3.421815 0
143.9096 -51.92469 3.471815 0
143.6596 -51.87469 3.821815 0
143.6096 -51.72469 3.921815 0
143.8596 -51.87469 3.821815 0
143.7596 -51.67469 3.921815 0
144.0596 -51.92469 3.471815 0
143.9596 -51.67469 3.521815 0
144.1096 -51.67469 3.571815 0
144.3096 -51.92469 3.521815 0
144.3096 -51.67469 3.571815 0
144.0096 -51.82469 3.821815 0
144.2096 -51.82469 3.871815 0
144.3096 -51.52469 3.571815 0
143.6096 -52.02469 4.421815 0
144.0596 -51.77469 4.221815 0
143.9596 -51.72469 4.371815 0
144.2596 -51.92469 4.571815 0
144.2596 -51.82469 4.471815 0
144.5096 -52.37469 3.421815 0
144.5096 -52.22469 3.321815 0
144.5096 -52.07469 3.321815 0
144.6596 -52.32469 3.271815 0
144.6596 -52.22469 3.371815 0
144.6596 -52.12469 3.271815 0
144.4096 -52.42469 3.771815 0
144.5096 -52.32469 3.721815 0
144.7096 -52.27469 3.721815 0
144.8596 -52.17469 3.721815 0
145.0596 -52.07469 3.721815 0
144.4096 -52.42469 4.171815 0
144.5596 -52.32469 4.171815 0
144.7096 -52.27469 4.171815 0
144.6096 -52.07469 4.371815 0
144.8596 -52.17469 4.171815 0
144.9596 -52.12469 4.171815 0
144.3596 -51.77469 3.471815 0
144.5596 -51.92469 3.271815 0
144.7096 -51.97469 3.321815 0
144.5596 -51.77469 3.271815 0
144.4096 -51.77469 3.871815 0
144.6096 -51.77469 3.871815 0
144.3596 -51.52469 3.471815 0
144.7596 -51.72469 3.921815 0
144.3596 -51.97469 4.321815 0
144.4096 -51.82469 4.471815 0
144.6096 -51.77469 4.471815 0
144.7596 -51.97469 4.371815 0
145.1096 -52.02469 4.171815 0
144.9596 -51.87469 4.371815 0
145.1096 -51.77469 4.371815 0
144.8096 -51.77469 4.521815 0
144.9596 -51.67469 4.521815 0
145.1096 -51.62469 4.521815 0
145.2096 -55.52469 1.821815 0
145.4096 -55.52469 1.821815 0
145.3596 -55.27469 1.971815 0
145.6096 -55.52469 1.871815 0
145.6096 -55.27469 2.021815 0
145.8596 -55.52469 1.871815 0
145.8596 -55.27469 2.071815 0
145.4096 -55.22469 2.071815 0
145.8096 -55.12469 1.871815 0
145.6096 -55.22469 2.121815 0
145.8096 -55.22469 2.121815 0
145.7596 -55.02469 2.221815 0
145.8596 -54.97469 2.121815 0
145.7096 -54.72469 2.371815 0
145.8096 -54.72469 2.421815 0
145.9096 -54.67469 2.371815 0
146.0596 -55.52469 1.871815 0
146.2596 -55.52469 1.921815 0
146.1096 -55.27469 2.071815 0
146.5096 -55.57469 1.921815 0
146.4096 -55.27469 2.121815 0
146.0596 -55.22469 2.021815 0
146.0596 -55.12469 1.871815 0
146.3096 -55.17469 1.921815 0
146.1596 -54.92469 2.021815 0
146.0096 -55.22469 2.171815 0
146.0096 -55.02469 2.221815 0
146.0096 -54.92469 2.071815 0
146.2596 -55.22469 2.071815 0
146.0596 -54.77469 2.221815 0
145.9596 -54.62469 2.421815 0
146.0596 -54.62469 2.371815 0
146.0596 -54.57469 2.421815 0
146.2596 -54.77469 2.221815 0
146.2596 -54.57469 2.371815 0
146.5096 -54.97469 2.371815 0
146.7096 -55.22469 2.121815 0
146.7096 -55.17469 2.221815 0
146.6096 -54.87469 2.371815 0
146.4596 -54.77469 2.221815 0
146.4096 -54.47469 2.371815 0
146.6596 -54.72469 2.371815 0
145.5596 -53.82469 2.371815 0
145.7596 -53.82469 2.371815 0
146.0096 -53.87469 2.421815 0
146.2096 -53.87469 2.421815 0
146.2096 -54.17469 2.471815 0
146.2096 -54.22469 2.721815 0
146.4096 -54.12469 2.521815 0
146.3596 -54.12469 2.721815 0
146.6596 -54.07469 2.521815 0
146.5596 -54.07469 2.721815 0
146.4596 -53.87469 2.471815 0
146.7096 -53.87469 2.471815 0
146.7096 -53.97469 2.721815 0
146.7596 -55.57469 1.971815 0
146.9596 -55.57469 1.971815 0
146.7596 -55.07469 2.221815 0
146.8096 -55.12469 2.171815 0
146.8096 -54.92469 2.221815 0
146.8596 -55.02469 2.171815 0
146.9096 -54.92469 2.171815 0
146.8596 -55.02469 2.271815 0
146.9596 -55.22469 2.121815 0
147.0596 -55.12469 2.121815 0
147.1096 -54.97469 2.121815 0
146.8596 -54.82469 2.221815 0
146.9096 -54.67469 2.221815 0
146.7596 -54.62469 2.371815 0
146.7596 -54.57469 2.421815 0
146.8096 -54.47469 2.371815 0
146.9596 -54.82469 2.171815 0
146.9596 -54.82469 2.271815 0
147.0596 -54.67469 2.271815 0
147.0096 -54.57469 2.221815 0
147.1096 -54.47469 2.271815 0
146.8596 -54.37469 2.371815 0
146.9096 -54.37469 2.371815 0
146.9596 -54.22469 2.371815 0
147.0096 -54.02469 2.371815 0
147.2096 -54.32469 2.271815 0
147.1596 -53.87469 2.371815 0
146.8596 -54.07469 2.521815 0
146.8596 -53.92469 2.771815 0
146.8596 -54.02469 3.171815 0
146.8096 -53.67469 2.921815 0
147.0596 -53.97469 3.221815 0
147.2596 -53.87469 3.221815 0
146.9596 -53.62469 2.921815 0
147.1596 -53.57469 2.921815 0
145.1596 -52.77469 2.471815 0
145.1596 -52.47469 2.621815 0
145.3096 -52.62469 2.471815 0
145.1596 -52.47469 2.771815 0
145.4596 -52.47469 2.471815 0
145.2096 -52.47469 2.871815 0
145.2096 -52.42469 2.621815 0
145.2596 -52.42469 2.621815 0
145.3096 -52.32469 2.621815 0
145.1596 -52.37469 2.721815 0
145.3596 -52.32469 2.621815 0
145.4596 -52.22469 2.621815 0
145.1596 -52.27469 2.871815 0
145.3096 -52.32469 2.871815 0
145.2096 -52.07469 2.871815 0
145.6096 -52.32469 2.471815 0
145.3596 -52.02469 2.821815 0
145.2096 -51.97469 3.721815 0
145.3096 -51.72469 4.371815 0
145.4596 -51.62469 4.371815 0
145.2596 -51.52469 4.521815 0
145.4096 -51.42469 4.521815 0
