# .PCD v0.7 - Point Cloud Data file format
VERSION 0.7
FIELDS x y z intensity
SIZE 4 4 4 4
TYPE F F F F
COUNT 1 1 1 1
WIDTH 1554
HEIGHT 1
VIEWPOINT 0 0 0 1 0 0 0
POINTS 1554
DATA ascii
-13.99576 3.034065 -0.1777703 0
-13.89576 2.984065 -0.2277703 0
-13.84576 2.984065 -0.1777703 0
-14.04576 3.134065 -0.2277703 0
-13.49576 2.984065 -0.1777703 0
-13.49576 3.034065 -0.1777703 0
-14.74576 4.184065 -0.2277703 0
-14.59576 3.984065 -0.2277703 0
-14.64576 4.084065 -0.2277703 0
-14.34576 3.584065 -0.2277703 0
-14.44576 3.784065 -0.2277703 0
-14.39576 3.684065 -0.2277703 0
-14.24576 3.484065 -0.2277703 0
-14.49576 3.884065 -0.2277703 0
-14.89576 4.384065 -0.2277703 0
-14.79576 4.284065 -0.2277703 0
-14.94576 6.234065 0.5722297 0
-14.99576 6.334065 0.5722297 0
-14.94576 6.334065 0.6222297 0
-14.94576 6.384065 0.7222297 0
-14.94576 6.334065 0.7722297 0
-14.99576 6.484065 0.6222297 0
-14.99576 6.484065 0.7222297 0
-14.94576 6.584065 0.6722297 0
-14.99576 6.534065 0.7722297 0
-14.94576 6.534065 0.8722297 0
-14.94576 6.334065 1.27223 0
-14.94576 6.434065 1.22223 0
-14.94576 6.534065 1.27223 0
-14.94576 6.684065 0.9222297 0
-14.94576 6.784065 0.9222297 0
-14.99576 6.884065 0.9222297 0
-14.94576 6.734065 0.9722297 0
-14.99576 6.834065 0.9722297 0
-14.99576 6.684065 1.27223 0
-14.99576 6.934065 1.02223 0
-14.99576 7.034065 0.9722297 0
-14.99576 6.884065 1.27223 0
-14.99576 7.684065 1.32223 0
-14.99576 8.134065 0.5722297 0
-14.94576 8.184065 0.5722297 0
-14.94576 8.184065 1.07223 0
-14.94576 6.734065 1.42223 0
-14.94576 6.834065 1.52223 0
-14.94576 6.934065 1.57223 0
-14.99576 6.734065 1.77223 0
-14.99576 7.184065 1.57223 0
-14.99576 7.184065 1.67223 0
-14.99576 7.284065 1.42223 0
-14.94576 7.334065 1.37223 0
-14.94576 7.334065 1.52223 0
-14.94576 7.384065 1.47223 0
-14.99576 7.084065 1.77223 0
-14.94576 7.184065 1.77223 0
-14.94576 7.284065 1.77223 0
-14.94576 7.334065 1.82223 0
-14.94576 7.434065 1.92223 0
-14.99576 7.534065 1.42223 0
-14.99576 7.534065 1.72223 0
-14.94576 7.534065 1.97223 0
-14.39576 5.834065 0.5722297 0
-14.34576 5.834065 0.5722297 0
-14.14576 5.834065 0.7722297 0
-14.89576 6.134065 0.5722297 0
-14.89576 6.184065 0.6222297 0
-14.84576 6.184065 0.7222297 0
-14.84576 6.234065 0.7222297 0
-14.79576 6.084065 0.6222297 0
-14.79576 6.134065 0.6222297 0
-14.79576 6.134065 0.7222297 0
-14.74576 6.234065 0.7222297 0
-14.84576 6.184065 0.7722297 0
-14.79576 6.234065 0.8722297 0
-14.64576 6.034065 0.6722297 0
-14.64576 6.034065 0.7222297 0
-14.59576 5.884065 0.6722297 0
-14.54576 5.934065 0.7222297 0
-14.64576 5.984065 0.7722297 0
-14.54576 5.984065 0.7722297 0
-14.54576 5.984065 0.8722297 0
-14.54576 6.034065 0.9222297 0
-14.69576 6.084065 0.7222297 0
-14.69576 6.134065 0.7222297 0
-14.69576 6.134065 0.7722297 0
-14.64576 6.134065 0.8222297 0
-14.69576 6.084065 0.8722297 0
-14.64576 6.134065 0.8722297 0
-14.69576 6.234065 0.8222297 0
-14.69576 6.234065 0.8722297 0
-14.64576 6.184065 0.8722297 0
-14.59576 6.084065 0.8722297 0
-14.89576 6.184065 1.07223 0
-14.74576 6.134065 1.02223 0
-14.79576 6.234065 1.12223 0
-14.74576 6.184065 1.07223 0
-14.84576 6.234065 1.27223 0
-14.64576 6.034065 0.9722297 0
-14.54576 6.034065 0.9722297 0
-14.64576 6.134065 1.02223 0
-14.64576 6.084065 1.12223 0
-14.64576 6.234065 1.02223 0
-14.64576 6.184065 1.07223 0
-14.54576 6.084065 0.9722297 0
-14.54576 6.084065 1.02223 0
-14.54576 6.134065 1.02223 0
-14.59576 6.134065 1.07223 0
-14.59576 6.184065 0.9722297 0
-14.54576 6.184065 0.9722297 0
-14.64576 6.234065 1.17223 0
-14.54576 6.234065 1.27223 0
-14.89576 6.334065 0.6222297 0
-14.89576 6.284065 0.7222297 0
-14.89576 6.334065 0.7222297 0
-14.84576 6.384065 0.8722297 0
-14.74576 6.384065 0.8722297 0
-14.89576 6.584065 0.9222297 0
-14.84576 6.584065 0.8722297 0
-14.79576 6.484065 0.8722297 0
-14.69576 6.334065 0.8722297 0
-14.69576 6.484065 0.6722297 0
-14.69576 6.534065 0.6722297 0
-14.74576 6.384065 0.9722297 0
-14.74576 6.434065 1.02223 0
-14.89576 6.334065 1.17223 0
-14.79576 6.284065 1.17223 0
-14.74576 6.334065 1.22223 0
-14.79576 6.384065 1.27223 0
-14.74576 6.434065 1.32223 0
-14.84576 6.584065 1.02223 0
-14.84576 6.634065 0.9722297 0
-14.79576 6.484065 0.9722297 0
-14.74576 6.584065 1.02223 0
-14.64576 6.284065 0.9722297 0
-14.64576 6.384065 0.9722297 0
-14.54576 6.334065 0.9722297 0
-14.69576 6.384065 1.27223 0
-14.59576 6.334065 1.22223 0
-14.54576 6.284065 1.17223 0
-14.59576 6.334065 1.27223 0
-14.54576 6.384065 1.22223 0
-14.59576 6.384065 1.32223 0
-14.59576 6.434065 1.32223 0
-14.69576 6.484065 0.9722297 0
-14.64576 6.584065 1.12223 0
-14.59576 6.484065 1.12223 0
-14.54576 6.484065 1.12223 0
-14.59576 6.584065 1.12223 0
-14.69576 6.534065 1.17223 0
-14.49576 5.934065 0.6722297 0
-14.49576 5.934065 0.7222297 0
-14.34576 5.884065 0.5722297 0
-14.39576 5.984065 0.7222297 0
-14.44576 6.034065 0.9222297 0
-14.39576 5.934065 0.9222297 0
-14.34576 5.934065 0.8722297 0
-14.34576 6.034065 0.7722297 0
-14.39576 5.984065 0.9222297 0
-14.34576 5.984065 0.9222297 0
-14.49576 6.084065 0.8222297 0
-14.44576 6.084065 0.8222297 0
-14.34576 6.134065 0.8222297 0
-14.29576 5.884065 0.5722297 0
-14.29576 5.884065 0.6222297 0
-14.24576 5.884065 0.5722297 0
-14.24576 5.934065 0.6222297 0
-14.29576 5.984065 0.7222297 0
-14.29576 6.034065 0.7222297 0
-14.19576 5.934065 0.5722297 0
-14.14576 5.934065 0.6222297 0
-14.19576 6.034065 0.7222297 0
-14.24576 5.934065 0.8722297 0
-14.29576 5.984065 0.9222297 0
-14.24576 5.984065 0.9222297 0
-14.14576 5.884065 0.7722297 0
-14.14576 5.934065 0.8722297 0
-14.14576 5.984065 0.9222297 0
-14.24576 6.184065 0.8222297 0
-14.24576 6.234065 0.9222297 0
-14.14576 6.134065 0.7722297 0
-14.19576 6.184065 0.8222297 0
-14.44576 5.984065 0.9722297 0
-14.39576 5.934065 1.02223 0
-14.34576 5.934065 0.9722297 0
-14.44576 6.134065 1.02223 0
-14.49576 6.134065 1.07223 0
-14.44576 6.134065 1.07223 0
-14.49576 6.184065 1.12223 0
-14.39576 6.134065 1.02223 0
-14.34576 6.084065 1.02223 0
-14.39576 6.084065 1.12223 0
-14.34576 6.184065 1.12223 0
-14.19576 6.034065 0.9722297 0
-14.14576 6.034065 0.9722297 0
-14.29576 6.134065 1.02223 0
-14.24576 6.134065 1.02223 0
-14.24576 6.184065 1.12223 0
-14.19576 6.134065 1.02223 0
-14.14576 6.134065 1.02223 0
-14.14576 6.134065 1.17223 0
-14.19576 6.534065 0.6722297 0
-14.49576 6.384065 1.12223 0
-14.49576 6.334065 1.22223 0
-14.44576 6.284065 1.17223 0
-14.49576 6.284065 1.27223 0
-14.49576 6.284065 1.32223 0
-14.49576 6.334065 1.27223 0
-14.49576 6.434065 1.32223 0
-14.39576 6.334065 1.22223 0
-14.34576 6.284065 1.22223 0
-14.39576 6.434065 1.32223 0
-14.29576 6.284065 1.22223 0
-14.29576 6.334065 1.22223 0
-14.24576 6.284065 1.22223 0
-14.24576 6.284065 1.32223 0
-14.29576 6.434065 1.32223 0
-14.24576 6.434065 1.32223 0
-14.19576 6.284065 1.22223 0
-14.19576 6.334065 1.27223 0
-14.19576 6.434065 1.32223 0
-14.14576 6.434065 1.32223 0
-13.79576 5.734065 -0.2277703 0
-14.09576 5.784065 0.4722297 0
-14.04576 5.784065 0.4722297 0
-14.04576 5.834065 0.4722297 0
-13.94576 5.784065 0.4722297 0
-13.89576 5.784065 0.3722297 0
-13.84576 5.784065 0.3722297 0
-13.89576 5.834065 0.4722297 0
-13.79576 5.834065 0.3722297 0
-13.74576 5.784065 0.3722297 0
-13.74576 5.834065 0.4222297 0
-13.79576 5.834065 0.4722297 0
-13.34576 5.334065 -0.2277703 0
-13.39576 5.384065 -0.2277703 0
-13.54576 5.534065 -0.2277703 0
-13.69576 5.684065 -0.2277703 0
-13.69576 5.834065 0.3722297 0
-13.64576 5.834065 0.3722297 0
-13.84576 5.834065 0.6722297 0
-13.74576 5.834065 0.6722297 0
-13.54576 5.834065 0.7222297 0
-13.94576 5.934065 -0.2277703 0
-13.84576 5.884065 -0.2277703 0
-13.99576 5.884065 0.4722297 0
-13.89576 5.884065 0.4722297 0
-13.79576 5.884065 0.4722297 0
-13.79576 5.984065 0.5222297 0
-13.64576 5.884065 0.4222297 0
-13.69576 5.884065 0.4722297 0
-13.69576 5.984065 0.5222297 0
-13.54576 5.884065 0.4222297 0
-13.59576 5.934065 0.4722297 0
-13.59576 6.034065 0.5222297 0
-13.49576 5.884065 0.3722297 0
-13.44576 5.934065 0.4222297 0
-13.49576 5.934065 0.4722297 0
-13.44576 5.934065 0.4722297 0
-13.49576 6.034065 0.5222297 0
-13.39576 5.934065 0.3722297 0
-13.39576 5.934065 0.4222297 0
-13.39576 5.984065 0.4722297 0
-13.39576 6.084065 0.5222297 0
-14.04576 5.884065 0.5722297 0
-14.09576 5.984065 0.6222297 0
-14.04576 5.984065 0.6222297 0
-14.09576 6.034065 0.7222297 0
-13.99576 5.984065 0.6222297 0
-13.99576 6.034065 0.6222297 0
-13.94576 6.034065 0.6222297 0
-14.09576 5.884065 0.8222297 0
-14.09576 5.934065 0.7722297 0
-14.04576 5.934065 0.7722297 0
-14.09576 5.934065 0.9222297 0
-14.04576 5.984065 0.9222297 0
-13.99576 5.934065 0.8222297 0
-13.99576 5.934065 0.9222297 0
-13.94576 5.934065 0.9222297 0
-13.94576 5.984065 0.8222297 0
-14.09576 6.084065 0.7222297 0
-13.99576 6.134065 0.7722297 0
-13.89576 5.884065 0.7222297 0
-13.89576 6.034065 0.6222297 0
-13.84576 6.034065 0.6222297 0
-13.79576 5.934065 0.7222297 0
-13.79576 6.034065 0.7222297 0
-13.84576 5.934065 0.8222297 0
-13.89576 5.934065 0.9222297 0
-13.89576 5.984065 0.8222297 0
-13.84576 6.034065 0.8222297 0
-13.84576 5.984065 0.9222297 0
-13.79576 5.884065 0.8722297 0
-13.74576 5.934065 0.9222297 0
-13.84576 6.084065 0.6222297 0
-13.79576 6.084065 0.6222297 0
-13.74576 6.084065 0.6222297 0
-13.89576 6.184065 0.7722297 0
-13.89576 6.234065 0.8222297 0
-13.74576 6.084065 0.8222297 0
-13.79576 6.234065 0.7722297 0
-13.79576 6.184065 0.9222297 0
-13.74576 6.184065 0.9222297 0
-14.04576 5.934065 1.07223 0
-14.09576 5.984065 0.9722297 0
-14.04576 6.034065 0.9722297 0
-13.94576 5.984065 1.02223 0
-14.04576 6.084065 1.02223 0
-14.04576 6.134065 1.02223 0
-14.09576 6.184065 1.12223 0
-13.94576 6.084065 1.02223 0
-13.94576 6.134065 1.07223 0
-13.94576 6.134065 1.17223 0
-13.99576 6.234065 1.17223 0
-13.94576 6.184065 1.17223 0
-13.89576 6.034065 0.9722297 0
-13.84576 6.034065 0.9722297 0
-13.74576 5.984065 1.02223 0
-13.74576 6.034065 0.9722297 0
-13.74576 6.034065 1.02223 0
-13.84576 6.084065 1.02223 0
-13.89576 6.084065 1.07223 0
-13.79576 6.084065 1.07223 0
-13.74576 6.084065 1.07223 0
-13.89576 6.234065 1.17223 0
-13.84576 6.184065 1.17223 0
-13.79576 6.184065 1.17223 0
-13.74576 6.184065 1.17223 0
-14.04576 6.584065 0.6722297 0
-13.89576 6.484065 0.7222297 0
-13.89576 6.634065 0.6722297 0
-14.09576 6.284065 1.22223 0
-14.09576 6.334065 1.22223 0
-14.09576 6.384065 1.27223 0
-14.09576 6.434065 1.32223 0
-14.04576 6.384065 1.32223 0
-13.99576 6.334065 1.22223 0
-13.99576 6.334065 1.27223 0
-13.99576 6.384065 1.32223 0
-13.99576 6.434065 1.32223 0
-13.89576 6.334065 1.27223 0
-13.89576 6.384065 1.27223 0
-13.89576 6.434065 1.32223 0
-13.79576 6.334065 1.27223 0
-13.79576 6.434065 1.32223 0
-13.64576 5.884065 0.6222297 0
-13.69576 5.884065 0.6722297 0
-13.69576 5.984065 0.6222297 0
-13.54576 5.884065 0.6722297 0
-13.69576 5.884065 0.8722297 0
-13.69576 6.034065 0.7722297 0
-13.59576 5.934065 0.8222297 0
-13.59576 6.034065 0.7722297 0
-13.59576 5.984065 0.9222297 0
-13.69576 6.084065 0.6222297 0
-13.64576 6.084065 0.6222297 0
-13.69576 6.134065 0.6722297 0
-13.59576 6.134065 0.6222297 0
-13.54576 6.134065 0.6222297 0
-13.59576 6.184065 0.6722297 0
-13.54576 6.184065 0.6722297 0
-13.69576 6.084065 0.8222297 0
-13.64576 6.084065 0.8222297 0
-13.59576 6.084065 0.8222297 0
-13.54576 6.084065 0.8222297 0
-13.59576 6.084065 0.8722297 0
-13.59576 6.184065 0.9222297 0
-13.49576 6.034065 0.7722297 0
-13.44576 6.084065 0.6222297 0
-13.44576 6.184065 0.6222297 0
-13.49576 6.184065 0.6722297 0
-13.39576 6.134065 0.7222297 0
-13.34576 6.184065 0.6222297 0
-13.39576 6.234065 0.6722297 0
-13.34576 6.234065 0.6722297 0
-13.44576 6.084065 0.8222297 0
-13.49576 6.134065 0.8722297 0
-13.49576 6.184065 0.9222297 0
-13.39576 6.084065 0.7722297 0
-13.34576 6.084065 0.8222297 0
-13.39576 6.134065 0.8722297 0
-13.34576 6.134065 0.8722297 0
-13.39576 6.184065 0.9222297 0
-13.34576 6.184065 0.9222297 0
-13.64576 6.034065 1.02223 0
-13.54576 5.984065 1.02223 0
-13.54576 6.034065 1.02223 0
-13.59576 6.084065 1.07223 0
-13.59576 6.184065 1.12223 0
-13.69576 6.134065 1.17223 0
-13.64576 6.184065 1.17223 0
-13.49576 5.984065 0.9722297 0
-13.49576 6.034065 1.02223 0
-13.39576 6.034065 1.02223 0
-13.44576 6.084065 1.02223 0
-13.49576 6.134065 1.07223 0
-13.44576 6.134065 1.07223 0
-13.49576 6.184065 1.12223 0
-13.44576 6.184065 1.12223 0
-13.39576 6.084065 1.02223 0
-13.34576 6.084065 1.02223 0
-13.39576 6.134065 1.22223 0
-13.69576 6.284065 0.8222297 0
-13.54576 6.634065 0.7722297 0
-13.69576 6.334065 1.27223 0
-13.69576 6.334065 1.32223 0
-13.69576 6.384065 1.32223 0
-13.59576 6.334065 1.27223 0
-13.59576 6.384065 1.32223 0
-13.54576 6.384065 1.27223 0
-13.44576 6.284065 1.22223 0
-13.49576 6.384065 1.27223 0
-13.49576 6.434065 1.32223 0
-13.39576 6.434065 1.32223 0
-13.34576 6.384065 1.27223 0
-14.84576 6.434065 1.37223 0
-14.74576 6.434065 1.37223 0
-14.79576 6.434065 1.47223 0
-14.84576 6.584065 1.37223 0
-14.84576 6.634065 1.37223 0
-14.59576 6.384065 1.37223 0
-14.54576 6.384065 1.47223 0
-14.69576 6.484065 1.37223 0
-14.69576 6.634065 1.47223 0
-14.64576 6.634065 1.52223 0
-14.59576 6.584065 1.47223 0
-14.54576 6.634065 1.52223 0
-14.64576 6.634065 1.62223 0
-14.84576 6.484065 1.77223 0
-14.89576 6.584065 1.77223 0
-14.84576 6.584065 1.77223 0
-14.84576 6.584065 1.82223 0
-14.74576 6.534065 1.77223 0
-14.79576 6.584065 1.77223 0
-14.74576 6.584065 1.82223 0
-14.64576 6.384065 1.82223 0
-14.54576 6.434065 1.82223 0
-14.69576 6.484065 1.77223 0
-14.69576 6.534065 1.77223 0
-14.69576 6.634065 1.87223 0
-14.54576 6.534065 1.77223 0
-14.54576 6.534065 1.82223 0
-14.59576 6.584065 1.82223 0
-14.69576 6.634065 2.07223 0
-14.34576 6.234065 1.37223 0
-14.29576 6.184065 1.37223 0
-14.19576 6.184065 1.52223 0
-14.49576 6.284065 1.37223 0
-14.39576 6.284065 1.47223 0
-14.34576 6.384065 1.47223 0
-14.34576 6.334065 1.72223 0
-14.49576 6.534065 1.47223 0
-14.44576 6.534065 1.52223 0
-14.49576 6.584065 1.52223 0
-14.39576 6.484065 1.47223 0
-14.39576 6.484065 1.52223 0
-14.34576 6.484065 1.52223 0
-14.49576 6.584065 1.57223 0
-14.49576 6.584065 1.62223 0
-14.49576 6.584065 1.67223 0
-14.34576 6.534065 1.62223 0
-14.39576 6.634065 1.62223 0
-14.24576 6.334065 1.47223 0
-14.29576 6.384065 1.52223 0
-14.24576 6.434065 1.52223 0
-14.19576 6.284065 1.47223 0
-14.14576 6.284065 1.52223 0
-14.19576 6.384065 1.52223 0
-14.19576 6.434065 1.52223 0
-14.24576 6.434065 1.62223 0
-14.29576 6.434065 1.72223 0
-14.19576 6.434065 1.57223 0
-14.24576 6.634065 1.52223 0
-14.14576 6.584065 1.52223 0
-14.29576 6.534065 1.57223 0
-14.24576 6.484065 1.57223 0
-14.29576 6.584065 1.57223 0
-14.39576 6.384065 1.82223 0
-14.39576 6.434065 1.77223 0
-14.39576 6.434065 1.82223 0
-14.34576 6.434065 1.77223 0
-14.49576 6.534065 1.82223 0
-14.44576 6.484065 1.77223 0
-14.44576 6.484065 1.82223 0
-14.39576 6.484065 1.82223 0
-14.44576 6.634065 2.07223 0
-14.24576 6.284065 1.87223 0
-14.29576 6.384065 1.82223 0
-14.29576 6.434065 1.82223 0
-14.24576 6.384065 1.77223 0
-14.19576 6.334065 1.77223 0
-14.14576 6.284065 1.77223 0
-14.14576 6.284065 1.82223 0
-14.14576 6.384065 1.82223 0
-14.19576 6.434065 1.87223 0
-14.29576 6.484065 1.87223 0
-14.29576 6.534065 2.12223 0
-14.24576 6.634065 2.12223 0
-14.29576 6.584065 2.17223 0
-14.29576 6.634065 2.27223 0
-14.24576 6.584065 2.27223 0
-14.19576 6.584065 2.27223 0
-14.19576 6.534065 2.42223 0
-14.14576 6.534065 2.37223 0
-14.04576 6.184065 1.42223 0
-13.99576 6.184065 1.72223 0
-13.89576 6.234065 1.47223 0
-13.89576 6.234065 1.52223 0
-13.79576 6.184065 1.47223 0
-13.79576 6.234065 1.52223 0
-13.74576 6.234065 1.52223 0
-13.74576 6.184065 1.62223 0
-14.09576 6.234065 1.77223 0
-14.04576 6.234065 1.82223 0
-14.04576 6.234065 1.87223 0
-13.89576 6.134065 1.87223 0
-14.09576 6.334065 1.52223 0
-14.04576 6.284065 1.52223 0
-14.04576 6.334065 1.52223 0
-13.94576 6.284065 1.37223 0
-13.99576 6.334065 1.52223 0
-13.94576 6.284065 1.47223 0
-13.94576 6.284065 1.52223 0
-14.09576 6.334065 1.62223 0
-14.09576 6.334065 1.72223 0
-14.09576 6.384065 1.57223 0
-14.04576 6.584065 1.52223 0
-13.94576 6.534065 1.47223 0
-13.89576 6.284065 1.52223 0
-13.84576 6.284065 1.52223 0
-13.79576 6.284065 1.52223 0
-13.89576 6.334065 1.67223 0
-13.79576 6.284065 1.57223 0
-13.74576 6.284065 1.67223 0
-13.84576 6.534065 1.47223 0
-13.79576 6.484065 1.47223 0
-13.74576 6.484065 1.47223 0
-13.79576 6.634065 1.57223 0
-14.04576 6.334065 1.82223 0
-14.04576 6.334065 1.87223 0
-14.09576 6.634065 1.77223 0
-13.99576 6.534065 2.12223 0
-13.84576 6.434065 1.87223 0
-13.79576 6.384065 1.82223 0
-13.74576 6.384065 1.92223 0
-13.74576 6.434065 1.92223 0
-13.69576 6.184065 1.52223 0
-13.69576 6.234065 1.52223 0
-13.64576 6.184065 1.52223 0
-13.59576 6.234065 1.52223 0
-13.69576 6.234065 1.62223 0
-13.64576 6.184065 1.57223 0
-13.64576 6.234065 1.57223 0
-13.64576 6.284065 1.37223 0
-13.59576 6.434065 1.37223 0
-13.64576 6.384065 1.67223 0
-13.69576 6.484065 1.42223 0
-13.54576 6.534065 1.42223 0
-13.54576 6.534065 1.52223 0
-13.59576 6.484065 1.67223 0
-13.54576 6.534065 1.67223 0
-13.44576 6.334065 1.47223 0
-13.49576 6.434065 1.37223 0
-13.44576 6.434065 1.37223 0
-13.39576 6.334065 1.52223 0
-13.39576 6.434065 1.52223 0
-13.49576 6.384065 1.57223 0
-13.44576 6.534065 1.42223 0
-13.39576 6.484065 1.37223 0
-13.39576 6.534065 1.42223 0
-13.34576 6.484065 1.37223 0
-13.34576 6.534065 1.52223 0
-13.49576 6.584065 1.67223 0
-13.39576 6.584065 1.62223 0
-13.69576 6.434065 1.92223 0
-13.59576 6.484065 1.92223 0
-13.54576 6.534065 1.97223 0
-14.04576 6.634065 2.17223 0
-14.04576 6.584065 2.27223 0
-13.94576 6.534065 2.27223 0
-13.94576 6.534065 2.32223 0
-13.94576 6.634065 2.22223 0
-13.84576 6.584065 2.17223 0
-13.74576 6.584065 2.27223 0
-13.84576 6.534065 2.47223 0
-13.74576 6.634065 2.37223 0
-13.89576 6.584065 2.67223 0
-13.89576 6.634065 2.77223 0
-13.69576 6.634065 2.37223 0
-14.79576 6.734065 0.6722297 0
-14.89576 6.784065 0.9222297 0
-14.74576 6.734065 1.02223 0
-14.74576 6.734065 1.12223 0
-14.79576 6.834065 1.02223 0
-14.79576 6.734065 1.17223 0
-14.84576 6.934065 0.9722297 0
-14.84576 6.984065 1.07223 0
-14.79576 6.884065 1.12223 0
-14.74576 6.884065 1.12223 0
-14.89576 6.884065 1.17223 0
-14.89576 6.884065 1.27223 0
-14.64576 6.684065 1.12223 0
-14.69576 6.784065 1.12223 0
-14.64576 6.884065 1.27223 0
-14.64576 6.984065 1.27223 0
-14.54576 7.134065 0.7222297 0
-14.89576 7.184065 1.07223 0
-14.49576 6.834065 0.7222297 0
-14.44576 6.784065 0.6722297 0
-14.89576 7.734065 1.32223 0
-14.89576 8.234065 0.5722297 0
-14.89576 7.984065 1.22223 0
-14.44576 7.984065 0.6222297 0
-14.34576 8.034065 0.6722297 0
-14.19576 8.084064 0.6722297 0
-13.99576 7.234065 -0.2277703 0
-13.94576 7.234065 -0.2277703 0
-13.99576 7.234065 0.02222969 0
-13.94576 7.234065 0.02222969 0
-14.04576 7.284065 -0.2277703 0
-14.04576 7.384065 -0.2277703 0
-13.99576 7.284065 -0.2277703 0
-14.04576 7.284065 0.1222297 0
-14.04576 7.334065 0.07222969 0
-13.99576 7.284065 0.02222969 0
-13.99576 7.284065 0.07222969 0
-13.94576 7.284065 0.07222969 0
-13.89576 7.234065 -0.2277703 0
-13.89576 7.284065 -0.2277703 0
-13.89576 7.334065 -0.2277703 0
-13.89576 7.284065 0.07222969 0
-13.94576 7.234065 0.2722297 0
-13.94576 7.234065 0.5222297 0
-14.04576 7.284065 0.2722297 0
-13.94576 7.284065 0.2222297 0
-13.99576 7.284065 0.3222297 0
-14.04576 7.284065 0.4222297 0
-13.94576 7.284065 0.4222297 0
-13.89576 7.284065 0.3222297 0
-14.04576 7.334065 0.7222297 0
-13.99576 7.284065 0.6222297 0
-13.94576 7.284065 0.7222297 0
-13.89576 7.284065 0.6222297 0
-14.09576 8.084064 0.6722297 0
-13.99576 8.134065 0.6722297 0
-13.34576 7.834065 0.6722297 0
-13.39576 7.884065 0.6722297 0
-13.49576 8.234065 0.7222297 0
-13.39576 8.184065 0.7222297 0
-14.89576 6.684065 1.47223 0
-14.89576 6.834065 1.37223 0
-14.89576 6.784065 1.52223 0
-14.79576 6.684065 1.47223 0
-14.79576 6.734065 1.52223 0
-14.74576 6.684065 1.52223 0
-14.79576 6.834065 1.47223 0
-14.89576 6.784065 1.57223 0
-14.84576 6.834065 1.57223 0
-14.74576 6.734065 1.57223 0
-14.74576 6.784065 1.57223 0
-14.74576 6.834065 1.62223 0
-14.89576 7.034065 1.42223 0
-14.84576 7.034065 1.47223 0
-14.89576 6.884065 1.57223 0
-14.79576 6.934065 1.67223 0
-14.74576 6.934065 1.67223 0
-14.74576 6.934065 1.72223 0
-14.64576 6.684065 1.52223 0
-14.54576 6.684065 1.52223 0
-14.69576 6.734065 1.57223 0
-14.69576 6.684065 1.67223 0
-14.64576 6.834065 1.67223 0
-14.59576 6.784065 1.62223 0
-14.59576 6.834065 1.67223 0
-14.89576 6.734065 1.87223 0
-14.74576 6.684065 2.07223 0
-14.84576 7.034065 1.87223 0
-14.74576 6.884065 2.07223 0
-14.69576 6.784065 2.07223 0
-14.69576 6.934065 1.82223 0
-14.69576 7.034065 1.82223 0
-14.59576 6.984065 1.87223 0
-14.69576 6.984065 2.12223 0
-14.89576 7.134065 1.37223 0
-14.89576 7.134065 1.42223 0
-14.89576 7.234065 1.47223 0
-14.74576 7.284065 1.57223 0
-14.79576 7.434065 1.57223 0
-14.69576 7.134065 1.52223 0
-14.64576 7.134065 1.67223 0
-14.64576 7.234065 1.62223 0
-14.89576 7.084065 1.87223 0
-14.89576 7.234065 1.92223 0
-14.74576 7.134065 1.97223 0
-14.74576 7.134065 2.07223 0
-14.74576 7.134065 2.12223 0
-14.74576 7.234065 1.97223 0
-14.89576 7.284065 1.92223 0
-14.89576 7.384065 1.82223 0
-14.89576 7.384065 1.87223 0
-14.89576 7.384065 1.92223 0
-14.79576 7.284065 2.07223 0
-14.74576 7.334065 2.12223 0
-14.69576 7.134065 1.87223 0
-14.54576 7.084065 1.92223 0
-14.54576 7.184065 1.92223 0
-14.59576 7.384065 1.92223 0
-14.49576 6.734065 1.62223 0
-14.44576 6.684065 1.62223 0
-14.34576 6.784065 1.87223 0
-14.44576 6.684065 2.07223 0
-14.49576 6.884065 1.87223 0
-14.29576 6.784065 1.82223 0
-14.59576 6.784065 2.17223 0
-14.54576 6.784065 2.32223 0
-14.54576 6.834065 2.27223 0
-14.64576 6.934065 2.27223 0
-14.59576 6.934065 2.27223 0
-14.54576 7.034065 2.22223 0
-14.64576 6.984065 2.37223 0
-14.54576 6.984065 2.62223 0
-14.74576 7.284065 2.32223 0
-14.79576 7.384065 2.27223 0
-14.64576 7.134065 2.32223 0
-14.69576 7.234065 2.27223 0
-14.59576 7.134065 2.22223 0
-14.59576 7.134065 2.27223 0
-14.69576 7.134065 2.37223 0
-14.64576 7.184065 2.37223 0
-14.64576 7.284065 2.32223 0
-14.69576 7.334065 2.42223 0
-14.64576 7.384065 2.37223 0
-14.54576 7.134065 2.62223 0
-14.59576 7.134065 2.67223 0
-14.54576 7.084065 2.67223 0
-14.54576 7.084065 2.72223 0
-14.59576 7.184065 2.77223 0
-14.59576 7.334065 2.62223 0
-14.59576 7.334065 2.72223 0
-14.54576 7.284065 2.72223 0
-14.59576 7.384065 2.82223 0
-14.49576 6.784065 2.17223 0
-14.44576 6.784065 2.27223 0
-14.44576 6.834065 2.27223 0
-14.39576 6.734065 2.17223 0
-14.34576 6.684065 2.17223 0
-14.39576 6.684065 2.27223 0
-14.34576 6.684065 2.27223 0
-14.34576 6.784065 2.42223 0
-14.49576 6.884065 2.27223 0
-14.49576 6.884065 2.37223 0
-14.29576 6.684065 2.37223 0
-14.24576 6.684065 2.42223 0
-14.44576 6.834065 2.62223 0
-14.34576 6.734065 2.62223 0
-14.34576 6.784065 2.72223 0
-14.34576 6.834065 2.77223 0
-14.44576 6.884065 2.72223 0
-14.44576 6.984065 2.67223 0
-14.39576 6.884065 2.67223 0
-14.44576 6.984065 2.77223 0
-14.29576 6.834065 2.67223 0
-14.19576 6.684065 2.62223 0
-14.19576 6.784065 2.67223 0
-14.24576 6.834065 2.77223 0
-14.49576 7.084065 2.77223 0
-14.89576 7.484065 1.57223 0
-14.84576 7.484065 1.67223 0
-14.79576 7.484065 1.67223 0
-14.84576 7.734065 1.72223 0
-14.89576 7.834065 1.72223 0
-14.74576 7.734065 1.67223 0
-14.79576 7.784065 1.62223 0
-14.84576 7.484065 2.07223 0
-14.84576 7.784065 1.77223 0
-14.89576 7.684065 1.97223 0
-14.74576 7.834065 1.97223 0
-14.59576 7.634065 2.02223 0
-14.89576 7.934065 1.62223 0
-14.79576 7.884065 1.72223 0
-14.79576 7.934065 1.72223 0
-14.44576 7.584065 2.02223 0
-14.44576 7.684065 2.07223 0
-14.79576 7.534065 2.17223 0
-14.74576 7.484065 2.32223 0
-14.64576 7.484065 2.32223 0
-14.64576 7.534065 2.37223 0
-14.59576 7.534065 2.67223 0
-14.54576 7.484065 2.72223 0
-14.54576 7.734065 2.77223 0
-13.69576 6.684065 1.57223 0
-13.59576 6.734065 1.62223 0
-13.44576 6.684065 1.72223 0
-13.39576 6.734065 1.72223 0
-13.34576 6.784065 1.72223 0
-13.34576 6.684065 2.02223 0
-13.34576 7.234065 2.07223 0
-14.04576 6.834065 2.27223 0
-13.94576 6.834065 2.27223 0
-13.79576 6.884065 2.42223 0
-14.09576 6.684065 2.72223 0
-14.04576 6.784065 2.72223 0
-13.99576 6.684065 2.67223 0
-13.94576 6.734065 2.72223 0
-14.04576 6.834065 2.82223 0
-13.94576 6.734065 2.82223 0
-13.79576 6.784065 2.77223 0
-13.69576 6.834065 2.32223 0
-13.59576 6.684065 2.32223 0
-13.44576 6.784065 2.42223 0
-13.39576 6.784065 2.37223 0
-14.54576 7.084065 2.97223 0
-14.59576 7.234065 3.02223 0
-14.34576 6.834065 2.97223 0
-14.39576 6.884065 3.02223 0
-14.39576 6.934065 3.12223 0
-14.39576 6.984065 2.97223 0
-14.39576 7.034065 3.22223 0
-14.24576 6.834065 3.12223 0
-14.14576 6.784065 2.97223 0
-14.29576 6.934065 3.22223 0
-14.29576 7.034065 3.32223 0
-14.19576 6.884065 3.22223 0
-14.39576 6.984065 3.52223 0
-14.29576 6.884065 3.52223 0
-14.14576 6.884065 3.37223 0
-14.24576 6.984065 3.72223 0
-14.24576 7.034065 3.67223 0
-14.19576 6.934065 3.67223 0
-14.44576 7.084065 3.12223 0
-14.44576 7.234065 3.17223 0
-14.44576 7.184065 3.27223 0
-14.44576 7.384065 3.02223 0
-14.49576 7.334065 3.27223 0
-14.49576 7.384065 3.17223 0
-14.44576 7.134065 3.52223 0
-14.34576 7.184065 3.37223 0
-14.34576 7.184065 3.67223 0
-14.39576 7.384065 3.37223 0
-14.34576 7.434065 3.62223 0
-14.19576 7.334065 4.02223 0
-14.44576 7.534065 3.02223 0
-14.24576 7.484065 3.77223 0
-14.09576 6.784065 3.17223 0
-14.04576 6.834065 3.27223 0
-13.94576 6.734065 3.17223 0
-13.89576 6.834065 3.27223 0
-13.89576 6.834065 3.42223 0
-13.89576 6.984065 3.77223 0
-13.19576 3.034065 -0.1777703 0
-13.04576 2.984065 -0.1777703 0
-12.79576 3.034065 -0.1777703 0
-12.44576 3.034065 -0.1777703 0
-12.09576 3.034065 -0.1777703 0
-11.94576 3.234065 -0.1777703 0
-11.99576 3.384065 -0.1777703 0
-11.84576 3.134065 -0.1777703 0
-12.94576 4.834065 -0.1777703 0
-13.04576 4.934065 -0.1777703 0
-13.09576 5.034065 -0.1777703 0
-12.79576 4.634065 -0.1777703 0
-12.64576 4.434065 -0.1777703 0
-12.59576 4.334065 -0.1777703 0
-12.69576 4.534065 -0.1777703 0
-12.84576 4.734065 -0.1777703 0
-12.14576 3.584065 -0.1777703 0
-12.24576 3.784065 -0.1777703 0
-12.19576 3.684065 -0.1777703 0
-12.39576 3.984065 -0.1777703 0
-12.44576 4.134065 -0.1777703 0
-12.49576 4.234065 -0.1777703 0
-12.29576 3.884065 -0.1777703 0
-12.04576 3.484065 -0.1777703 0
-11.69576 3.084065 -0.1777703 0
-11.64576 3.134065 -0.1777703 0
-11.34576 3.134065 -0.1777703 0
-11.24576 3.084065 -0.1777703 0
-10.99576 3.134065 -0.1777703 0
-10.64576 3.134065 -0.1777703 0
-10.29576 3.134065 -0.2277703 0
-10.29576 3.184065 -0.1277703 0
-10.14576 3.134065 -0.2277703 0
-11.34576 4.234065 -0.2277703 0
-11.24576 4.184065 -0.2277703 0
-11.14576 4.134065 -0.2277703 0
-10.94576 4.034065 -0.2277703 0
-10.99576 4.084065 -0.2277703 0
-11.09576 4.534065 -0.2277703 0
-10.99576 4.584065 -0.2277703 0
-10.54576 3.834065 -0.2277703 0
-10.84576 3.984065 -0.2277703 0
-10.74576 3.934065 -0.2277703 0
-10.64576 3.934065 -0.2277703 0
-10.59576 3.884065 -0.2277703 0
-10.49576 3.784065 -0.2277703 0
-10.39576 3.784065 -0.2277703 0
-10.19576 3.584065 -0.2277703 0
-10.29576 3.684065 -0.2277703 0
-10.14576 3.784065 -0.1777703 0
-10.34576 4.234065 -0.1777703 0
-10.24576 3.984065 -0.1777703 0
-10.19576 3.884065 -0.1777703 0
-10.29576 4.134065 -0.1777703 0
-10.89576 4.534065 -0.2277703 0
-10.79576 4.584065 -0.2277703 0
-10.74576 4.584065 -0.2277703 0
-10.69576 4.584065 -0.2277703 0
-10.64576 4.584065 -0.2277703 0
-10.54576 4.534065 -0.1777703 0
-10.59576 4.584065 -0.2277703 0
-10.59576 4.634065 -0.1777703 0
-10.54576 4.584065 -0.2277703 0
-10.74576 4.834065 -0.1777703 0
-10.79576 4.934065 -0.1777703 0
-10.64576 4.734065 -0.1777703 0
-10.49576 4.434065 -0.1777703 0
-10.39576 4.334065 -0.1777703 0
-10.44576 4.584065 -0.2277703 0
-10.39576 4.584065 -0.2277703 0
-10.29576 4.584065 -0.2277703 0
-10.19576 4.534065 -0.2277703 0
-13.24576 5.234065 -0.2277703 0
-13.14576 5.134065 -0.2277703 0
-13.29576 5.934065 0.4222297 0
-13.29576 5.984065 0.4222297 0
-13.24576 5.984065 0.4222297 0
-13.29576 5.984065 0.4722297 0
-13.19576 5.984065 0.4222297 0
-13.19576 6.034065 0.4222297 0
-13.14576 5.984065 0.4222297 0
-13.14576 6.034065 0.5222297 0
-13.29576 6.134065 0.5222297 0
-13.09576 5.984065 0.4222297 0
-13.09576 6.034065 0.4222297 0
-13.04576 6.034065 0.4222297 0
-12.99576 6.084065 0.4722297 0
-12.94576 6.134065 0.4722297 0
-13.24576 6.234065 0.6222297 0
-13.29576 6.234065 0.6722297 0
-13.24576 6.234065 0.6722297 0
-13.19576 6.134065 0.5722297 0
-13.29576 6.084065 0.7722297 0
-13.24576 6.084065 0.7722297 0
-13.24576 6.084065 0.8222297 0
-13.29576 6.134065 0.8722297 0
-13.24576 6.184065 0.8722297 0
-13.14576 6.084065 0.8222297 0
-13.19576 6.184065 0.8722297 0
-13.14576 6.184065 0.8722297 0
-13.04576 6.234065 0.5722297 0
-13.09576 6.184065 0.8722297 0
-12.99576 6.184065 0.8722297 0
-13.29576 6.084065 1.02223 0
-13.29576 6.134065 1.07223 0
-13.29576 6.184065 1.07223 0
-13.29576 6.184065 1.12223 0
-13.19576 6.184065 1.07223 0
-13.19576 6.184065 1.12223 0
-13.14576 6.234065 1.12223 0
-13.09576 6.234065 1.12223 0
-13.24576 6.284065 0.7222297 0
-13.14576 6.284065 0.6222297 0
-13.19576 6.284065 0.6722297 0
-13.14576 6.334065 0.6722297 0
-13.14576 6.584065 0.8722297 0
-13.04576 6.334065 0.6222297 0
-13.09576 6.334065 0.6722297 0
-13.04576 6.384065 0.6722297 0
-12.99576 6.334065 0.6222297 0
-12.94576 6.284065 0.5722297 0
-12.94576 6.434065 0.6722297 0
-12.94576 6.434065 0.7222297 0
-12.94576 6.284065 0.8722297 0
-12.94576 6.484065 0.7222297 0
-13.09576 6.634065 0.9222297 0
-12.99576 6.484065 0.9222297 0
-13.24576 6.334065 1.07223 0
-13.14576 6.384065 1.07223 0
-13.24576 6.334065 1.27223 0
-13.24576 6.434065 1.27223 0
-13.19576 6.434065 1.27223 0
-13.24576 6.484065 1.32223 0
-13.09576 6.334065 1.02223 0
-13.04576 6.284065 1.12223 0
-12.89576 6.434065 0.6722297 0
-12.74576 6.434065 0.6222297 0
-12.89576 6.334065 0.9222297 0
-12.84576 6.384065 0.8722297 0
-12.84576 6.534065 0.7222297 0
-12.79576 6.484065 0.6722297 0
-12.79576 6.534065 0.7222297 0
-12.74576 6.584065 0.7222297 0
-12.89576 6.534065 0.8722297 0
-12.74576 6.584065 0.7722297 0
-12.69576 6.584065 0.6722297 0
-12.69576 6.584065 0.7222297 0
-12.64576 6.634065 0.6722297 0
-12.64576 6.634065 0.7222297 0
-12.59576 6.634065 0.7222297 0
-12.84576 6.434065 1.12223 0
-12.89576 6.334065 1.17223 0
-12.89576 6.534065 1.17223 0
-12.84576 6.584065 1.17223 0
-13.29576 6.484065 1.37223 0
-13.29576 6.534065 1.37223 0
-13.24576 6.534065 1.42223 0
-13.29576 6.634065 1.52223 0
-13.19576 6.534065 1.37223 0
-13.19576 6.534065 1.42223 0
-13.14576 6.584065 1.42223 0
-13.29576 6.634065 1.57223 0
-13.04576 6.684065 0.9222297 0
-12.94576 6.734065 0.9222297 0
-13.19576 6.684065 0.9722297 0
-13.29576 6.834065 1.22223 0
-12.99576 6.784065 0.9722297 0
-12.94576 6.734065 1.17223 0
-12.94576 7.034065 1.22223 0
-13.29576 7.084065 1.27223 0
-13.29576 7.284065 1.32223 0
-13.04576 7.234065 1.02223 0
-12.94576 7.184065 1.22223 0
-13.04576 7.434065 1.07223 0
-12.89576 6.784065 0.9222297 0
-12.54576 6.684065 0.6722297 0
-12.64576 6.684065 0.7722297 0
-12.69576 6.884065 1.02223 0
-12.84576 7.234065 0.7222297 0
-12.89576 7.384065 0.7222297 0
-12.74576 7.334065 0.7722297 0
-12.54576 7.334065 0.5722297 0
-12.69576 7.134065 1.02223 0
-12.64576 7.134065 0.9722297 0
-12.54576 7.484065 0.5222297 0
-12.54576 7.734065 0.5222297 0
-12.59576 7.834065 0.5222297 0
-12.74576 8.234065 0.5222297 0
-12.64576 7.984065 0.5222297 0
-12.69576 8.084064 0.5222297 0
-12.94576 7.534065 0.7222297 0
-13.04576 7.834065 0.7222297 0
-12.99576 7.684065 0.7222297 0
-13.19576 7.784065 1.32223 0
-13.04576 7.584065 1.32223 0
-13.09576 7.684065 1.32223 0
-13.09576 8.034065 0.7222297 0
-13.04576 8.184065 0.6222297 0
-13.04576 8.234065 0.6222297 0
-12.99576 8.184065 0.6222297 0
-13.19576 8.084064 1.17223 0
-13.04576 7.934065 1.12223 0
-12.84576 7.634065 0.5722297 0
-12.74576 7.584065 0.8222297 0
-12.64576 7.634065 0.5722297 0
-12.54576 7.584065 0.6222297 0
-12.69576 7.734065 0.5722297 0
-12.64576 7.684065 0.6222297 0
-12.69576 7.834065 0.5722297 0
-12.69576 7.834065 0.6222297 0
-12.89576 7.834065 1.07223 0
-12.79576 7.734065 1.07223 0
-12.69576 7.484065 1.02223 0
-12.74576 7.934065 0.6222297 0
-12.79576 7.984065 0.5722297 0
-12.89576 8.084064 0.6222297 0
-12.84576 8.184065 0.6222297 0
-12.79576 8.084064 0.6222297 0
-12.49576 7.284065 0.5222297 0
-12.44576 7.034065 0.5722297 0
-12.49576 7.184065 0.5722297 0
-12.49576 7.434065 0.5722297 0
-12.49576 7.634065 0.4722297 0
-13.14576 6.684065 1.42223 0
-13.24576 6.734065 1.57223 0
-13.29576 6.784065 1.72223 0
-13.19576 6.834065 1.62223 0
-13.29576 6.884065 1.72223 0
-13.14576 6.934065 1.67223 0
-13.04576 6.684065 1.37223 0
-13.04576 6.734065 1.47223 0
-13.09576 6.834065 1.47223 0
-13.09576 6.934065 1.47223 0
-13.04576 7.034065 1.52223 0
-12.99576 6.934065 1.42223 0
-13.29576 6.734065 1.97223 0
-13.24576 6.934065 1.77223 0
-13.19576 7.034065 1.77223 0
-13.29576 6.884065 2.02223 0
-13.09576 7.184065 1.72223 0
-13.19576 7.184065 1.82223 0
-13.29576 7.084065 2.07223 0
-13.14576 7.284065 1.82223 0
-13.04576 7.184065 1.82223 0
-13.04576 7.234065 1.82223 0
-13.09576 7.334065 1.82223 0
-13.09576 7.384065 1.87223 0
-13.19576 7.634065 1.57223 0
-13.19576 7.834065 1.42223 0
-13.24576 7.784065 1.67223 0
-13.14576 7.684065 1.67223 0
-12.94576 7.484065 1.62223 0
-12.99576 7.584065 1.62223 0
-12.94576 7.634065 1.57223 0
-13.04576 7.734065 1.37223 0
-12.94576 7.684065 1.37223 0
-11.34576 5.784065 -0.1777703 0
-10.94576 5.184065 -0.1777703 0
-11.04576 5.384065 -0.1777703 0
-10.99576 5.284065 -0.1777703 0
-11.14576 5.484065 -0.1777703 0
-11.19576 5.584065 -0.1777703 0
-11.29576 5.684065 -0.1777703 0
-11.59576 6.084065 -0.1777703 0
-11.49576 5.934065 -0.1777703 0
-11.44576 5.884065 -0.1777703 0
-10.84576 5.084065 -0.1777703 0
-9.645759 -4.215935 -0.2277703 0
-9.545758 -4.215935 -0.2277703 0
-9.395759 -4.515935 -0.1777703 0
-9.345758 -4.415936 -0.1777703 0
-9.445759 -4.215935 -0.2277703 0
-9.345758 -4.215935 -0.2277703 0
-9.295758 -4.265935 -0.1777703 0
-9.295758 -4.215935 -0.2277703 0
-9.195759 -4.215935 -0.2277703 0
-9.145759 -4.215935 -0.2277703 0
-9.145759 -4.165936 -0.1277703 0
-9.095758 -4.215935 -0.2277703 0
-8.945759 -4.215935 -0.2277703 0
-8.845758 -4.215935 -0.2277703 0
-8.795758 -4.215935 -0.2277703 0
-8.745759 -4.215935 -0.2277703 0
-8.695759 -4.215935 -0.2277703 0
-8.645759 -4.215935 -0.2277703 0
-8.645759 -4.165936 -0.2277703 0
-8.695759 -4.165936 -0.1277703 0
-8.595758 -4.215935 -0.2277703 0
-8.545758 -4.215935 -0.2277703 0
-8.495759 -4.215935 -0.2277703 0
-8.495759 -4.165936 -0.2277703 0
-8.445759 -4.215935 -0.2277703 0
-8.395759 -4.165936 -0.2277703 0
-8.345758 -4.215935 -0.2277703 0
-8.295758 -4.165936 -0.2277703 0
-8.245759 -4.165936 -0.2277703 0
-8.195759 -4.165936 -0.2277703 0
-8.145759 -4.215935 -0.2277703 0
-8.095758 -4.165936 -0.2277703 0
-8.045758 -4.165936 -0.2277703 0
-7.945759 -4.165936 -0.2277703 0
-7.845759 -4.165936 -0.2277703 0
-7.745759 -4.165936 -0.2277703 0
-7.545759 -4.465935 -0.1277703 0
-7.695759 -4.165936 -0.2277703 0
-7.645759 -4.165936 -0.2277703 0
-7.595759 -4.165936 -0.2277703 0
-7.495759 -4.365935 -0.1277703 0
-7.445759 -4.265935 -0.1277703 0
-7.495759 -4.165936 -0.2277703 0
-7.395759 -4.165936 -0.2277703 0
-7.345759 -4.165936 -0.2277703 0
-7.445759 -4.115935 -0.2277703 0
-7.395759 -4.115935 -0.1277703 0
-7.195759 -4.165936 -0.2277703 0
-7.095759 -4.165936 -0.2277703 0
-6.995759 -4.165936 -0.1777703 0
-6.945759 -4.165936 -0.1777703 0
-7.295759 -4.115935 -0.2277703 0
-7.245759 -4.115935 -0.2277703 0
-7.195759 -4.115935 -0.2277703 0
-7.145759 -4.115935 -0.2277703 0
-7.045759 -4.115935 -0.2277703 0
-7.095759 -4.115935 -0.1277703 0
-6.995759 -4.115935 -0.2277703 0
-6.945759 -4.115935 -0.2277703 0
-9.395759 -0.4159353 -0.07777032 0
-9.395759 -0.3659353 -0.02777031 0
-9.345758 -0.4159353 -0.02777031 0
-9.395759 -0.4159353 0.07222969 0
-9.345758 -0.4159353 0.07222969 0
-9.395759 -0.4159353 0.1722297 0
-9.345758 -0.4159353 0.1722297 0
-9.045758 -0.5659353 -0.07777032 0
-9.295758 -0.3659353 -0.1777703 0
-9.145759 -0.3159353 -0.07777032 0
-8.995759 -0.4659353 -0.07777032 0
-8.995759 -0.4159353 -0.07777032 0
-9.045758 -0.5159352 0.07222969 0
-8.995759 -0.4659353 -0.02777031 0
-8.995759 -0.4159353 -0.02777031 0
-8.995759 -0.4159353 0.07222969 0
-9.045758 -0.2659353 -0.07777032 0
-8.945759 -0.3159353 -0.07777032 0
-8.945759 -0.3159353 -0.02777031 0
-8.945759 -0.3159353 0.07222969 0
-8.895759 -0.2159353 -0.07777032 0
-8.895759 -0.2659353 -0.02777031 0
-8.895759 -0.2659353 0.02222969 0
-7.345759 -0.6159353 -0.02777031 0
-7.345759 -0.6159353 0.1222297 0
-7.245759 -0.6159353 -0.1777703 0
-7.295759 -0.6159353 0.02222969 0
-7.295759 -0.6159353 0.1222297 0
-6.945759 -0.6659353 -0.07777032 0
-6.945759 -0.6659353 0.02222969 0
-6.945759 -0.6659353 0.1222297 0
-7.295759 -0.6159353 0.1722297 0
-7.095759 -0.5159352 -0.02777031 0
-6.995759 -0.4659353 -0.02777031 0
-6.845758 -4.165936 -0.1777703 0
-6.795759 -4.165936 -0.1777703 0
-6.695759 -4.165936 -0.1777703 0
-6.595758 -4.165936 -0.1777703 0
-6.845758 -4.115935 -0.2277703 0
-6.745759 -4.115935 -0.2277703 0
-6.645759 -4.115935 -0.2277703 0
-6.695759 -4.065935 -0.1277703 0
-6.545759 -4.115935 -0.1777703 0
-6.445759 -4.165936 -0.1777703 0
-6.345758 -4.165936 -0.1777703 0
-6.495759 -4.115935 -0.2277703 0
-6.445759 -4.115935 -0.2277703 0
-6.395759 -4.115935 -0.2277703 0
-6.295759 -4.115935 -0.2277703 0
-6.295759 -4.115935 -0.1777703 0
-6.245759 -4.115935 -0.2277703 0
-6.245759 -4.115935 -0.1777703 0
-6.245759 -4.065935 -0.1277703 0
-6.145759 -4.115935 -0.1777703 0
-6.145759 -4.065935 -0.2277703 0
-6.095758 -4.465935 -0.1277703 0
-6.045759 -4.365935 -0.1277703 0
-5.995759 -4.265935 -0.1277703 0
-5.995759 -4.165936 -0.1777703 0
-5.895759 -4.215935 -0.1777703 0
-5.795759 -4.265935 -0.1777703 0
-6.045759 -4.115935 -0.2277703 0
-6.045759 -4.115935 -0.1777703 0
-5.995759 -4.065935 -0.2277703 0
-5.945759 -4.115935 -0.1777703 0
-5.945759 -4.065935 -0.2277703 0
-5.995759 -4.115935 -0.1277703 0
-5.845758 -4.065935 -0.2277703 0
-5.845758 -4.065935 -0.1777703 0
-5.845758 -4.065935 -0.1277703 0
-5.795759 -4.065935 -0.2277703 0
-5.745759 -4.065935 -0.1777703 0
-5.795759 -4.065935 -0.1277703 0
-5.695759 -4.265935 -0.1777703 0
-5.595758 -4.315935 -0.1777703 0
-5.445759 -4.365935 -0.1777703 0
-5.395759 -4.365935 -0.1777703 0
-5.495759 -4.315935 -0.1777703 0
-5.695759 -4.065935 -0.2277703 0
-5.645759 -4.065935 -0.1777703 0
-5.595758 -4.065935 -0.2277703 0
-5.495759 -4.065935 -0.2277703 0
-5.495759 -4.065935 -0.1777703 0
-5.445759 -4.065935 -0.1777703 0
-5.495759 -4.065935 -0.1277703 0
-5.395759 -4.065935 -0.2277703 0
-5.295759 -4.365935 -0.1777703 0
-5.245759 -4.365935 -0.1777703 0
-5.145759 -4.415936 -0.1777703 0
-4.995759 -4.415936 -0.1777703 0
-4.945759 -4.415936 -0.1777703 0
-5.295759 -4.065935 -0.1777703 0
-5.195759 -4.065935 -0.1777703 0
-5.145759 -4.015935 -0.1277703 0
-5.095758 -4.065935 -0.1777703 0
-4.995759 -4.065935 -0.1777703 0
-4.845758 -4.415936 -0.1777703 0
-4.745759 -4.415936 -0.1777703 0
-4.595758 -4.415936 -0.1777703 0
-4.895759 -4.065935 -0.1777703 0
-4.795759 -4.065935 -0.1777703 0
-4.795759 -4.015935 -0.1277703 0
-4.645759 -4.015935 -0.1777703 0
-4.545759 -4.015935 -0.1777703 0
-4.495759 -4.415936 -0.1777703 0
-4.445759 -4.415936 -0.1777703 0
-4.345758 -4.415936 -0.1777703 0
-4.195759 -4.415936 -0.1777703 0
-4.145759 -4.415936 -0.1777703 0
-4.445759 -4.015935 -0.1777703 0
-4.395759 -4.015935 -0.2277703 0
-4.395759 -4.015935 -0.1277703 0
-4.245759 -4.015935 -0.2277703 0
-4.145759 -4.015935 -0.2277703 0
-4.095758 -4.515935 -0.1277703 0
-4.095758 -4.365935 -0.1777703 0
-4.045759 -4.415936 -0.1277703 0
-3.995759 -4.365935 -0.1777703 0
-4.045759 -4.315935 -0.1277703 0
-3.945759 -4.215935 -0.1277703 0
-3.895759 -4.365935 -0.1777703 0
-3.795759 -4.365935 -0.1777703 0
-3.895759 -4.315935 -0.1777703 0
-3.795759 -4.315935 -0.1777703 0
-3.745759 -4.315935 -0.1777703 0
-4.095758 -4.015935 -0.2277703 0
-4.045759 -4.015935 -0.2277703 0
-3.945759 -4.015935 -0.2277703 0
-3.945759 -3.965935 -0.1277703 0
-3.895759 -4.065935 -0.1277703 0
-3.845759 -4.015935 -0.2277703 0
-3.745759 -4.015935 -0.2277703 0
-3.745759 -4.015935 -0.1277703 0
-6.895759 -0.5659353 -0.07777032 0
-6.895759 -0.5659353 0.02222969 0
-6.895759 -0.5659353 0.07222969 0
-6.895759 -0.4659353 -0.07777032 0
-6.895759 -0.4659353 0.02222969 0
-6.895759 -0.4659353 0.07222969 0
-6.845758 -0.4159353 -0.02777031 0
-6.845758 -0.4159353 0.02222969 0
-6.895759 -0.4159353 0.07222969 0
-5.245759 -0.9659353 -0.02777031 0
-5.245759 -0.9659353 0.02222969 0
-5.245759 -0.9659353 0.1222297 0
-5.195759 -0.9659353 0.02222969 0
-5.195759 -0.9659353 0.1222297 0
-5.245759 -0.9659353 0.1722297 0
-5.195759 -0.9659353 0.2222297 0
-5.145759 -0.9159353 -0.1277703 0
-5.045759 -0.8159353 -0.02777031 0
-4.945759 -0.7159353 -0.02777031 0
-4.845758 -0.9659353 0.07222969 0
-4.845758 -0.9159353 -0.02777031 0
-4.845758 -0.9159353 0.02222969 0
-4.845758 -0.9159353 0.1222297 0
-4.845758 -0.8659353 0.1222297 0
-4.845758 -0.8159353 -0.02777031 0
-4.845758 -0.8159353 0.02222969 0
-4.845758 -0.7659352 0.07222969 0
-4.845758 -0.7159353 -0.02777031 0
-4.845758 -0.7159353 0.02222969 0
-4.845758 -0.6659353 -0.02777031 0
-4.845758 -0.6659353 0.07222969 0
-4.795759 -0.6659353 0.02222969 0
-10.09576 3.134065 -0.2277703 0
-9.995759 3.434065 -0.1777703 0
-9.945759 3.434065 -0.2277703 0
-9.895759 3.234065 -0.1777703 0
-9.895759 3.184065 -0.1277703 0
-9.795758 3.234065 -0.2277703 0
-9.745759 3.184065 -0.2277703 0
-9.895759 3.334065 -0.1777703 0
-9.845758 3.334065 -0.2277703 0
-9.645759 3.184065 -0.2277703 0
-9.595758 3.184065 -0.1777703 0
-9.545758 3.184065 -0.2277703 0
-9.445759 3.184065 -0.2277703 0
-9.495759 3.184065 -0.1277703 0
-9.345758 3.184065 -0.2277703 0
-9.245759 3.184065 -0.2277703 0
-9.195759 3.234065 -0.1777703 0
-9.145759 3.184065 -0.2277703 0
-9.045758 3.234065 -0.1277703 0
-8.995759 3.184065 -0.2277703 0
-8.945759 3.184065 -0.2277703 0
-8.845758 3.184065 -0.2277703 0
-8.745759 3.184065 -0.2277703 0
-8.795758 3.234065 -0.1277703 0
-8.645759 3.184065 -0.2277703 0
-8.595758 3.184065 -0.2277703 0
-8.595758 3.234065 -0.1277703 0
-10.09576 3.534065 -0.2277703 0
-10.04576 3.534065 -0.1777703 0
-9.995759 3.484065 -0.2277703 0
-9.995759 3.534065 -0.2277703 0
-9.945759 3.584065 -0.2277703 0
-10.04576 3.684065 -0.1777703 0
-9.895759 3.584065 -0.2277703 0
-9.845758 3.634065 -0.2277703 0
-9.795758 3.634065 -0.2277703 0
-9.695759 3.634065 -0.2277703 0
-9.545758 3.684065 -0.2277703 0
-9.495759 3.734065 -0.2277703 0
-9.445759 3.734065 -0.2277703 0
-9.345758 3.734065 -0.2277703 0
-10.04576 4.534065 -0.2277703 0
-9.945759 4.534065 -0.2277703 0
-9.845758 4.534065 -0.2277703 0
-9.795758 4.484065 -0.2277703 0
-9.745759 4.484065 -0.2277703 0
-9.545758 4.434065 -0.2277703 0
-9.645759 4.484065 -0.2277703 0
-9.495759 4.434065 -0.2277703 0
-9.445759 4.384065 -0.2277703 0
-9.345758 4.384065 -0.2277703 0
-9.195759 3.734065 -0.2277703 0
-9.095758 3.734065 -0.2277703 0
-9.045758 3.784065 -0.2277703 0
-8.945759 3.784065 -0.2277703 0
-8.995759 4.234065 -0.2277703 0
-8.945759 4.234065 -0.2277703 0
-8.895759 3.784065 -0.2277703 0
-8.845758 3.784065 -0.2277703 0
-8.745759 3.784065 -0.2277703 0
-8.695759 3.784065 -0.2277703 0
-8.595758 3.784065 -0.2277703 0
-8.545758 3.784065 -0.2277703 0
-8.845758 4.184065 -0.2277703 0
-8.795758 4.134065 -0.2277703 0
-8.595758 4.034065 -0.2277703 0
-8.695759 4.084065 -0.2277703 0
-8.695759 4.134065 -0.2277703 0
-9.245759 4.334065 -0.2277703 0
-9.145759 4.284065 -0.2277703 0
-9.045758 4.284065 -0.2277703 0
-8.445759 3.234065 -0.2277703 0
-8.345758 3.234065 -0.2277703 0
-8.345758 3.234065 -0.1277703 0
-8.245759 3.284065 -0.2277703 0
-8.145759 3.334065 -0.2277703 0
-8.095758 3.384065 -0.2277703 0
-7.995759 3.384065 -0.2277703 0
-7.945759 3.434065 -0.2277703 0
-7.895759 3.434065 -0.2277703 0
-7.745759 3.284065 -0.2277703 0
-7.795759 3.384065 -0.2277703 0
-7.795759 3.434065 -0.2277703 0
-7.745759 3.384065 -0.2277703 0
-7.645759 3.234065 -0.2277703 0
-7.595759 3.234065 -0.2277703 0
-7.695759 3.284065 -0.2277703 0
-7.645759 3.284065 -0.2277703 0
-7.645759 3.334065 -0.1277703 0
-7.645759 3.434065 -0.1277703 0
-7.545759 3.284065 -0.2277703 0
-7.495759 3.234065 -0.2277703 0
-7.395759 3.234065 -0.2277703 0
-7.445759 3.284065 -0.2277703 0
-7.345759 3.284065 -0.2277703 0
-7.345759 3.284065 -0.1277703 0
-7.295759 3.234065 -0.2277703 0
-7.195759 3.234065 -0.2277703 0
-7.295759 3.284065 -0.2277703 0
-7.245759 3.284065 -0.2277703 0
-7.145759 3.284065 -0.2277703 0
-7.145759 3.434065 -0.1777703 0
-7.095759 3.234065 -0.2277703 0
-6.995759 3.234065 -0.2277703 0
-7.045759 3.284065 -0.2277703 0
-7.045759 3.384065 -0.1777703 0
-6.945759 3.284065 -0.2277703 0
-6.945759 3.384065 -0.1777703 0
-8.445759 3.784065 -0.2277703 0
-8.345758 3.734065 -0.2277703 0
-8.395759 3.784065 -0.2277703 0
-8.295758 3.784065 -0.2277703 0
-8.245759 3.834065 -0.2277703 0
-8.195759 3.734065 -0.2277703 0
-8.145759 3.734065 -0.2277703 0
-8.195759 3.784065 -0.2277703 0
-8.495759 3.984065 -0.2277703 0
-8.395759 3.884065 -0.2277703 0
-8.045758 3.634065 -0.2277703 0
-7.945759 3.534065 -0.2277703 0
-7.995759 3.634065 -0.2277703 0
-8.095758 3.684065 -0.2277703 0
-8.095758 3.734065 -0.2277703 0
-8.045758 3.684065 -0.2277703 0
-7.995759 3.684065 -0.2277703 0
-7.845759 3.484065 -0.2277703 0
-7.745759 3.484065 -0.2277703 0
-7.895759 3.684065 -0.2277703 0
-7.795759 3.684065 -0.2277703 0
-7.745759 3.684065 -0.1277703 0
-7.795759 3.784065 -0.1277703 0
-7.945759 4.134065 -0.1277703 0
-7.995759 4.234065 -0.1277703 0
-7.845759 3.934065 -0.1277703 0
-7.895759 4.034065 -0.1277703 0
-8.195759 4.584065 -0.1277703 0
-8.345758 4.934065 -0.1777703 0
-8.395759 5.034065 -0.1777703 0
-8.245759 4.684065 -0.1277703 0
-8.295758 4.784065 -0.1777703 0
-8.045758 4.384065 -0.1277703 0
-8.095758 4.484065 -0.1277703 0
-7.695759 3.484065 -0.2277703 0
-7.695759 3.634065 -0.2277703 0
-7.695759 3.584065 -0.1277703 0
-7.545759 3.534065 -0.2277703 0
-7.595759 3.634065 -0.2277703 0
-7.445759 3.534065 -0.2277703 0
-7.495759 3.584065 -0.2277703 0
-7.395759 3.534065 -0.2277703 0
-7.345759 3.534065 -0.1777703 0
-7.395759 3.584065 -0.2277703 0
-7.345759 3.584065 -0.2277703 0
-7.295759 3.534065 -0.1777703 0
-7.245759 3.484065 -0.1777703 0
-7.245759 3.584065 -0.2277703 0
-7.145759 3.584065 -0.2277703 0
-7.095759 3.584065 -0.2277703 0
-6.995759 3.584065 -0.1777703 0
-6.945759 3.634065 -0.1777703 0
-8.545758 5.234065 -0.1777703 0
-8.645759 5.434065 -0.1777703 0
-8.595758 5.334065 -0.1777703 0
-8.845758 5.784065 -0.1777703 0
-8.795758 5.684065 -0.1777703 0
-8.695759 5.584065 -0.1777703 0
-9.145759 6.184065 -0.1777703 0
-8.945759 5.884065 -0.1777703 0
-8.995759 5.984065 -0.1777703 0
-9.045758 6.084065 -0.1777703 0
-8.445759 5.134065 -0.1777703 0
-6.945759 6.084065 -0.1277703 0
-6.995759 6.184065 -0.1277703 0
-7.095759 6.284065 -0.1277703 0
-6.895759 3.234065 -0.2277703 0
-6.745759 3.234065 -0.2277703 0
-6.895759 3.334065 -0.1777703 0
-6.845758 3.284065 -0.2277703 0
-6.745759 3.284065 -0.2277703 0
-6.745759 3.284065 -0.1777703 0
-6.645759 3.234065 -0.2277703 0
-6.545759 3.234065 -0.2277703 0
-6.695759 3.284065 -0.1777703 0
-6.645759 3.284065 -0.2277703 0
-6.595758 3.284065 -0.1777703 0
-6.545759 3.284065 -0.2277703 0
-6.495759 3.284065 -0.2277703 0
-6.445759 3.284065 -0.2277703 0
-6.445759 3.334065 -0.2277703 0
-6.345758 3.284065 -0.2277703 0
-6.345758 3.284065 -0.1777703 0
-6.345758 3.334065 -0.2277703 0
-6.245759 3.284065 -0.2277703 0
-6.245759 3.334065 -0.1777703 0
-6.145759 3.334065 -0.1777703 0
-6.095758 3.284065 -0.2277703 0
-6.095758 3.334065 -0.2277703 0
-6.045759 3.334065 -0.2277703 0
-6.045759 3.334065 -0.1777703 0
-5.995759 3.334065 -0.2277703 0
-5.945759 3.334065 -0.2277703 0
-5.945759 3.334065 -0.1777703 0
-5.895759 3.334065 -0.2277703 0
-5.845758 3.334065 -0.2277703 0
-5.845758 3.334065 -0.1777703 0
-5.795759 3.334065 -0.2277703 0
-5.795759 3.334065 -0.1777703 0
-5.745759 3.334065 -0.1777703 0
-5.795759 3.384065 -0.2277703 0
-5.745759 3.384065 -0.2277703 0
-5.745759 3.384065 -0.1277703 0
-5.695759 3.334065 -0.1777703 0
-5.645759 3.334065 -0.2277703 0
-5.645759 3.334065 -0.1777703 0
-5.645759 3.384065 -0.2277703 0
-5.595758 3.334065 -0.2277703 0
