# .PCD v0.7 - Point Cloud Data file format
VERSION 0.7
FIELDS x y z intensity
SIZE 4 4 4 4
TYPE F F F F
COUNT 1 1 1 1
WIDTH 1565
HEIGHT 1
VIEWPOINT 0 0 0 1 0 0 0
POINTS 1565
DATA ascii
-36.49576 69.23406 -2.42777 0
-36.44576 69.18407 -2.32777 0
-36.44576 69.23406 -2.27777 0
-36.44576 69.28407 -2.57777 0
-36.44576 69.33407 -2.57777 0
-36.44576 69.38406 -2.57777 0
-36.44576 69.43407 -2.57777 0
-36.39576 69.28407 -2.57777 0
-36.44576 69.28407 -2.37777 0
-36.44576 69.28407 -2.32777 0
-36.44576 69.33407 -2.32777 0
-36.44576 69.33407 -2.27777 0
-36.49576 69.43407 -2.42777 0
-36.44576 69.38406 -2.37777 0
-36.44576 69.43407 -2.32777 0
-36.44576 69.13406 -2.22777 0
-36.44576 69.08407 -2.07777 0
-36.44576 69.18407 -2.07777 0
-36.44576 69.23406 -2.12777 0
-36.44576 69.13406 -2.02777 0
-36.44576 69.13406 -1.97777 0
-36.44576 69.13406 -1.87777 0
-36.44576 69.23406 -1.97777 0
-36.49576 69.23406 -1.92777 0
-36.44576 69.23406 -1.87777 0
-36.44576 69.28407 -2.12777 0
-36.44576 69.28407 -2.07777 0
-36.49576 69.43407 -2.07777 0
-36.44576 69.38406 -2.12777 0
-36.44576 69.38406 -2.07777 0
-36.49576 69.33407 -1.97777 0
-36.49576 69.33407 -1.87777 0
-36.49576 69.43407 -1.87777 0
-36.44576 69.48406 -2.62777 0
-36.44576 69.53407 -2.57777 0
-36.44576 69.58407 -2.62777 0
-36.44576 69.58407 -2.57777 0
-36.44576 69.63406 -2.62777 0
-36.44576 69.63406 -2.57777 0
-36.49576 69.58407 -2.47777 0
-36.44576 69.48406 -2.37777 0
-36.44576 69.48406 -2.27777 0
-36.44576 69.53407 -2.32777 0
-36.44576 69.58407 -2.37777 0
-36.44576 69.58407 -2.27777 0
-36.44576 69.68407 -2.62777 0
-36.44576 69.68407 -2.57777 0
-36.44576 69.73406 -2.62777 0
-36.44576 69.78407 -2.62777 0
-36.44576 69.78407 -2.57777 0
-36.44576 69.68407 -2.37777 0
-36.44576 69.68407 -2.32777 0
-36.44576 69.68407 -2.27777 0
-36.44576 69.83407 -2.37777 0
-36.44576 69.78407 -2.32777 0
-36.44576 69.78407 -2.27777 0
-36.49576 69.53407 -2.12777 0
-36.44576 69.58407 -2.12777 0
-36.44576 69.58407 -2.07777 0
-36.44576 69.48406 -1.97777 0
-36.49576 69.53407 -1.87777 0
-36.49576 69.63406 -1.97777 0
-36.44576 69.58407 -1.97777 0
-36.44576 69.58407 -1.87777 0
-36.49576 69.73406 -2.07777 0
-36.44576 69.73406 -2.12777 0
-36.49576 69.83407 -2.12777 0
-36.44576 69.83407 -2.07777 0
-36.44576 69.68407 -1.97777 0
-36.49576 69.73406 -1.87777 0
-36.44576 69.83407 -1.97777 0
-36.44576 69.83407 -1.87777 0
-36.44576 69.88406 -2.87777 0
-36.44576 69.98406 -2.87777 0
-36.44576 70.03407 -2.87777 0
-36.39576 69.88406 -2.87777 0
-36.39576 70.03407 -2.87777 0
-36.44576 70.08407 -2.87777 0
-36.44576 70.13406 -2.92777 0
-36.44576 70.13406 -2.87777 0
-36.44576 70.18407 -2.87777 0
-36.44576 70.23406 -2.92777 0
-36.44576 70.23406 -2.87777 0
-36.39576 70.08407 -2.87777 0
-36.39576 70.18407 -2.87777 0
-36.44576 70.28407 -2.92777 0
-36.44576 70.28407 -2.87777 0
-36.44576 70.33407 -2.92777 0
-36.44576 70.38406 -2.92777 0
-36.44576 70.38406 -2.87777 0
-36.44576 70.43407 -2.92777 0
-36.39576 70.28407 -2.92777 0
-36.44576 70.38406 -2.67777 0
-36.44576 70.48406 -2.92777 0
-36.44576 70.48406 -2.87777 0
-36.44576 70.53407 -2.92777 0
-36.44576 70.58407 -2.92777 0
-36.44576 70.63406 -2.92777 0
-36.39576 70.58407 -2.92777 0
-36.44576 70.48406 -2.67777 0
-36.44576 70.58407 -2.67777 0
-36.44576 70.63406 -2.67777 0
-36.44576 69.88406 -2.62777 0
-36.44576 69.93407 -2.62777 0
-36.44576 69.93407 -2.57777 0
-36.49576 69.93407 -2.52777 0
-36.44576 69.98406 -2.62777 0
-36.44576 70.03407 -2.62777 0
-36.44576 70.03407 -2.57777 0
-36.49576 69.88406 -2.42777 0
-36.44576 69.88406 -2.37777 0
-36.44576 69.88406 -2.32777 0
-36.44576 69.93407 -2.27777 0
-36.44576 69.98406 -2.37777 0
-36.44576 69.98406 -2.32777 0
-36.44576 70.03407 -2.27777 0
-36.44576 70.08407 -2.62777 0
-36.44576 70.18407 -2.62777 0
-36.44576 70.18407 -2.57777 0
-36.44576 70.23406 -2.62777 0
-36.49576 70.13406 -2.37777 0
-36.44576 70.08407 -2.32777 0
-36.44576 70.18407 -2.37777 0
-36.44576 70.18407 -2.32777 0
-36.44576 70.18407 -2.27777 0
-36.44576 69.88406 -2.12777 0
-36.44576 69.93407 -2.07777 0
-36.49576 70.03407 -2.12777 0
-36.44576 69.98406 -2.07777 0
-36.49576 69.93407 -1.97777 0
-36.49576 69.88406 -1.87777 0
-36.49576 69.93407 -1.87777 0
-36.49576 69.98406 -2.02777 0
-36.49576 70.03407 -1.87777 0
-36.49576 70.08407 -2.07777 0
-36.49576 70.13406 -2.12777 0
-36.49576 70.18407 -2.07777 0
-36.49576 70.23406 -2.12777 0
-36.49576 70.08407 -1.97777 0
-36.49576 70.13406 -1.87777 0
-36.49576 70.18407 -1.97777 0
-36.49576 70.23406 -1.87777 0
-36.44576 70.28407 -2.62777 0
-36.44576 70.28407 -2.57777 0
-36.44576 70.33407 -2.62777 0
-36.49576 70.28407 -2.52777 0
-36.49576 70.28407 -2.47777 0
-36.44576 70.38406 -2.62777 0
-36.44576 70.43407 -2.62777 0
-36.49576 70.28407 -2.37777 0
-36.44576 70.28407 -2.32777 0
-36.44576 70.33407 -2.27777 0
-36.49576 70.38406 -2.37777 0
-36.44576 70.38406 -2.37777 0
-36.44576 70.43407 -2.27777 0
-36.44576 70.48406 -2.62777 0
-36.44576 70.53407 -2.62777 0
-36.49576 70.58407 -2.57777 0
-36.49576 70.58407 -2.47777 0
-36.44576 70.48406 -2.37777 0
-36.44576 70.53407 -2.42777 0
-36.49576 70.58407 -2.42777 0
-36.44576 70.58407 -2.42777 0
-36.44576 70.58407 -2.37777 0
-36.44576 70.58407 -2.27777 0
-36.49576 70.28407 -2.12777 0
-36.44576 70.28407 -2.07777 0
-36.49576 70.38406 -2.07777 0
-36.44576 70.43407 -2.12777 0
-36.49576 70.28407 -2.02777 0
-36.49576 70.33407 -1.97777 0
-36.49576 70.28407 -1.87777 0
-36.49576 70.33407 -1.92777 0
-36.49576 70.43407 -1.97777 0
-36.49576 70.43407 -1.87777 0
-36.49576 70.48406 -2.07777 0
-36.49576 70.53407 -2.12777 0
-36.49576 70.63406 -2.17777 0
-36.49576 70.58407 -2.07777 0
-36.49576 70.53407 -1.87777 0
-36.49576 70.58407 -1.97777 0
-36.49576 70.63406 -1.87777 0
-36.54576 69.63406 -1.47777 0
-36.54576 69.48406 -1.27777 0
-36.54576 69.58407 -1.12777 0
-36.54576 69.33407 -0.9777703 0
-36.54576 69.28407 -0.9277703 0
-36.54576 69.28407 -0.8777703 0
-36.54576 69.33407 -0.8777703 0
-36.54576 69.33407 -0.6777703 0
-36.54576 69.43407 -0.7277703 0
-36.54576 69.43407 -0.6777703 0
-36.54576 69.13406 -0.6277703 0
-36.54576 69.08407 -0.4277703 0
-36.54576 69.23406 -0.4277703 0
-36.54576 69.33407 -0.4277703 0
-36.54576 69.33407 -0.3777703 0
-36.54576 69.43407 -0.4277703 0
-36.54576 69.48406 -0.8777703 0
-36.54576 69.63406 -1.02777 0
-36.54576 69.58407 -0.8777703 0
-36.54576 69.53407 -0.7277703 0
-36.54576 69.53407 -0.6777703 0
-36.54576 69.63406 -0.7277703 0
-36.54576 69.63406 -0.6777703 0
-36.54576 69.68407 -0.9777703 0
-36.54576 69.68407 -0.8777703 0
-36.54576 69.78407 -0.8777703 0
-36.54576 69.68407 -0.7277703 0
-36.54576 69.68407 -0.6777703 0
-36.54576 69.78407 -0.6777703 0
-36.54576 69.53407 -0.3777703 0
-36.54576 69.73406 -0.4777703 0
-36.54576 69.68407 -0.3777703 0
-36.59576 69.73406 -0.2777703 0
-36.54576 69.78407 -0.3777703 0
-36.54576 69.98406 -1.52777 0
-36.54576 69.93407 -1.32777 0
-36.54576 69.93407 -1.12777 0
-36.54576 70.08407 -1.12777 0
-36.54576 70.18407 -1.12777 0
-36.54576 70.63406 -1.77777 0
-36.54576 70.53407 -1.52777 0
-36.54576 70.63406 -1.62777 0
-36.54576 70.38406 -1.37777 0
-36.54576 70.43407 -1.32777 0
-36.54576 70.28407 -1.12777 0
-36.54576 70.33407 -1.12777 0
-36.54576 70.33407 -1.07777 0
-36.54576 70.58407 -1.37777 0
-36.54576 70.63406 -1.32777 0
-36.54576 70.48406 -1.12777 0
-36.54576 70.63406 -1.22777 0
-36.54576 70.58407 -1.12777 0
-36.54576 69.88406 -0.8777703 0
-36.54576 70.03407 -1.02777 0
-36.54576 69.93407 -0.7777703 0
-36.54576 69.88406 -0.6777703 0
-36.54576 69.98406 -0.7777703 0
-36.54576 69.98406 -0.6777703 0
-36.54576 70.03407 -0.6777703 0
-36.54576 70.13406 -0.9777703 0
-36.54576 70.08407 -0.8777703 0
-36.54576 70.23406 -0.9777703 0
-36.54576 70.18407 -0.9277703 0
-36.54576 70.18407 -0.8777703 0
-36.54576 70.23406 -0.9277703 0
-36.54576 70.08407 -0.6777703 0
-36.54576 70.13406 -0.6777703 0
-36.54576 70.23406 -0.8277704 0
-36.54576 70.18407 -0.6777703 0
-36.54576 70.23406 -0.6777703 0
-36.54576 70.03407 -0.5277703 0
-36.54576 69.88406 -0.3777703 0
-36.59576 69.98406 -0.3277703 0
-36.54576 70.03407 -0.3277703 0
-36.59576 70.13406 -0.2777703 0
-36.59576 70.23406 -0.3777703 0
-36.54576 70.18407 -0.3277703 0
-36.54576 70.28407 -0.8777703 0
-36.54576 70.33407 -0.9277703 0
-36.54576 70.33407 -0.8777703 0
-36.54576 70.38406 -0.9777703 0
-36.54576 70.43407 -0.9277703 0
-36.54576 70.43407 -0.8777703 0
-36.54576 70.38406 -0.8277704 0
-36.54576 70.48406 -0.9777703 0
-36.54576 70.48406 -0.8777703 0
-36.54576 70.53407 -0.9277703 0
-36.54576 70.63406 -0.9777703 0
-36.54576 70.58407 -0.8777703 0
-36.54576 70.63406 -0.9277703 0
-36.54576 70.28407 -0.6277703 0
-36.54576 70.38406 -0.6277703 0
-36.54576 70.38406 -0.5777703 0
-36.59576 70.28407 -0.3277703 0
-36.54576 70.28407 -0.3277703 0
-36.59576 70.43407 -0.2777703 0
-36.54576 70.43407 -0.2777703 0
-36.54576 70.48406 -0.6277703 0
-36.54576 70.53407 -0.6277703 0
-36.54576 70.58407 -0.6277703 0
-36.54576 70.63406 -0.6277703 0
-36.59576 70.48406 -0.4277703 0
-36.59576 70.48406 -0.3777703 0
-36.54576 70.53407 -0.2777703 0
-36.59576 70.63406 -0.3777703 0
-36.44576 69.13406 -1.77777 0
-36.49576 69.13406 -1.67777 0
-36.44576 69.18407 -1.77777 0
-36.49576 69.13406 -1.62777 0
-36.49576 69.13406 -1.52777 0
-36.49576 69.23406 -1.62777 0
-36.49576 69.23406 -1.52777 0
-36.49576 69.28407 -1.77777 0
-36.49576 69.28407 -1.67777 0
-36.49576 69.43407 -1.82777 0
-36.44576 69.38406 -1.77777 0
-36.49576 69.38406 -1.67777 0
-36.49576 69.33407 -1.62777 0
-36.49576 69.28407 -1.52777 0
-36.49576 69.43407 -1.62777 0
-36.49576 69.38406 -1.52777 0
-36.49576 69.08407 -1.37777 0
-36.49576 69.13406 -1.37777 0
-36.49576 69.13406 -1.27777 0
-36.49576 69.18407 -1.37777 0
-36.49576 69.23406 -1.37777 0
-36.49576 69.08407 -1.07777 0
-36.49576 69.13406 -1.12777 0
-36.49576 69.23406 -1.22777 0
-36.49576 69.18407 -1.07777 0
-36.49576 69.28407 -1.42777 0
-36.49576 69.28407 -1.37777 0
-36.49576 69.33407 -1.37777 0
-36.49576 69.43407 -1.37777 0
-36.49576 69.38406 -1.32777 0
-36.49576 69.38406 -1.27777 0
-36.49576 69.33407 -1.22777 0
-36.49576 69.28407 -1.12777 0
-36.49576 69.33407 -1.12777 0
-36.49576 69.43407 -1.12777 0
-36.49576 69.48406 -1.77777 0
-36.49576 69.53407 -1.77777 0
-36.49576 69.48406 -1.67777 0
-36.49576 69.53407 -1.62777 0
-36.49576 69.48406 -1.52777 0
-36.49576 69.58407 -1.62777 0
-36.49576 69.63406 -1.62777 0
-36.49576 69.58407 -1.52777 0
-36.49576 69.68407 -1.77777 0
-36.44576 69.83407 -1.77777 0
-36.49576 69.73406 -1.62777 0
-36.49576 69.68407 -1.52777 0
-36.49576 69.83407 -1.62777 0
-36.49576 69.83407 -1.52777 0
-36.49576 69.53407 -1.37777 0
-36.49576 69.48406 -1.32777 0
-36.49576 69.63406 -1.37777 0
-36.49576 69.63406 -1.32777 0
-36.49576 69.48406 -1.22777 0
-36.49576 69.58407 -1.22777 0
-36.49576 69.63406 -1.12777 0
-36.49576 69.73406 -1.37777 0
-36.49576 69.73406 -1.32777 0
-36.49576 69.73406 -1.22777 0
-36.49576 69.78407 -1.12777 0
-36.49576 69.13406 -0.9777703 0
-36.49576 69.23406 -0.9777703 0
-36.49576 69.08407 -0.7277703 0
-36.49576 69.18407 -0.8277704 0
-36.49576 69.18407 -0.7277703 0
-36.49576 69.28407 -1.02777 0
-36.49576 69.38406 -1.02777 0
-36.49576 69.43407 -0.9777703 0
-36.49576 69.28407 -0.6777703 0
-36.49576 69.33407 -0.7277703 0
-36.49576 69.53407 -1.02777 0
-36.49576 69.53407 -0.9777703 0
-36.49576 69.58407 -0.9777703 0
-36.49576 69.73406 -1.02777 0
-36.49576 69.73406 -0.9777703 0
-36.49576 69.93407 -1.77777 0
-36.49576 70.03407 -1.77777 0
-36.49576 69.93407 -1.62777 0
-36.49576 69.93407 -1.52777 0
-36.49576 70.03407 -1.62777 0
-36.49576 70.03407 -1.52777 0
-36.49576 70.13406 -1.77777 0
-36.49576 70.23406 -1.77777 0
-36.49576 70.08407 -1.62777 0
-36.49576 70.13406 -1.52777 0
-36.49576 70.18407 -1.62777 0
-36.49576 70.23406 -1.62777 0
-36.49576 70.23406 -1.52777 0
-36.49576 69.88406 -1.37777 0
-36.49576 69.93407 -1.37777 0
-36.49576 69.88406 -1.32777 0
-36.49576 70.03407 -1.37777 0
-36.49576 69.98406 -1.32777 0
-36.49576 69.88406 -1.22777 0
-36.49576 69.93407 -1.22777 0
-36.49576 69.88406 -1.12777 0
-36.49576 70.03407 -1.22777 0
-36.49576 70.08407 -1.32777 0
-36.49576 70.18407 -1.37777 0
-36.49576 70.23406 -1.37777 0
-36.49576 70.23406 -1.32777 0
-36.49576 70.13406 -1.22777 0
-36.49576 70.23406 -1.22777 0
-36.49576 70.28407 -1.77777 0
-36.49576 70.38406 -1.77777 0
-36.49576 70.28407 -1.57777 0
-36.49576 70.33407 -1.62777 0
-36.49576 70.33407 -1.52777 0
-36.49576 70.43407 -1.62777 0
-36.49576 70.43407 -1.52777 0
-36.49576 70.48406 -1.77777 0
-36.49576 70.58407 -1.77777 0
-36.49576 70.48406 -1.62777 0
-36.49576 70.53407 -1.62777 0
-36.49576 70.58407 -1.62777 0
-36.49576 70.63406 -1.62777 0
-36.49576 70.63406 -1.47777 0
-36.49576 70.33407 -1.37777 0
-36.49576 70.33407 -1.32777 0
-36.49576 70.43407 -1.37777 0
-36.49576 70.33407 -1.22777 0
-36.49576 70.43407 -1.22777 0
-36.49576 70.48406 -1.27777 0
-36.49576 70.63406 -1.37777 0
-36.49576 70.63406 -1.27777 0
-36.49576 70.53407 -1.22777 0
-36.49576 69.88406 -1.02777 0
-36.49576 69.88406 -0.9777703 0
-36.49576 69.98406 -1.02777 0
-36.49576 69.98406 -0.9277703 0
-36.49576 69.98406 -0.8777703 0
-36.49576 70.08407 -0.9277703 0
-36.84576 70.88406 -3.02777 0
-36.69576 70.93407 -3.02777 0
-36.59576 70.98406 -3.02777 0
-36.54576 71.08407 -3.02777 0
-36.54576 70.68407 -1.87777 0
-36.54576 70.93407 -1.97777 0
-36.44576 70.68407 -2.92777 0
-36.44576 70.73406 -2.92777 0
-36.44576 70.78407 -2.92777 0
-36.44576 70.83407 -2.92777 0
-36.44576 70.68407 -2.67777 0
-36.44576 70.73406 -2.67777 0
-36.49576 70.83407 -2.67777 0
-36.44576 70.83407 -2.67777 0
-36.44576 70.88406 -2.92777 0
-36.44576 70.93407 -2.92777 0
-36.44576 70.98406 -2.92777 0
-36.39576 70.93407 -2.92777 0
-36.39576 70.98406 -2.92777 0
-36.44576 70.88406 -2.67777 0
-36.44576 70.93407 -2.67777 0
-36.44576 70.98406 -2.67777 0
-36.24576 70.93407 -2.92777 0
-36.19576 70.93407 -2.97777 0
-36.44576 71.13406 -3.02777 0
-36.39576 71.33407 -3.02777 0
-36.04576 70.93407 -2.97777 0
-36.04576 70.93407 -2.92777 0
-36.04576 70.98406 -2.92777 0
-35.89576 70.93407 -2.92777 0
-35.84576 70.93407 -2.92777 0
-35.74576 70.98406 -2.92777 0
-36.44576 70.68407 -2.62777 0
-36.49576 70.68407 -2.52777 0
-36.49576 70.78407 -2.62777 0
-36.44576 70.78407 -2.62777 0
-36.44576 70.83407 -2.62777 0
-36.44576 70.68407 -2.42777 0
-36.44576 70.68407 -2.37777 0
-36.44576 70.68407 -2.27777 0
-36.49576 70.83407 -2.42777 0
-36.44576 70.78407 -2.42777 0
-36.44576 70.78407 -2.37777 0
-36.49576 70.83407 -2.27777 0
-36.49576 70.88406 -2.57777 0
-36.44576 70.93407 -2.62777 0
-36.49576 70.88406 -2.52777 0
-36.44576 70.93407 -2.52777 0
-36.44576 70.93407 -2.47777 0
-36.34576 70.93407 -2.57777 0
-36.39576 70.88406 -2.52777 0
-36.39576 70.93407 -2.52777 0
-36.39576 70.93407 -2.47777 0
-36.34576 70.93407 -2.52777 0
-36.49576 70.88406 -2.37777 0
-36.49576 70.93407 -2.42777 0
-36.49576 71.03407 -2.42777 0
-36.44576 70.98406 -2.37777 0
-36.24576 70.93407 -2.62777 0
-36.24576 70.88406 -2.47777 0
-36.24576 70.93407 -2.52777 0
-36.24576 70.93407 -2.47777 0
-36.19576 70.93407 -2.57777 0
-36.14576 70.88406 -2.52777 0
-36.49576 70.68407 -2.17777 0
-36.49576 70.68407 -2.07777 0
-36.49576 70.78407 -2.17777 0
-36.49576 70.83407 -2.22777 0
-36.49576 70.83407 -2.17777 0
-36.49576 70.78407 -2.07777 0
-36.49576 70.73406 -1.97777 0
-36.49576 70.68407 -1.87777 0
-36.49576 70.83407 -1.97777 0
-36.49576 70.83407 -1.92777 0
-36.49576 70.93407 -2.17777 0
-36.44576 70.93407 -2.22777 0
-36.49576 70.88406 -2.07777 0
-36.49576 70.93407 -2.12777 0
-36.49576 71.03407 -2.17777 0
-36.49576 70.98406 -2.07777 0
-36.39576 70.93407 -2.12777 0
-36.44576 70.93407 -1.97777 0
-36.49576 70.93407 -1.92777 0
-36.44576 70.93407 -1.92777 0
-36.44576 70.93407 -1.87777 0
-36.49576 71.03407 -1.92777 0
-36.39576 70.93407 -1.97777 0
-36.34576 70.93407 -1.97777 0
-36.29576 70.93407 -2.17777 0
-36.14576 70.98406 -2.17777 0
-36.19576 70.98406 -2.07777 0
-36.29576 70.93407 -1.97777 0
-36.24576 70.93407 -1.97777 0
-36.24576 70.93407 -1.92777 0
-36.24576 70.93407 -1.87777 0
-36.19576 70.93407 -1.97777 0
-36.09576 70.93407 -2.57777 0
-36.04576 70.93407 -2.57777 0
-36.09576 70.93407 -2.52777 0
-36.04576 70.93407 -2.52777 0
-36.04576 70.93407 -2.47777 0
-35.94576 70.93407 -2.57777 0
-36.04576 70.93407 -2.42777 0
-35.89576 70.88406 -2.47777 0
-35.89576 70.93407 -2.52777 0
-35.89576 70.93407 -2.47777 0
-35.84576 70.93407 -2.52777 0
-35.79576 70.93407 -2.57777 0
-35.74576 70.93407 -2.47777 0
-35.84576 70.93407 -2.42777 0
-36.04576 70.98406 -2.07777 0
-35.99576 70.93407 -2.17777 0
-36.09576 70.93407 -1.97777 0
-36.09576 70.93407 -1.92777 0
-36.09576 70.98406 -1.97777 0
-36.09576 70.98406 -1.87777 0
-35.94576 70.93407 -1.97777 0
-35.94576 70.98406 -1.97777 0
-35.89576 70.98406 -2.07777 0
-35.79576 70.93407 -2.17777 0
-35.89576 70.93407 -1.97777 0
-35.89576 70.93407 -1.92777 0
-35.89576 70.98406 -1.87777 0
-35.74576 70.93407 -1.97777 0
-35.79576 70.93407 -1.92777 0
-35.74576 70.98406 -1.92777 0
-35.74576 70.98406 -1.87777 0
-36.39576 71.73406 -3.07777 0
-36.39576 71.53407 -3.02777 0
-36.39576 71.93407 -3.07777 0
-36.39576 72.13406 -3.07777 0
-36.54576 70.83407 -1.77777 0
-36.54576 70.93407 -1.67777 0
-36.54576 71.03407 -1.62777 0
-36.54576 70.98406 -1.47777 0
-36.54576 70.73406 -1.37777 0
-36.54576 70.68407 -1.32777 0
-36.54576 70.68407 -1.27777 0
-36.54576 70.73406 -1.27777 0
-36.54576 70.78407 -1.42777 0
-36.54576 70.83407 -1.37777 0
-36.54576 70.73406 -1.22777 0
-36.54576 70.68407 -1.12777 0
-36.54576 70.73406 -1.12777 0
-36.54576 70.83407 -1.17777 0
-36.54576 70.83407 -1.12777 0
-36.54576 70.88406 -1.37777 0
-36.54576 70.98406 -1.37777 0
-36.54576 70.93407 -1.17777 0
-36.54576 70.93407 -1.12777 0
-36.54576 70.98406 -1.17777 0
-36.54576 71.03407 -1.17777 0
-36.54576 70.98406 -1.12777 0
-36.54576 71.08407 -1.37777 0
-36.54576 71.08407 -1.12777 0
-36.54576 70.68407 -0.9277703 0
-36.54576 70.68407 -0.8777703 0
-36.54576 70.73406 -0.9277703 0
-36.54576 70.78407 -0.9277703 0
-36.54576 70.83407 -0.9277703 0
-36.59576 70.73406 -0.7777703 0
-36.59576 70.68407 -0.6777703 0
-36.59576 70.73406 -0.6777703 0
-36.54576 70.78407 -0.8277704 0
-36.54576 70.88406 -0.9777703 0
-36.54576 70.88406 -0.8777703 0
-36.54576 70.93407 -0.9277703 0
-36.54576 70.98406 -0.8777703 0
-36.54576 71.03407 -0.9277703 0
-36.54576 70.88406 -0.8277704 0
-36.54576 71.03407 -0.8277704 0
-36.54576 70.98406 -0.7277703 0
-36.54576 70.68407 -0.6277703 0
-36.59576 70.68407 -0.4777703 0
-36.54576 70.78407 -0.6277703 0
-36.54576 70.68407 -0.2777703 0
-36.59576 70.83407 -0.4277703 0
-36.59576 70.83407 -0.3777703 0
-36.59576 70.78407 -0.2777703 0
-36.54576 70.88406 -0.5777703 0
-36.54576 70.93407 -0.5777703 0
-36.59576 70.93407 -0.5277703 0
-36.54576 70.98406 -0.5777703 0
-36.59576 70.98406 -0.4777703 0
-36.59576 71.03407 -0.3777703 0
-36.59576 71.03407 -0.2777703 0
-36.54576 71.08407 -0.8777703 0
-36.54576 71.08407 -0.8277704 0
-36.54576 71.08407 -0.5777703 0
-36.49576 70.68407 -1.77777 0
-36.49576 70.83407 -1.77777 0
-36.49576 70.73406 -1.62777 0
-36.49576 70.73406 -1.47777 0
-36.49576 70.83407 -1.62777 0
-36.49576 70.83407 -1.47777 0
-36.49576 70.93407 -1.77777 0
-36.49576 71.03407 -1.77777 0
-36.44576 70.98406 -1.82777 0
-36.49576 70.88406 -1.62777 0
-36.49576 70.93407 -1.47777 0
-36.49576 70.98406 -1.62777 0
-36.49576 71.03407 -1.47777 0
-36.44576 70.98406 -1.47777 0
-36.39576 70.98406 -1.62777 0
-36.29576 70.98406 -1.77777 0
-36.14576 70.98406 -1.77777 0
-36.24576 70.98406 -1.62777 0
-36.29576 70.98406 -1.47777 0
-36.49576 70.88406 -1.27777 0
-36.49576 70.98406 -1.37777 0
-36.44576 70.98406 -1.42777 0
-36.44576 70.98406 -1.37777 0
-36.49576 70.98406 -1.32777 0
-36.39576 70.98406 -1.42777 0
-36.34576 71.03407 -1.37777 0
-36.39576 70.98406 -1.17777 0
-36.29576 70.98406 -1.42777 0
-36.29576 70.98406 -1.37777 0
-36.29576 70.98406 -1.27777 0
-36.19576 70.98406 -1.42777 0
-36.14576 70.98406 -1.42777 0
-36.14576 70.98406 -1.37777 0
-36.24576 71.03407 -1.17777 0
-35.99576 70.98406 -1.77777 0
-36.04576 70.98406 -1.62777 0
-35.84576 70.98406 -1.72777 0
-35.89576 70.98406 -1.62777 0
-35.74576 70.98406 -1.57777 0
-36.09576 70.98406 -1.42777 0
-36.09576 70.98406 -1.37777 0
-36.09576 70.98406 -1.27777 0
-35.94576 70.98406 -1.42777 0
-35.99576 70.98406 -1.32777 0
-35.94576 70.98406 -1.32777 0
-36.09576 70.98406 -1.12777 0
-35.89576 70.98406 -1.27777 0
-35.84576 70.98406 -1.32777 0
-35.79576 70.98406 -1.42777 0
-35.74576 70.98406 -1.42777 0
-35.74576 70.98406 -1.32777 0
-35.89576 71.03407 -1.12777 0
-35.74576 71.03407 -1.12777 0
-36.49576 71.03407 -0.9777703 0
-36.49576 71.03407 -0.9277703 0
-36.49576 71.03407 -0.8777703 0
-36.44576 70.98406 -0.9277703 0
-36.34576 71.03407 -0.9777703 0
-36.39576 71.03407 -0.9277703 0
-36.49576 71.03407 -0.8277704 0
-36.49576 71.03407 -0.7277703 0
-36.44576 71.03407 -0.7277703 0
-36.29576 70.98406 -0.9277703 0
-36.29576 71.03407 -0.9277703 0
-36.29576 71.03407 -0.8777703 0
-36.24576 71.03407 -0.9277703 0
-36.19576 71.03407 -0.9277703 0
-36.14576 70.98406 -0.8777703 0
-36.14576 71.03407 -0.9277703 0
-36.29576 71.03407 -0.8277704 0
-36.29576 71.03407 -0.7277703 0
-36.24576 71.03407 -0.6777703 0
-36.14576 71.03407 -0.8277704 0
-36.14576 71.03407 -0.6777703 0
-36.49576 71.03407 -0.5777703 0
-36.49576 71.03407 -0.4777703 0
-36.34576 71.03407 -0.5277703 0
-36.49576 71.03407 -0.4277703 0
-36.49576 71.03407 -0.3777703 0
-36.49576 71.03407 -0.3277703 0
-36.49576 71.03407 -0.2777703 0
-36.39576 71.03407 -0.3777703 0
-36.34576 71.03407 -0.4277703 0
-36.34576 71.03407 -0.3777703 0
-36.34576 71.03407 -0.3277703 0
-36.19576 71.03407 -0.5277703 0
-36.29576 71.03407 -0.3777703 0
-36.24576 71.03407 -0.3777703 0
-36.19576 71.03407 -0.4277703 0
-36.14576 71.03407 -0.3777703 0
-36.19576 71.08407 -0.3277703 0
-36.04576 71.03407 -0.9277703 0
-35.99576 71.03407 -0.8777703 0
-35.94576 70.98406 -0.8777703 0
-35.94576 71.03407 -0.8777703 0
-36.09576 71.03407 -0.6777703 0
-35.94576 71.03407 -0.7777703 0
-35.94576 71.03407 -0.6777703 0
-35.89576 71.03407 -0.8777703 0
-35.79576 71.03407 -0.8777703 0
-35.74576 71.03407 -0.8777703 0
-35.89576 71.03407 -0.7277703 0
-35.74576 71.03407 -0.7777703 0
-35.74576 71.03407 -0.7277703 0
-35.74576 71.03407 -0.6777703 0
-36.04576 71.03407 -0.4777703 0
-35.99576 71.03407 -0.3777703 0
-35.99576 71.03407 -0.3277703 0
-35.74576 71.03407 -0.6277703 0
-35.84576 71.03407 -0.3277703 0
-35.74576 71.03407 -0.4277703 0
-35.79576 71.03407 -0.3277703 0
-36.09576 71.08407 -0.3777703 0
-35.89576 71.08407 -0.4777703 0
-35.89576 71.08407 -0.3777703 0
-35.74576 71.08407 -0.3277703 0
-34.29576 59.58406 -2.27777 0
-34.29576 59.63407 -2.32777 0
-34.29576 59.68407 -2.27777 0
-34.29576 59.73407 -2.27777 0
-34.29576 59.78407 -2.27777 0
-34.29576 59.83406 -2.32777 0
-34.29576 59.83406 -2.27777 0
-34.34576 59.68407 -1.87777 0
-34.34576 59.73407 -1.92777 0
-34.29576 59.48407 -2.22777 0
-34.29576 59.53407 -2.22777 0
-34.24576 59.48407 -2.17777 0
-34.29576 59.58406 -2.22777 0
-34.29576 59.58406 -2.17777 0
-34.29576 59.63407 -2.22777 0
-34.29576 59.63407 -2.17777 0
-34.29576 59.48407 -1.92777 0
-34.29576 59.48407 -1.87777 0
-34.29576 59.53407 -1.87777 0
-34.29576 59.58406 -1.92777 0
-34.29576 59.58406 -1.87777 0
-34.29576 59.63407 -1.87777 0
-34.29576 59.68407 -2.22777 0
-34.29576 59.68407 -2.17777 0
-34.29576 59.73407 -2.22777 0
-34.24576 59.73407 -2.22777 0
-34.29576 59.78407 -2.22777 0
-34.29576 59.83406 -2.22777 0
-34.29576 59.83406 -2.17777 0
-34.24576 59.83406 -2.22777 0
-34.29576 59.68407 -1.92777 0
-34.29576 59.73407 -1.92777 0
-34.29576 59.73407 -1.87777 0
-34.29576 59.78407 -1.92777 0
-34.29576 59.83406 -1.92777 0
-34.29576 59.83406 -1.87777 0
-34.29576 59.88407 -2.32777 0
-34.29576 59.93407 -2.27777 0
-34.29576 59.98407 -2.27777 0
-34.29576 60.03407 -2.32777 0
-34.29576 60.03407 -2.27777 0
-34.29576 60.08406 -2.37777 0
-34.29576 60.08406 -2.27777 0
-34.29576 60.13407 -2.27777 0
-34.29576 60.18407 -2.32777 0
-34.29576 60.18407 -2.27777 0
-34.29576 60.23407 -2.27777 0
-34.34576 59.88407 -1.87777 0
-34.34576 59.93407 -1.92777 0
-34.34576 59.98407 -1.92777 0
-34.34576 60.03407 -1.92777 0
-34.34576 60.13407 -1.92777 0
-34.34576 60.13407 -1.87777 0
-34.34576 60.18407 -1.92777 0
-34.34576 60.23407 -1.92777 0
-34.29576 59.88407 -2.22777 0
-34.29576 59.93407 -2.22777 0
-34.29576 59.98407 -2.22777 0
-34.29576 59.98407 -2.17777 0
-34.29576 60.03407 -2.22777 0
-34.29576 59.88407 -1.92777 0
-34.29576 59.93407 -1.92777 0
-34.29576 59.98407 -1.87777 0
-34.29576 60.03407 -1.92777 0
-34.29576 60.08406 -2.22777 0
-34.29576 60.13407 -2.22777 0
-34.29576 60.18407 -2.22777 0
-34.29576 60.08406 -1.92777 0
-34.29576 60.08406 -1.87777 0
-34.29576 60.13407 -1.92777 0
-34.29576 60.18407 -1.92777 0
-34.29576 60.18407 -1.87777 0
-34.29576 60.23407 -1.92777 0
-34.34576 60.33406 -2.37777 0
-34.34576 60.43407 -2.27777 0
-34.34576 60.53407 -2.32777 0
-34.29576 60.28407 -2.27777 0
-34.29576 60.33406 -2.32777 0
-34.29576 60.33406 -2.27777 0
-34.29576 60.38407 -2.37777 0
-34.29576 60.38407 -2.27777 0
-34.29576 60.43407 -2.32777 0
-34.29576 60.43407 -2.27777 0
-34.29576 60.53407 -2.37777 0
-34.29576 60.48407 -2.27777 0
-34.29576 60.53407 -2.27777 0
-34.29576 60.58406 -2.32777 0
-34.29576 60.58406 -2.27777 0
-34.29576 60.63407 -2.32777 0
-34.29576 60.63407 -2.27777 0
-34.34576 60.33406 -1.97777 0
-34.34576 60.28407 -1.92777 0
-34.34576 60.33406 -1.92777 0
-34.34576 60.33406 -1.87777 0
-34.34576 60.43407 -1.97777 0
-34.34576 60.38407 -1.92777 0
-34.34576 60.43407 -1.87777 0
-34.34576 60.48407 -1.97777 0
-34.34576 60.53407 -1.92777 0
-34.34576 60.58406 -1.97777 0
-34.34576 60.63407 -1.97777 0
-34.34576 60.58406 -1.92777 0
-34.29576 60.28407 -2.22777 0
-34.29576 60.33406 -2.22777 0
-34.29576 60.43407 -2.22777 0
-34.29576 60.28407 -1.92777 0
-34.29576 60.33406 -1.87777 0
-34.29576 60.38407 -1.97777 0
-34.29576 60.38407 -1.92777 0
-34.29576 60.43407 -1.87777 0
-34.29576 60.48407 -2.22777 0
-34.29576 60.53407 -2.22777 0
-34.29576 60.53407 -1.97777 0
-34.29576 60.48407 -1.92777 0
-34.34576 60.73407 -2.32777 0
-34.34576 60.93407 -2.42777 0
-34.34576 60.93407 -2.37777 0
-34.34576 61.03407 -2.32777 0
-34.29576 60.73407 -2.37777 0
-34.29576 60.68407 -2.27777 0
-34.29576 60.73407 -2.32777 0
-34.29576 60.73407 -2.27777 0
-34.29576 60.78407 -2.27777 0
-34.29576 60.83406 -2.32777 0
-34.29576 60.83406 -2.27777 0
-34.29576 60.88407 -2.37777 0
-34.29576 60.88407 -2.32777 0
-34.29576 60.88407 -2.27777 0
-34.29576 60.93407 -2.32777 0
-34.29576 60.93407 -2.27777 0
-34.29576 61.03407 -2.37777 0
-34.29576 60.98407 -2.32777 0
-34.29576 60.98407 -2.27777 0
-34.29576 61.03407 -2.27777 0
-34.34576 60.73407 -1.97777 0
-34.34576 60.73407 -1.87777 0
-34.34576 60.78407 -1.97777 0
-34.34576 60.83406 -1.97777 0
-34.34576 60.78407 -1.92777 0
-34.34576 60.88407 -1.97777 0
-34.34576 60.93407 -1.97777 0
-34.34576 60.98407 -1.97777 0
-34.34576 61.03407 -1.97777 0
-34.34576 60.98407 -1.92777 0
-34.34576 61.03407 -1.92777 0
-34.29576 60.68407 -2.22777 0
-34.29576 60.83406 -2.22777 0
-34.29576 60.68407 -1.97777 0
-34.29576 60.68407 -1.92777 0
-34.29576 60.78407 -1.92777 0
-34.29576 60.88407 -1.97777 0
-34.29576 60.93407 -1.92777 0
-34.29576 60.98407 -1.97777 0
-34.29576 60.98407 -1.87777 0
-34.34576 59.58406 -1.82777 0
-34.34576 59.63407 -1.82777 0
-34.34576 59.53407 -1.57777 0
-34.34576 59.48407 -1.52777 0
-34.34576 59.48407 -1.47777 0
-34.34576 59.58406 -1.57777 0
-34.34576 59.63407 -1.57777 0
-34.34576 59.58406 -1.52777 0
-34.34576 59.63407 -1.52777 0
-34.34576 59.73407 -1.57777 0
-34.34576 59.68407 -1.47777 0
-34.34576 59.78407 -1.57777 0
-34.34576 59.83406 -1.57777 0
-34.34576 59.78407 -1.52777 0
-34.29576 59.48407 -1.77777 0
-34.29576 59.58406 -1.82777 0
-34.29576 59.48407 -1.57777 0
-34.29576 59.53407 -1.52777 0
-34.29576 59.63407 -1.52777 0
-34.29576 59.68407 -1.82777 0
-34.29576 59.68407 -1.77777 0
-34.29576 59.83406 -1.82777 0
-34.29576 59.83406 -1.77777 0
-34.29576 59.68407 -1.57777 0
-34.29576 59.73407 -1.57777 0
-34.29576 59.83406 -1.57777 0
-34.34576 59.48407 -1.42777 0
-34.34576 59.53407 -1.27777 0
-34.34576 59.63407 -1.27777 0
-34.34576 59.48407 -1.22777 0
-34.34576 59.48407 -1.17777 0
-34.34576 59.53407 -1.22777 0
-34.34576 59.53407 -1.17777 0
-34.34576 59.48407 -1.07777 0
-34.34576 59.58406 -1.22777 0
-34.34576 59.63407 -1.22777 0
-34.34576 59.63407 -1.17777 0
-34.34576 59.63407 -1.12777 0
-34.34576 59.63407 -1.07777 0
-34.34576 59.68407 -1.37777 0
-34.34576 59.73407 -1.27777 0
-34.34576 59.83406 -1.27777 0
-34.34576 59.68407 -1.22777 0
-34.34576 59.68407 -1.17777 0
-34.34576 59.73407 -1.22777 0
-34.34576 59.73407 -1.07777 0
-34.34576 59.78407 -1.22777 0
-34.34576 59.78407 -1.17777 0
-34.34576 59.78407 -1.12777 0
-34.29576 59.48407 -1.42777 0
-34.29576 59.53407 -1.37777 0
-34.29576 59.58406 -1.42777 0
-34.29576 59.68407 -1.37777 0
-34.29576 59.73407 -1.42777 0
-34.29576 59.83406 -1.37777 0
-34.34576 59.88407 -1.82777 0
-34.34576 59.88407 -1.57777 0
-34.34576 59.93407 -1.62777 0
-34.34576 59.88407 -1.52777 0
-34.34576 59.88407 -1.47777 0
-34.34576 59.93407 -1.52777 0
-34.34576 59.98407 -1.57777 0
-34.34576 60.03407 -1.62777 0
-34.34576 59.98407 -1.52777 0
-34.34576 60.18407 -1.82777 0
-34.34576 60.08406 -1.57777 0
-34.34576 60.13407 -1.62777 0
-34.34576 60.08406 -1.52777 0
-34.34576 60.08406 -1.47777 0
-34.34576 60.18407 -1.57777 0
-34.34576 60.23407 -1.62777 0
-34.34576 60.23407 -1.57777 0
-34.34576 60.23407 -1.52777 0
-34.29576 59.98407 -1.82777 0
-34.29576 59.98407 -1.77777 0
-34.29576 60.13407 -1.77777 0
-34.34576 59.88407 -1.42777 0
-34.34576 59.88407 -1.37777 0
-34.34576 59.88407 -1.27777 0
-34.34576 59.93407 -1.27777 0
-34.34576 59.98407 -1.42777 0
-34.34576 60.03407 -1.37777 0
-34.34576 59.98407 -1.27777 0
-34.34576 60.03407 -1.27777 0
-34.34576 59.88407 -1.22777 0
-34.34576 59.88407 -1.17777 0
-34.34576 59.88407 -1.07777 0
-34.34576 59.93407 -1.12777 0
-34.34576 59.98407 -1.22777 0
-34.34576 59.98407 -1.17777 0
-34.34576 60.03407 -1.07777 0
-34.34576 60.13407 -1.42777 0
-34.34576 60.08406 -1.27777 0
-34.34576 60.13407 -1.27777 0
-34.34576 60.18407 -1.37777 0
-34.34576 60.18407 -1.27777 0
-34.34576 60.23407 -1.32777 0
-34.34576 60.08406 -1.17777 0
-34.34576 60.13407 -1.22777 0
-34.34576 60.13407 -1.17777 0
-34.39576 60.08406 -1.07777 0
-34.39576 60.23407 -1.22777 0
-34.34576 60.23407 -1.17777 0
-34.34576 59.53407 -0.9777703 0
-34.34576 59.48407 -0.9277703 0
-34.34576 59.53407 -0.9277703 0
-34.34576 59.58406 -0.9277703 0
-34.34576 59.63407 -0.9277703 0
-34.39576 59.53407 -0.8277704 0
-34.39576 59.48407 -0.6777703 0
-34.34576 59.48407 -0.6777703 0
-34.34576 59.58406 -0.8277704 0
-34.34576 59.63407 -0.8277704 0
-34.39576 59.63407 -0.6777703 0
-34.34576 59.73407 -1.02777 0
-34.34576 59.73407 -0.9777703 0
-34.39576 59.68407 -0.9277703 0
-34.39576 59.68407 -0.8777703 0
-34.34576 59.68407 -0.9277703 0
-34.39576 59.83406 -0.9777703 0
-34.34576 59.78407 -0.9277703 0
-34.34576 59.83406 -0.9277703 0
-34.34576 59.68407 -0.8277704 0
-34.39576 59.68407 -0.7277703 0
-34.39576 59.78407 -0.8277704 0
-34.34576 59.78407 -0.8277704 0
-34.39576 59.83406 -0.7277703 0
-34.34576 59.78407 -0.6777703 0
-34.39576 59.48407 -0.6277703 0
-34.39576 59.48407 -0.5777703 0
-34.39576 59.48407 -0.4777703 0
-34.39576 59.53407 -0.5277703 0
-34.34576 59.53407 -0.5277703 0
-34.39576 59.58406 -0.6277703 0
-34.39576 59.58406 -0.5777703 0
-34.39576 59.63407 -0.5777703 0
-34.39576 59.58406 -0.4777703 0
-34.39576 59.53407 -0.4277703 0
-34.39576 59.48407 -0.3277703 0
-34.39576 59.48407 -0.2777703 0
-34.39576 59.53407 -0.2777703 0
-34.39576 59.58406 -0.2777703 0
-34.39576 59.63407 -0.2777703 0
-34.39576 59.68407 -0.6277703 0
-34.39576 59.68407 -0.5777703 0
-34.39576 59.73407 -0.5777703 0
-34.39576 59.68407 -0.5277703 0
-34.39576 59.68407 -0.4777703 0
-34.39576 59.78407 -0.6277703 0
-34.39576 59.78407 -0.5777703 0
-34.39576 59.83406 -0.5777703 0
-34.39576 59.78407 -0.4777703 0
-34.39576 59.73407 -0.3777703 0
-34.39576 59.68407 -0.3277703 0
-34.39576 59.68407 -0.2777703 0
-34.39576 59.73407 -0.2777703 0
-34.39576 59.78407 -0.3277703 0
-34.39576 59.78407 -0.2777703 0
-34.39576 59.83406 -0.3277703 0
-34.39576 59.83406 -0.2777703 0
-34.34576 59.88407 -1.02777 0
-34.34576 59.93407 -0.9777703 0
-34.39576 59.88407 -0.8777703 0
-34.39576 59.93407 -0.8777703 0
-34.34576 59.88407 -0.9277703 0
-34.34576 60.03407 -0.9777703 0
-34.34576 59.98407 -0.9277703 0
-34.34576 59.98407 -0.8777703 0
-34.34576 60.03407 -0.9277703 0
-34.34576 59.88407 -0.8277704 0
-34.34576 59.88407 -0.6777703 0
-34.39576 60.03407 -0.8277704 0
-34.39576 59.98407 -0.7277703 0
-34.39576 60.03407 -0.6777703 0
-34.34576 60.13407 -0.9777703 0
-34.39576 60.13407 -0.9277703 0
-34.39576 60.13407 -0.8777703 0
-34.34576 60.08406 -0.9277703 0
-34.39576 60.23407 -0.9777703 0
-34.34576 60.18407 -0.9777703 0
-34.34576 60.18407 -0.9277703 0
-34.34576 60.23407 -0.8777703 0
-34.39576 60.13407 -0.8277704 0
-34.39576 60.13407 -0.7777703 0
-34.39576 60.23407 -0.7777703 0
-34.34576 60.23407 -0.8277704 0
-34.39576 60.18407 -0.6777703 0
-34.39576 59.88407 -0.6277703 0
-34.39576 59.88407 -0.5777703 0
-34.39576 59.93407 -0.5777703 0
-34.39576 59.88407 -0.5277703 0
-34.39576 59.93407 -0.4777703 0
-34.39576 59.98407 -0.6277703 0
-34.39576 60.03407 -0.5777703 0
-34.39576 60.03407 -0.5277703 0
-34.39576 60.03407 -0.4777703 0
-34.39576 59.93407 -0.4277703 0
-34.39576 59.88407 -0.3277703 0
-34.39576 59.88407 -0.2777703 0
-34.39576 59.93407 -0.2777703 0
-34.39576 59.98407 -0.3777703 0
-34.39576 59.98407 -0.3277703 0
-34.39576 59.98407 -0.2777703 0
-34.39576 60.03407 -0.2777703 0
-34.39576 60.08406 -0.6277703 0
-34.39576 60.13407 -0.5777703 0
-34.39576 60.13407 -0.5277703 0
-34.39576 60.13407 -0.4777703 0
-34.39576 60.18407 -0.6277703 0
-34.39576 60.23407 -0.5777703 0
-34.39576 60.23407 -0.4777703 0
-34.39576 60.13407 -0.3777703 0
-34.39576 60.08406 -0.3277703 0
-34.39576 60.13407 -0.2777703 0
-34.39576 60.18407 -0.4277703 0
-34.39576 60.18407 -0.3277703 0
-34.39576 60.23407 -0.2777703 0
-34.34576 60.33406 -1.62777 0
-34.34576 60.33406 -1.57777 0
-34.34576 60.33406 -1.52777 0
-34.34576 60.38407 -1.62777 0
-34.34576 60.38407 -1.57777 0
-34.34576 60.43407 -1.62777 0
-34.34576 60.43407 -1.52777 0
-34.34576 60.48407 -1.62777 0
-34.34576 60.48407 -1.57777 0
-34.34576 60.58406 -1.62777 0
-34.34576 60.63407 -1.57777 0
-34.39576 60.58406 -1.52777 0
-34.34576 60.58406 -1.52777 0
-34.29576 60.33406 -1.77777 0
-34.29576 60.28407 -1.57777 0
-34.29576 60.53407 -1.82777 0
-34.29576 60.53407 -1.77777 0
-34.34576 60.33406 -1.42777 0
-34.34576 60.33406 -1.37777 0
-34.34576 60.28407 -1.27777 0
-34.34576 60.33406 -1.32777 0
-34.34576 60.33406 -1.27777 0
-34.34576 60.38407 -1.32777 0
-34.34576 60.38407 -1.27777 0
-34.34576 60.43407 -1.32777 0
-34.34576 60.43407 -1.27777 0
-34.34576 60.33406 -1.17777 0
-34.39576 60.28407 -1.07777 0
-34.39576 60.38407 -1.17777 0
-34.39576 60.43407 -1.12777 0
-34.34576 60.53407 -1.37777 0
-34.34576 60.48407 -1.32777 0
-34.34576 60.48407 -1.27777 0
-34.34576 60.53407 -1.32777 0
-34.34576 60.58406 -1.42777 0
-34.34576 60.58406 -1.32777 0
-34.34576 60.58406 -1.27777 0
-34.34576 60.63407 -1.32777 0
-34.34576 60.48407 -1.17777 0
-34.34576 60.58406 -1.17777 0
-34.34576 60.63407 -1.22777 0
-34.39576 60.63407 -1.12777 0
-34.34576 60.68407 -1.82777 0
-34.34576 60.78407 -1.67777 0
-34.34576 60.68407 -1.62777 0
-34.34576 60.68407 -1.52777 0
-34.34576 60.78407 -1.62777 0
-34.34576 60.78407 -1.57777 0
-34.34576 60.83406 -1.57777 0
-34.34576 60.78407 -1.47777 0
-34.34576 60.88407 -1.67777 0
-34.34576 60.93407 -1.67777 0
-34.34576 60.98407 -1.67777 0
-34.34576 61.03407 -1.67777 0
-34.34576 60.88407 -1.62777 0
-34.34576 60.93407 -1.57777 0
-34.34576 61.03407 -1.62777 0
-34.39576 60.98407 -1.47777 0
-34.29576 60.68407 -1.82777 0
-34.29576 60.83406 -1.82777 0
-34.29576 60.88407 -1.82777 0
-34.34576 60.73407 -1.42777 0
-34.34576 60.73407 -1.37777 0
-34.34576 60.68407 -1.32777 0
-34.34576 60.68407 -1.27777 0
-34.34576 60.73407 -1.32777 0
-34.34576 60.78407 -1.32777 0
-34.34576 60.78407 -1.27777 0
-34.34576 60.83406 -1.32777 0
-34.34576 60.83406 -1.27777 0
-34.39576 60.73407 -1.17777 0
-34.39576 60.78407 -1.22777 0
-34.34576 60.83406 -1.17777 0
-34.34576 60.78407 -1.12777 0
-34.34576 60.88407 -1.42777 0
-34.34576 60.88407 -1.37777 0
-34.34576 60.88407 -1.32777 0
-34.34576 60.93407 -1.32777 0
-34.34576 60.93407 -1.27777 0
-34.34576 61.03407 -1.42777 0
-34.39576 61.03407 -1.32777 0
-34.39576 61.03407 -1.27777 0
-34.34576 60.98407 -1.32777 0
-34.34576 61.03407 -1.27777 0
-34.39576 60.93407 -1.22777 0
-34.39576 60.93407 -1.17777 0
-34.39576 60.28407 -0.9777703 0
-34.39576 60.33406 -0.9777703 0
-34.39576 60.28407 -0.9277703 0
-34.39576 60.38407 -0.9777703 0
-34.34576 60.43407 -0.9777703 0
-34.39576 60.38407 -0.9277703 0
-34.34576 60.38407 -0.9277703 0
-34.39576 60.28407 -0.6777703 0
-34.39576 60.33406 -0.6777703 0
-34.34576 60.28407 -0.6777703 0
-34.39576 60.38407 -0.8277704 0
-34.39576 60.43407 -0.6777703 0
-34.39576 60.48407 -0.9777703 0
-34.34576 60.53407 -0.9777703 0
-34.39576 60.48407 -0.9277703 0
-34.39576 60.53407 -0.9277703 0
-34.34576 60.53407 -0.9277703 0
-34.39576 60.58406 -0.9777703 0
-34.39576 60.63407 -0.9777703 0
-34.34576 60.58406 -1.02777 0
-34.39576 60.58406 -0.9277703 0
-34.34576 60.63407 -0.9277703 0
-34.39576 60.53407 -0.8277704 0
-34.34576 60.48407 -0.8277704 0
-34.39576 60.48407 -0.6777703 0
-34.39576 60.53407 -0.6777703 0
-34.39576 60.58406 -0.8277704 0
-34.39576 60.58406 -0.6777703 0
-34.39576 60.63407 -0.6777703 0
-34.39576 60.28407 -0.6277703 0
-34.39576 60.33406 -0.5777703 0
-34.39576 60.28407 -0.5277703 0
-34.39576 60.28407 -0.4777703 0
-34.39576 60.38407 -0.6277703 0
-34.39576 60.38407 -0.5777703 0
-34.39576 60.43407 -0.6277703 0
-34.39576 60.38407 -0.4777703 0
-34.39576 60.43407 -0.4777703 0
-34.44576 60.43407 -0.2777703 0
-34.39576 60.28407 -0.3777703 0
-34.39576 60.28407 -0.3277703 0
-34.39576 60.33406 -0.3277703 0
-34.39576 60.33406 -0.2777703 0
-34.39576 60.43407 -0.4277703 0
-34.39576 60.38407 -0.3277703 0
-34.39576 60.43407 -0.3277703 0
-34.39576 60.48407 -0.5777703 0
-34.39576 60.53407 -0.6277703 0
-34.39576 60.48407 -0.4777703 0
-34.39576 60.63407 -0.6277703 0
-34.39576 60.63407 -0.5777703 0
-34.39576 60.58406 -0.4777703 0
-34.39576 60.63407 -0.5277703 0
-34.39576 60.63407 -0.4777703 0
-34.44576 60.58406 -0.3277703 0
-34.44576 60.63407 -0.2777703 0
-34.39576 60.53407 -0.4277703 0
-34.39576 60.48407 -0.3277703 0
-34.39576 60.53407 -0.3277703 0
-34.39576 60.53407 -0.2777703 0
-34.39576 60.63407 -0.3277703 0
-34.39576 60.63407 -0.2777703 0
-34.39576 60.68407 -1.02777 0
-34.34576 60.73407 -1.02777 0
-34.39576 60.73407 -0.9277703 0
-34.39576 60.78407 -1.02777 0
-34.39576 60.83406 -1.02777 0
-34.39576 60.83406 -0.9777703 0
-34.39576 60.78407 -0.8777703 0
-34.39576 60.83406 -0.9277703 0
-34.39576 60.68407 -0.8277704 0
-34.39576 60.73407 -0.8277704 0
-34.39576 60.73407 -0.6777703 0
-34.39576 60.83406 -0.8277704 0
-34.39576 60.78407 -0.7277703 0
-34.39576 60.83406 -0.6777703 0
-34.39576 60.88407 -1.02777 0
-34.39576 60.93407 -0.9777703 0
-34.39576 60.93407 -0.9277703 0
-34.39576 60.93407 -0.8777703 0
-34.34576 60.93407 -0.9277703 0
-34.39576 60.98407 -1.02777 0
-34.39576 61.03407 -1.02777 0
-34.39576 61.03407 -0.9777703 0
-34.34576 61.03407 -1.02777 0
-34.39576 61.03407 -0.9277703 0
-34.39576 60.93407 -0.6777703 0
-34.39576 60.98407 -0.8277704 0
-34.39576 60.98407 -0.7277703 0
-34.39576 60.98407 -0.6777703 0
-34.39576 61.03407 -0.6777703 0
-34.44576 60.68407 -0.4777703 0
-34.39576 60.73407 -0.6277703 0
-34.39576 60.73407 -0.5777703 0
-34.39576 60.73407 -0.4777703 0
-34.39576 60.83406 -0.6277703 0
-34.39576 60.83406 -0.5277703 0
-34.39576 60.83406 -0.4777703 0
-34.44576 60.68407 -0.2777703 0
-34.44576 60.73407 -0.2777703 0
-34.44576 60.78407 -0.3777703 0
-34.44576 60.83406 -0.3277703 0
-34.39576 60.68407 -0.3277703 0
-34.39576 60.73407 -0.3277703 0
-34.39576 60.83406 -0.3277703 0
-34.39576 60.83406 -0.2777703 0
-34.44576 60.98407 -0.4777703 0
-34.39576 60.88407 -0.6277703 0
-34.39576 60.93407 -0.6277703 0
-34.39576 60.88407 -0.4777703 0
-34.39576 60.93407 -0.4777703 0
-34.39576 61.03407 -0.6277703 0
-34.39576 61.03407 -0.5777703 0
-34.39576 60.98407 -0.4777703 0
-34.44576 61.03407 -0.3777703 0
-34.44576 60.98407 -0.3277703 0
-34.44576 60.98407 -0.2777703 0
-34.39576 60.88407 -0.3777703 0
-34.39576 60.93407 -0.3777703 0
-34.39576 60.88407 -0.2777703 0
-34.39576 60.98407 -0.2777703 0
-34.34576 61.13407 -2.37777 0
-34.34576 61.08406 -2.32777 0
-34.34576 61.13407 -2.32777 0
-34.34576 61.23407 -2.42777 0
-34.34576 61.23407 -2.37777 0
-34.34576 61.18407 -2.32777 0
-34.34576 61.23407 -2.32777 0
-34.34576 61.28407 -2.32777 0
-34.34576 61.28407 -2.27777 0
-34.34576 61.33406 -2.32777 0
-34.34576 61.38407 -2.42777 0
-34.34576 61.38407 -2.37777 0
-34.34576 61.38407 -2.32777 0
-34.34576 61.43407 -2.32777 0
-34.29576 61.13407 -2.37777 0
-34.29576 61.08406 -2.32777 0
-34.29576 61.08406 -2.27777 0
-34.29576 61.13407 -2.27777 0
-34.29576 61.18407 -2.37777 0
-34.29576 61.18407 -2.32777 0
-34.29576 61.18407 -2.27777 0
-34.29576 61.28407 -2.32777 0
-34.29576 61.28407 -2.27777 0
-34.29576 61.43407 -2.32777 0
-34.29576 61.43407 -2.27777 0
-34.34576 61.08406 -1.97777 0
-34.34576 61.13407 -1.97777 0
-34.34576 61.13407 -1.87777 0
-34.34576 61.18407 -1.97777 0
-34.34576 61.23407 -2.02777 0
-34.34576 61.23407 -1.97777 0
-34.34576 61.18407 -1.92777 0
-34.34576 61.23407 -1.92777 0
-34.34576 61.28407 -2.02777 0
-34.34576 61.28407 -1.97777 0
-34.34576 61.33406 -2.02777 0
-34.34576 61.33406 -1.97777 0
-34.34576 61.28407 -1.92777 0
-34.34576 61.33406 -1.87777 0
-34.34576 61.38407 -2.02777 0
-34.34576 61.38407 -1.97777 0
-34.34576 61.43407 -2.02777 0
-34.34576 61.43407 -1.97777 0
-34.34576 61.43407 -1.92777 0
-34.34576 61.48407 -2.42777 0
-34.34576 61.48407 -2.37777 0
-34.34576 61.53407 -2.42777 0
-34.34576 61.53407 -2.32777 0
-34.34576 61.63407 -2.37777 0
-34.34576 61.63407 -2.32777 0
-34.34576 61.68407 -2.42777 0
-34.34576 61.73407 -2.42777 0
-34.34576 61.73407 -2.37777 0
-34.34576 61.68407 -2.32777 0
-34.34576 61.73407 -2.32777 0
-34.34576 61.83406 -2.42777 0
-34.34576 61.83406 -2.37777 0
-34.34576 61.78407 -2.32777 0
-34.34576 61.83406 -2.32777 0
-34.29576 61.48407 -2.32777 0
-34.29576 61.53407 -2.32777 0
-34.29576 61.58406 -2.32777 0
-34.29576 61.58406 -2.27777 0
-34.29576 61.63407 -2.32777 0
-34.29576 61.78407 -2.27777 0
-34.29576 61.83406 -2.32777 0
-34.34576 61.48407 -2.02777 0
-34.34576 61.53407 -2.02777 0
-34.34576 61.53407 -1.97777 0
-34.34576 61.48407 -1.92777 0
-34.34576 61.58406 -2.02777 0
-34.34576 61.58406 -1.97777 0
-34.34576 61.63407 -2.02777 0
-34.34576 61.63407 -1.97777 0
-34.34576 61.58406 -1.92777 0
-34.34576 61.63407 -1.87777 0
-34.34576 61.68407 -2.02777 0
-34.34576 61.73407 -2.02777 0
-34.34576 61.73407 -1.97777 0
-34.34576 61.68407 -1.92777 0
-34.34576 61.78407 -2.02777 0
-34.34576 61.83406 -2.02777 0
-34.34576 61.83406 -1.97777 0
-34.34576 61.78407 -1.87777 0
-34.29576 61.48407 -1.87777 0
-34.34576 61.88407 -2.37777 0
-34.34576 61.93407 -2.42777 0
-34.34576 61.93407 -2.37777 0
-34.34576 61.98407 -2.42777 0
-34.34576 61.98407 -2.37777 0
-34.34576 62.03407 -2.37777 0
-34.34576 61.98407 -2.32777 0
-34.34576 62.18407 -2.47777 0
-34.34576 62.08406 -2.42777 0
-34.34576 62.08406 -2.37777 0
-34.34576 62.13407 -2.42777 0
-34.34576 62.13407 -2.37777 0
-34.34576 62.08406 -2.32777 0
-34.34576 62.18407 -2.37777 0
-34.34576 62.23407 -2.42777 0
-34.34576 62.23407 -2.37777 0
-34.29576 61.93407 -2.32777 0
-34.29576 62.08406 -2.32777 0
-34.29576 62.18407 -2.37777 0
-34.44576 62.03407 -2.02777 0
-34.44576 62.03407 -1.97777 0
-34.34576 61.88407 -2.02777 0
-34.34576 61.88407 -1.97777 0
-34.34576 61.93407 -2.02777 0
-34.34576 61.93407 -1.97777 0
-34.34576 61.93407 -1.87777 0
-34.34576 61.98407 -2.02777 0
-34.34576 62.03407 -2.02777 0
-34.44576 62.18407 -2.07777 0
-34.34576 62.13407 -2.07777 0
-34.39576 62.23407 -2.07777 0
-34.34576 62.18407 -2.07777 0
-34.34576 62.23407 -2.07777 0
-34.44576 62.18407 -2.02777 0
-34.44576 62.18407 -1.97777 0
-34.39576 62.08406 -1.97777 0
-34.34576 62.08406 -2.02777 0
-34.39576 62.08406 -1.87777 0
-34.34576 62.18407 -2.02777 0
-34.34576 62.23407 -2.02777 0
-34.39576 62.23407 -1.87777 0
-34.34576 62.38407 -2.47777 0
-34.34576 62.43407 -2.47777 0
-34.34576 62.28407 -2.42777 0
-34.34576 62.28407 -2.37777 0
-34.34576 62.33406 -2.42777 0
-34.34576 62.33406 -2.37777 0
-34.34576 62.28407 -2.32777 0
-34.34576 62.38407 -2.42777 0
-34.34576 62.38407 -2.37777 0
-34.34576 62.43407 -2.37777 0
-34.34576 62.43407 -2.32777 0
-34.34576 62.58406 -2.47777 0
-34.34576 62.63407 -2.47777 0
-34.34576 62.48407 -2.42777 0
-34.34576 62.48407 -2.37777 0
-34.34576 62.53407 -2.42777 0
-34.34576 62.53407 -2.37777 0
-34.34576 62.58406 -2.42777 0
-34.34576 62.58406 -2.37777 0
-34.34576 62.63407 -2.42777 0
-34.34576 62.63407 -2.37777 0
-34.34576 62.63407 -2.32777 0
-34.44576 62.33406 -2.07777 0
-34.34576 62.28407 -2.07777 0
-34.34576 62.33406 -2.07777 0
-34.34576 62.38407 -2.07777 0
-34.34576 62.43407 -2.07777 0
-34.44576 62.28407 -1.97777 0
-34.44576 62.33406 -1.97777 0
-34.44576 62.38407 -2.02777 0
-34.34576 62.28407 -2.02777 0
-34.34576 62.33406 -2.02777 0
-34.34576 62.43407 -2.02777 0
-34.39576 62.38407 -1.92777 0
-34.44576 62.48407 -2.07777 0
-34.44576 62.58406 -2.07777 0
-34.34576 62.48407 -2.07777 0
-34.34576 62.53407 -2.07777 0
-34.39576 62.58406 -2.07777 0
-34.34576 62.58406 -2.07777 0
-34.44576 62.48407 -2.02777 0
-34.44576 62.48407 -1.97777 0
-34.44576 62.53407 -2.02777 0
-34.44576 62.63407 -1.97777 0
-34.44576 62.58406 -1.92777 0
-34.34576 62.58406 -2.02777 0
-34.34576 61.08406 -1.67777 0
-34.34576 61.13407 -1.67777 0
-34.34576 61.18407 -1.67777 0
-34.34576 61.23407 -1.67777 0
-34.34576 61.08406 -1.57777 0
-34.34576 61.13407 -1.62777 0
-34.34576 61.18407 -1.62777 0
-34.34576 61.18407 -1.57777 0
-34.34576 61.23407 -1.62777 0
-34.34576 61.23407 -1.57777 0
-34.39576 61.18407 -1.52777 0
-34.34576 61.18407 -1.47777 0
-34.34576 61.28407 -1.67777 0
-34.34576 61.33406 -1.67777 0
-34.39576 61.43407 -1.67777 0
-34.34576 61.38407 -1.67777 0
-34.34576 61.43407 -1.67777 0
-34.34576 61.28407 -1.62777 0
-34.34576 61.33406 -1.62777 0
-34.34576 61.33406 -1.57777 0
-34.34576 61.33406 -1.47777 0
-34.34576 61.38407 -1.62777 0
-34.34576 61.43407 -1.62777 0
-34.34576 61.43407 -1.57777 0
-34.39576 61.38407 -1.52777 0
-34.39576 61.08406 -1.37777 0
-34.39576 61.13407 -1.27777 0
-34.34576 61.13407 -1.32777 0
-34.34576 61.18407 -1.37777 0
-34.39576 61.18407 -1.27777 0
-34.39576 61.23407 -1.32777 0
-34.39576 61.23407 -1.27777 0
-34.34576 61.23407 -1.32777 0
-34.39576 61.08406 -1.17777 0
-34.39576 61.13407 -1.17777 0
-34.39576 61.18407 -1.17777 0
-34.39576 61.23407 -1.07777 0
-34.39576 61.28407 -1.37777 0
-34.39576 61.33406 -1.32777 0
-34.39576 61.33406 -1.27777 0
-34.39576 61.38407 -1.37777 0
-34.39576 61.43407 -1.27777 0
-34.39576 61.28407 -1.17777 0
-34.39576 61.33406 -1.17777 0
-34.39576 61.43407 -1.22777 0
-34.39576 61.43407 -1.07777 0
-34.34576 61.48407 -1.67777 0
-34.34576 61.53407 -1.72777 0
-34.34576 61.53407 -1.67777 0
-34.34576 61.58406 -1.67777 0
-34.34576 61.63407 -1.72777 0
-34.34576 61.53407 -1.62777 0
-34.34576 61.48407 -1.47777 0
-34.34576 61.58406 -1.57777 0
-34.39576 61.58406 -1.52777 0
-34.39576 61.63407 -1.47777 0
-34.34576 61.68407 -1.67777 0
-34.34576 61.73407 -1.72777 0
-34.39576 61.78407 -1.67777 0
-34.34576 61.78407 -1.72777 0
-34.34576 61.78407 -1.67777 0
-34.34576 61.83406 -1.72777 0
-34.39576 61.73407 -1.62777 0
-34.34576 61.68407 -1.62777 0
-34.34576 61.73407 -1.57777 0
-34.39576 61.78407 -1.57777 0
-34.34576 61.78407 -1.62777 0
-34.34576 61.83406 -1.57777 0
-34.34576 61.78407 -1.47777 0
-34.39576 61.48407 -1.37777 0
-34.34576 61.48407 -1.37777 0
-34.34576 61.53407 -1.37777 0
-34.39576 61.58406 -1.37777 0
-34.39576 61.58406 -1.32777 0
-34.39576 61.58406 -1.27777 0
-34.39576 61.48407 -1.17777 0
-34.39576 61.48407 -1.07777 0
-34.39576 61.58406 -1.22777 0
-34.39576 61.58406 -1.17777 0
-34.39576 61.58406 -1.07777 0
-34.39576 61.63407 -1.12777 0
-34.39576 61.68407 -1.37777 0
-34.34576 61.68407 -1.37777 0
-34.39576 61.68407 -1.32777 0
-34.39576 61.78407 -1.37777 0
-34.39576 61.78407 -1.32777 0
-34.39576 61.83406 -1.32777 0
-34.39576 61.73407 -1.22777 0
-34.39576 61.73407 -1.17777 0
-34.39576 61.68407 -1.07777 0
-34.39576 61.78407 -1.12777 0
