# .PCD v0.7 - Point Cloud Data file format
VERSION 0.7
FIELDS x y z intensity
SIZE 4 4 4 4
TYPE F F F F
COUNT 1 1 1 1
WIDTH 1563
HEIGHT 1
VIEWPOINT 0 0 0 1 0 0 0
POINTS 1563
DATA ascii
-52.49576 38.03407 -2.42777 0
-52.39576 37.93407 -2.42777 0
-52.34576 37.88406 -2.42777 0
-52.29576 38.28407 -2.52777 0
-52.59576 38.33406 -1.77777 0
-52.59576 38.38406 -1.47777 0
-52.69576 38.53407 -1.47777 0
-52.64576 38.38406 -1.17777 0
-52.64576 38.38406 -0.8777703 0
-52.64576 38.33406 -0.8277704 0
-52.64576 38.43407 -0.8277704 0
-52.69576 38.33406 -0.6277703 0
-52.69576 38.33406 -0.5777703 0
-52.69576 38.43407 -0.5777703 0
-52.69576 38.43407 -0.5277703 0
-52.64576 38.38406 -0.5277703 0
-52.69576 38.43407 -0.4277703 0
-52.24576 38.53407 -1.77777 0
-53.19576 40.23407 -0.9777703 0
-51.94576 38.78407 -0.9277703 0
-51.79576 38.73407 -0.9277703 0
-51.74576 39.38406 -0.7777703 0
-51.74576 39.48407 -0.7777703 0
-52.04576 40.18407 -0.8277704 0
-51.74576 40.03407 -0.8777703 0
-51.74576 39.88406 -0.8277704 0
-51.74576 39.93407 -0.8277704 0
-51.74576 40.03407 -0.8277704 0
-51.79576 40.18407 -0.8277704 0
-51.39576 33.88406 -2.17777 0
-51.39576 33.93407 -2.17777 0
-51.39576 33.98407 -2.22777 0
-51.39576 33.98407 -2.17777 0
-51.39576 34.03407 -2.17777 0
-51.39576 33.88406 -1.92777 0
-51.39576 33.88406 -1.87777 0
-51.39576 33.93407 -1.92777 0
-51.39576 33.98407 -1.92777 0
-51.39576 33.98407 -1.87777 0
-51.39576 34.03407 -1.92777 0
-51.39576 34.08406 -2.22777 0
-51.39576 34.08406 -2.17777 0
-51.39576 34.13406 -2.17777 0
-51.39576 34.18407 -2.22777 0
-51.39576 34.18407 -2.17777 0
-51.39576 34.23407 -2.22777 0
-51.39576 34.23407 -2.17777 0
-51.39576 34.08406 -1.92777 0
-51.39576 34.13406 -1.92777 0
-51.39576 34.13406 -1.87777 0
-51.39576 34.18407 -1.92777 0
-51.39576 34.23407 -1.92777 0
-51.39576 34.23407 -1.87777 0
-51.39576 34.28407 -2.17777 0
-51.39576 34.38406 -2.22777 0
-51.39576 34.38406 -2.17777 0
-51.39576 34.43407 -2.22777 0
-51.39576 34.28407 -1.92777 0
-51.39576 34.38406 -1.92777 0
-51.39576 34.38406 -1.87777 0
-51.39576 34.43407 -1.92777 0
-51.39576 34.48407 -2.22777 0
-51.39576 34.53407 -2.22777 0
-51.39576 34.53407 -2.17777 0
-51.39576 34.58406 -2.22777 0
-51.39576 34.58406 -2.17777 0
-51.39576 34.63406 -2.22777 0
-51.44576 34.48407 -1.87777 0
-51.44576 34.63406 -1.92777 0
-51.39576 34.53407 -1.92777 0
-51.39576 34.58406 -1.92777 0
-51.39576 34.58406 -1.87777 0
-51.39576 34.63406 -1.92777 0
-51.39576 34.63406 -1.87777 0
-51.39576 34.68407 -2.22777 0
-51.39576 34.68407 -2.17777 0
-51.39576 34.73407 -2.22777 0
-51.39576 34.73407 -2.17777 0
-51.39576 34.78407 -2.22777 0
-51.39576 34.78407 -2.17777 0
-51.39576 34.83406 -2.22777 0
-51.44576 34.73407 -1.87777 0
-51.44576 34.78407 -1.92777 0
-51.39576 34.68407 -1.92777 0
-51.39576 34.73407 -1.92777 0
-51.39576 34.73407 -1.87777 0
-51.39576 34.78407 -1.92777 0
-51.39576 34.83406 -1.92777 0
-51.44576 34.98407 -2.22777 0
-51.39576 34.88406 -2.22777 0
-51.39576 34.88406 -2.17777 0
-51.39576 34.93407 -2.22777 0
-51.39576 34.98407 -2.22777 0
-51.39576 35.03407 -2.22777 0
-51.44576 34.88406 -1.92777 0
-51.44576 34.98407 -1.92777 0
-51.44576 34.98407 -1.87777 0
-51.44576 35.03407 -1.92777 0
-51.39576 34.88406 -1.92777 0
-51.39576 34.88406 -1.87777 0
-51.39576 34.93407 -1.92777 0
-51.39576 34.98407 -1.92777 0
-51.64576 35.38406 -2.27777 0
-51.59576 35.38406 -2.27777 0
-51.44576 35.38406 -2.27777 0
-51.59576 35.43407 -2.22777 0
-51.64576 35.38406 -1.92777 0
-51.64576 35.38406 -1.87777 0
-51.59576 35.43407 -1.97777 0
-51.59576 35.43407 -1.92777 0
-51.44576 35.18407 -2.22777 0
-51.39576 35.08406 -2.22777 0
-51.39576 35.13406 -2.22777 0
-51.39576 35.18407 -2.22777 0
-51.39576 35.23407 -2.22777 0
-51.44576 35.08406 -1.92777 0
-51.44576 35.18407 -1.92777 0
-51.44576 35.23407 -1.92777 0
-51.39576 35.08406 -1.92777 0
-51.39576 35.18407 -1.87777 0
-51.39576 35.23407 -1.92777 0
-51.44576 35.38406 -2.22777 0
-51.44576 35.43407 -2.22777 0
-51.39576 35.28407 -2.22777 0
-51.39576 35.33406 -2.22777 0
-51.44576 35.33406 -1.97777 0
-51.44576 35.28407 -1.92777 0
-51.44576 35.28407 -1.87777 0
-51.44576 35.33406 -1.92777 0
-51.44576 35.43407 -1.97777 0
-51.44576 35.38406 -1.92777 0
-51.44576 33.98407 -1.77777 0
-51.44576 33.98407 -1.67777 0
-51.44576 34.03407 -1.72777 0
-51.39576 34.03407 -1.77777 0
-51.44576 33.93407 -1.62777 0
-51.44576 33.93407 -1.57777 0
-51.44576 33.88406 -1.52777 0
-51.44576 33.98407 -1.52777 0
-51.39576 33.88406 -1.62777 0
-51.39576 34.03407 -1.62777 0
-51.44576 34.23407 -1.77777 0
-51.44576 34.13406 -1.62777 0
-51.44576 34.13406 -1.52777 0
-51.44576 34.23407 -1.62777 0
-51.44576 34.23407 -1.52777 0
-51.39576 34.13406 -1.62777 0
-51.39576 34.23407 -1.62777 0
-51.44576 34.28407 -1.67777 0
-51.44576 34.43407 -1.77777 0
-51.44576 34.38406 -1.72777 0
-51.44576 34.43407 -1.67777 0
-51.44576 34.28407 -1.62777 0
-51.44576 34.43407 -1.62777 0
-51.39576 34.38406 -1.57777 0
-51.44576 34.48407 -1.77777 0
-51.44576 34.53407 -1.67777 0
-51.44576 34.63406 -1.82777 0
-51.44576 34.63406 -1.67777 0
-51.39576 34.53407 -1.67777 0
-51.39576 34.63406 -1.67777 0
-51.44576 34.53407 -1.62777 0
-51.44576 34.53407 -1.57777 0
-51.44576 34.63406 -1.62777 0
-51.44576 34.63406 -1.57777 0
-51.44576 34.28407 -1.37777 0
-51.44576 34.43407 -1.37777 0
-51.49576 34.43407 -1.07777 0
-51.44576 34.53407 -1.37777 0
-51.44576 34.63406 -1.37777 0
-50.94576 33.93407 -1.42777 0
-50.99576 34.03407 -1.42777 0
-51.04576 34.18407 -1.37777 0
-51.04576 34.23407 -1.37777 0
-50.99576 34.13406 -1.37777 0
-50.99576 34.23407 -1.32777 0
-50.94576 34.18407 -1.32777 0
-51.14576 34.48407 -1.32777 0
-51.09576 34.28407 -1.37777 0
-51.04576 34.33406 -1.32777 0
-51.09576 34.38406 -1.32777 0
-51.09576 34.58406 -1.37777 0
-51.49576 34.48407 -0.9277703 0
-51.54576 34.43407 -0.4777703 0
-51.49576 34.48407 -0.5277703 0
-51.49576 34.58406 -0.3777703 0
-51.49576 34.58406 -0.3277703 0
-51.44576 34.68407 -1.77777 0
-51.44576 34.73407 -1.77777 0
-51.44576 34.68407 -1.67777 0
-51.44576 34.73407 -1.67777 0
-51.44576 34.83406 -1.82777 0
-51.44576 34.78407 -1.67777 0
-51.44576 34.83406 -1.72777 0
-51.44576 34.68407 -1.62777 0
-51.44576 34.73407 -1.57777 0
-51.44576 34.78407 -1.62777 0
-51.44576 34.88406 -1.67777 0
-51.44576 34.93407 -1.67777 0
-51.44576 34.98407 -1.77777 0
-51.44576 35.03407 -1.82777 0
-51.44576 34.98407 -1.67777 0
-51.39576 35.03407 -1.67777 0
-51.44576 34.88406 -1.62777 0
-51.44576 34.88406 -1.57777 0
-51.44576 34.83406 -1.42777 0
-51.44576 34.78407 -1.32777 0
-51.49576 34.68407 -1.22777 0
-51.49576 34.83406 -1.12777 0
-51.44576 35.03407 -1.42777 0
-51.49576 35.03407 -1.32777 0
-51.49576 35.03407 -1.27777 0
-51.44576 35.03407 -1.17777 0
-51.69576 35.38406 -1.82777 0
-51.59576 35.38406 -1.82777 0
-51.54576 35.38406 -1.82777 0
-51.59576 35.43407 -1.67777 0
-51.69576 35.38406 -1.57777 0
-51.64576 35.43407 -1.62777 0
-51.44576 35.08406 -1.67777 0
-51.44576 35.13406 -1.67777 0
-51.44576 35.18407 -1.82777 0
-51.44576 35.23407 -1.82777 0
-51.49576 35.18407 -1.72777 0
-51.44576 35.18407 -1.67777 0
-51.44576 35.23407 -1.67777 0
-51.44576 35.28407 -1.77777 0
-51.44576 35.28407 -1.67777 0
-51.44576 35.33406 -1.67777 0
-51.44576 35.38406 -1.82777 0
-51.49576 35.43407 -1.67777 0
-51.44576 35.38406 -1.67777 0
-51.44576 35.33406 -1.52777 0
-51.49576 35.43407 -1.57777 0
-51.64576 35.38406 -1.42777 0
-51.64576 35.38406 -1.27777 0
-51.54576 35.38406 -1.37777 0
-51.69576 35.43407 -1.17777 0
-51.59576 35.38406 -1.17777 0
-51.49576 35.23407 -1.37777 0
-51.44576 35.23407 -1.42777 0
-51.49576 35.18407 -1.17777 0
-51.49576 35.23407 -1.17777 0
-51.49576 35.33406 -1.27777 0
-51.49576 35.38406 -1.42777 0
-51.44576 35.33406 -1.17777 0
-51.49576 35.43407 -1.22777 0
-51.14576 34.68407 -1.42777 0
-51.09576 34.73407 -1.42777 0
-51.04576 34.68407 -1.37777 0
-51.04576 34.78407 -1.37777 0
-51.04576 34.83406 -1.42777 0
-51.04576 34.88406 -1.42777 0
-50.99576 34.88406 -1.37777 0
-50.99576 34.93407 -1.42777 0
-50.99576 35.03407 -1.42777 0
-50.94576 35.03407 -1.37777 0
-50.94576 35.08406 -1.42777 0
-50.94576 35.18407 -1.42777 0
-51.49576 34.68407 -0.9777703 0
-51.49576 34.73407 -0.6777703 0
-51.49576 34.78407 -0.8277704 0
-51.49576 34.88406 -0.9777703 0
-51.49576 35.03407 -1.02777 0
-51.49576 35.03407 -0.8777703 0
-51.49576 34.88406 -0.7777703 0
-51.49576 35.03407 -0.8277704 0
-51.49576 35.03407 -0.7277703 0
-51.54576 34.83406 -0.5277703 0
-51.49576 34.68407 -0.5277703 0
-51.49576 34.78407 -0.3777703 0
-51.49576 34.83406 -0.3777703 0
-51.49576 34.88406 -0.5777703 0
-51.49576 34.93407 -0.4277703 0
-51.49576 35.03407 -0.3277703 0
-51.69576 35.38406 -1.02777 0
-51.59576 35.43407 -0.9277703 0
-51.69576 35.43407 -0.8277704 0
-51.64576 35.43407 -0.7777703 0
-51.69576 35.43407 -0.6777703 0
-51.54576 35.33406 -0.7777703 0
-51.54576 35.43407 -0.8277704 0
-51.49576 35.08406 -0.9777703 0
-51.49576 35.23407 -1.02777 0
-51.49576 35.23407 -0.9777703 0
-51.49576 35.18407 -0.8277704 0
-51.49576 35.23407 -0.6777703 0
-51.49576 35.33406 -0.9777703 0
-51.49576 35.28407 -0.8777703 0
-51.49576 35.43407 -1.02777 0
-51.49576 35.33406 -0.8277704 0
-51.49576 35.33406 -0.6777703 0
-51.54576 35.23407 -0.5777703 0
-51.54576 35.08406 -0.4277703 0
-51.54576 35.08406 -0.3777703 0
-51.69576 35.43407 -0.6277703 0
-51.64576 35.43407 -0.5777703 0
-51.69576 35.43407 -0.4777703 0
-51.54576 35.43407 -0.6277703 0
-51.54576 35.43407 -0.4777703 0
-51.54576 35.28407 -0.4277703 0
-51.59576 35.43407 -0.4277703 0
-51.49576 35.08406 -0.5777703 0
-51.49576 35.13406 -0.6277703 0
-51.49576 35.23407 -0.6277703 0
-51.49576 35.18407 -0.4777703 0
-51.49576 35.08406 -0.4277703 0
-51.49576 35.13406 -0.3277703 0
-51.49576 35.23407 -0.3277703 0
-51.49576 35.33406 -0.4777703 0
-51.49576 35.33406 -0.3777703 0
-50.84576 33.88406 -1.37777 0
-50.84576 33.93407 -1.37777 0
-50.89576 33.98407 -1.37777 0
-50.89576 34.03407 -1.37777 0
-50.74576 33.88406 -1.32777 0
-50.79576 33.98407 -1.32777 0
-50.39576 33.93407 -1.17777 0
-50.34576 33.88406 -1.17777 0
-50.14576 34.13406 -1.22777 0
-50.19576 34.23407 -1.22777 0
-50.34576 34.48407 -1.22777 0
-50.34576 34.58406 -1.22777 0
-50.24576 34.28407 -1.22777 0
-50.29576 34.38406 -1.22777 0
-50.89576 35.13406 -1.37777 0
-50.89576 35.18407 -1.37777 0
-50.89576 35.23407 -1.42777 0
-50.74576 35.13406 -1.17777 0
-50.89576 35.33406 -1.42777 0
-50.84576 35.28407 -1.42777 0
-50.89576 35.38406 -1.42777 0
-50.84576 35.38406 -1.42777 0
-50.84576 35.43407 -1.42777 0
-50.39576 34.68407 -1.22777 0
-50.39576 34.78407 -1.17777 0
-50.44576 35.03407 -1.17777 0
-50.34576 35.18407 -1.22777 0
-50.69576 35.18407 -0.5277703 0
-50.49576 35.38406 -0.5777703 0
-51.39576 36.98407 -2.32777 0
-51.19576 36.83406 -2.32777 0
-51.29576 36.88406 -2.32777 0
-51.09576 36.73407 -2.27777 0
-50.99576 36.68407 -2.27777 0
-50.39576 36.23407 -2.22777 0
-50.29576 36.13406 -2.22777 0
-50.19576 36.08406 -2.22777 0
-50.89576 36.58406 -2.27777 0
-50.79576 36.53407 -2.27777 0
-50.69576 36.43407 -2.27777 0
-50.59576 36.38406 -2.27777 0
-50.49576 36.28407 -2.22777 0
-51.54576 35.48407 -0.5277703 0
-51.69576 35.48407 -0.3277703 0
-50.74576 35.63406 -1.47777 0
-50.64576 35.73407 -1.47777 0
-50.59576 35.83406 -1.47777 0
-50.84576 35.48407 -1.42777 0
-50.79576 35.48407 -1.42777 0
-50.79576 35.53407 -1.42777 0
-50.74576 35.58406 -1.42777 0
-50.74576 35.63406 -1.42777 0
-50.69576 35.68407 -1.42777 0
-50.54576 35.93407 -1.47777 0
-50.29576 35.73407 -1.22777 0
-50.24576 35.78407 -1.07777 0
-50.44576 35.98407 -1.47777 0
-50.34576 35.98407 -1.47777 0
-50.39576 36.08406 -1.57777 0
-50.19576 35.98407 -1.47777 0
-50.24576 36.08406 -1.57777 0
-50.39576 35.88406 -1.37777 0
-50.29576 35.88406 -1.37777 0
-50.29576 35.93407 -1.27777 0
-50.19576 35.88406 -1.37777 0
-50.14576 35.93407 -1.37777 0
-50.19576 36.03407 -1.27777 0
-50.19576 35.93407 -1.17777 0
-50.79576 35.53407 -0.9277703 0
-50.54576 35.48407 -0.4277703 0
-50.54576 35.53407 -0.4277703 0
-50.49576 35.58406 -0.7777703 0
-50.49576 35.78407 -0.9277703 0
-50.24576 35.63406 -0.6777703 0
-50.19576 35.73407 -0.7777703 0
-50.14576 35.83406 -0.8277704 0
-50.44576 35.63406 -0.4277703 0
-50.39576 35.48407 -0.2777703 0
-50.39576 35.68407 -0.5277703 0
-50.19576 35.58406 -0.5777703 0
-50.19576 35.53407 -0.2777703 0
-50.24576 35.73407 -0.5277703 0
-50.24576 35.78407 -0.4777703 0
-50.19576 35.78407 -0.4777703 0
-50.19576 35.98407 -0.9777703 0
-50.19576 36.03407 -1.02777 0
-49.59576 34.68407 -2.07777 0
-49.54576 34.68407 -2.12777 0
-49.54576 34.68407 -2.07777 0
-49.59576 34.78407 -2.12777 0
-49.54576 34.78407 -2.07777 0
-49.59576 34.68407 -1.87777 0
-49.59576 34.73407 -1.87777 0
-49.59576 34.78407 -1.87777 0
-48.74576 35.28407 -2.12777 0
-48.59576 35.28407 -2.07777 0
-49.99576 33.98407 -1.22777 0
-49.94576 34.03407 -1.17777 0
-50.09576 34.13406 -1.17777 0
-50.04576 34.08406 -1.22777 0
-50.04576 34.08406 -1.17777 0
-49.74576 34.03407 -1.22777 0
-49.54576 34.03407 -1.22777 0
-49.39576 34.03407 -1.22777 0
-49.64576 34.78407 -1.77777 0
-49.59576 34.68407 -1.77777 0
-49.59576 34.73407 -1.67777 0
-49.59576 34.78407 -1.82777 0
-49.59576 34.78407 -1.67777 0
-49.64576 34.78407 -1.47777 0
-49.59576 34.73407 -1.62777 0
-49.59576 34.73407 -1.47777 0
-49.59576 34.78407 -1.62777 0
-49.59576 34.78407 -1.47777 0
-49.59576 34.73407 -1.37777 0
-49.59576 34.73407 -1.27777 0
-49.59576 34.78407 -1.37777 0
-49.59576 34.78407 -1.27777 0
-49.09576 33.98407 -1.07777 0
-48.94576 34.03407 -1.12777 0
-48.89576 34.08406 -1.12777 0
-48.54576 33.88406 -1.12777 0
-48.94576 33.98407 -0.3777703 0
-48.94576 34.03407 -0.3777703 0
-48.94576 34.13406 -0.4277703 0
-48.74576 33.88406 -0.8777703 0
-48.84576 33.88406 -0.7777703 0
-48.84576 33.93407 -0.7777703 0
-48.84576 33.98407 -0.7777703 0
-48.84576 34.03407 -0.7777703 0
-48.84576 34.13406 -0.7777703 0
-48.79576 34.23407 -0.7777703 0
-48.69576 33.88406 -0.8777703 0
-48.69576 33.98407 -0.9277703 0
-48.69576 33.98407 -0.8777703 0
-48.59576 33.93407 -0.9777703 0
-48.59576 34.03407 -0.9777703 0
-48.59576 33.88406 -0.7277703 0
-48.59576 33.98407 -0.7277703 0
-48.59576 33.98407 -0.6777703 0
-48.54576 33.98407 -0.7277703 0
-48.69576 34.08406 -0.9277703 0
-48.54576 34.18407 -0.9277703 0
-48.54576 34.18407 -0.8777703 0
-48.54576 34.08406 -0.7277703 0
-48.54576 34.23407 -0.7277703 0
-48.84576 33.98407 -0.4777703 0
-48.89576 34.08406 -0.4777703 0
-48.84576 34.18407 -0.4777703 0
-48.79576 34.08406 -0.4777703 0
-48.79576 34.13406 -0.5277703 0
-48.79576 34.18407 -0.5277703 0
-48.69576 33.93407 -0.6277703 0
-48.69576 34.03407 -0.6277703 0
-48.64576 34.13406 -0.6277703 0
-48.64576 34.23407 -0.6277703 0
-48.54576 34.33406 -0.9777703 0
-48.54576 34.28407 -0.9277703 0
-48.54576 34.38406 -0.9777703 0
-48.54576 34.43407 -0.9777703 0
-48.59576 34.43407 -0.9277703 0
-48.54576 34.48407 -0.9777703 0
-48.54576 34.53407 -0.9777703 0
-48.54576 34.58406 -0.9777703 0
-48.84576 34.38406 -0.4777703 0
-48.74576 34.28407 -0.5777703 0
-48.79576 34.33406 -0.5277703 0
-48.74576 34.43407 -0.5277703 0
-48.84576 34.28407 -0.4277703 0
-48.79576 34.53407 -0.4777703 0
-48.79576 34.58406 -0.4777703 0
-48.79576 34.48407 -0.3277703 0
-48.74576 34.63406 -0.3777703 0
-48.69576 34.38406 -0.5777703 0
-48.69576 34.43407 -0.5777703 0
-48.59576 34.33406 -0.6277703 0
-48.59576 34.43407 -0.6277703 0
-48.69576 34.48407 -0.5777703 0
-48.69576 34.53407 -0.5777703 0
-48.69576 34.63406 -0.5777703 0
-48.64576 34.58406 -0.5777703 0
-48.59576 34.53407 -0.6277703 0
-48.59576 34.63406 -0.6277703 0
-48.54576 35.03407 -1.07777 0
-48.79576 35.43407 -1.07777 0
-48.74576 35.38406 -1.07777 0
-48.74576 35.43407 -1.07777 0
-48.69576 35.23407 -1.07777 0
-48.59576 35.13406 -1.07777 0
-48.69576 35.33406 -1.07777 0
-48.69576 35.43407 -1.12777 0
-48.64576 35.38406 -1.12777 0
-48.54576 35.28407 -1.17777 0
-48.54576 35.33406 -1.17777 0
-48.59576 35.28407 -1.12777 0
-48.59576 35.43407 -1.17777 0
-48.54576 35.38406 -1.22777 0
-48.54576 35.38406 -1.17777 0
-49.14576 35.33406 -0.3777703 0
-49.14576 35.43407 -0.4277703 0
-49.09576 35.43407 -0.4777703 0
-48.99576 35.33406 -0.4777703 0
-48.99576 35.43407 -0.5277703 0
-49.04576 35.33406 -0.4277703 0
-49.09576 35.38406 -0.4277703 0
-48.99576 35.33406 -0.4277703 0
-48.94576 35.28407 -0.4277703 0
-48.94576 35.43407 -0.3277703 0
-48.59576 34.98407 -0.6777703 0
-48.59576 35.03407 -0.6777703 0
-48.74576 34.68407 -0.5277703 0
-48.74576 34.83406 -0.5277703 0
-48.84576 34.73407 -0.2777703 0
-48.84576 34.88406 -0.2777703 0
-48.79576 34.98407 -0.3277703 0
-48.69576 34.73407 -0.5777703 0
-48.64576 34.68407 -0.6277703 0
-48.69576 34.83406 -0.5777703 0
-48.64576 34.78407 -0.6277703 0
-48.64576 34.83406 -0.6277703 0
-48.59576 34.73407 -0.6277703 0
-48.69576 34.68407 -0.3777703 0
-48.69576 34.78407 -0.3777703 0
-48.69576 34.98407 -0.5777703 0
-48.64576 35.03407 -0.6277703 0
-48.59576 34.88406 -0.6277703 0
-48.59576 34.98407 -0.6277703 0
-48.69576 34.88406 -0.4277703 0
-48.69576 34.93407 -0.4277703 0
-48.69576 35.03407 -0.4277703 0
-48.64576 35.03407 -0.4277703 0
-48.69576 35.03407 -0.2777703 0
-48.64576 34.98407 -0.2777703 0
-48.74576 35.28407 -1.02777 0
-48.79576 35.38406 -1.02777 0
-48.74576 35.33406 -0.6777703 0
-48.79576 35.43407 -0.6777703 0
-48.74576 35.38406 -0.7277703 0
-48.69576 35.13406 -0.9777703 0
-48.64576 35.13406 -0.6777703 0
-48.69576 35.18407 -0.6777703 0
-48.69576 35.23407 -0.6777703 0
-48.54576 35.38406 -0.8777703 0
-48.74576 35.13406 -0.5777703 0
-48.79576 35.23407 -0.5777703 0
-48.74576 35.18407 -0.6277703 0
-48.84576 35.08406 -0.3277703 0
-48.89576 35.23407 -0.4277703 0
-48.84576 35.23407 -0.4277703 0
-48.79576 35.13406 -0.4277703 0
-48.74576 35.13406 -0.4277703 0
-48.74576 35.13406 -0.2777703 0
-48.79576 35.23407 -0.3277703 0
-48.74576 35.18407 -0.2777703 0
-48.74576 35.23407 -0.3277703 0
-48.84576 35.33406 -0.6277703 0
-48.84576 35.33406 -0.5277703 0
-48.84576 35.43407 -0.6277703 0
-48.79576 35.28407 -0.6277703 0
-48.79576 35.33406 -0.6277703 0
-48.79576 35.38406 -0.6277703 0
-48.84576 35.33406 -0.3277703 0
-48.89576 35.43407 -0.3777703 0
-48.89576 35.38406 -0.3277703 0
-48.79576 35.28407 -0.2777703 0
-48.74576 35.38406 -0.3777703 0
-48.69576 35.08406 -0.5777703 0
-48.69576 35.13406 -0.6277703 0
-48.64576 35.08406 -0.6277703 0
-48.64576 35.13406 -0.6277703 0
-48.69576 35.18407 -0.6277703 0
-48.69576 35.18407 -0.5277703 0
-48.59576 35.08406 -0.6277703 0
-49.74576 35.83406 -2.17777 0
-50.09576 36.03407 -2.22777 0
-49.94576 35.93407 -2.22777 0
-49.84576 35.88406 -2.17777 0
-49.64576 35.73407 -2.17777 0
-49.54576 35.68407 -2.17777 0
-49.39576 35.63406 -2.17777 0
-49.29576 35.58406 -2.17777 0
-49.19576 35.53407 -2.12777 0
-49.09576 35.48407 -2.12777 0
-50.09576 35.83406 -1.07777 0
-49.89576 35.78407 -1.22777 0
-50.04576 35.98407 -1.47777 0
-50.04576 36.03407 -1.47777 0
-50.09576 36.13406 -1.57777 0
-49.94576 36.13406 -1.57777 0
-49.94576 36.18407 -1.62777 0
-49.89576 35.98407 -1.47777 0
-49.79576 36.03407 -1.47777 0
-49.74576 36.03407 -1.47777 0
-49.74576 36.23407 -1.72777 0
-49.79576 36.13406 -1.57777 0
-49.79576 36.18407 -1.62777 0
-50.04576 35.88406 -1.37777 0
-49.94576 35.93407 -1.37777 0
-49.99576 35.93407 -1.07777 0
-49.94576 35.93407 -1.07777 0
-49.94576 36.03407 -1.17777 0
-49.99576 36.08406 -1.27777 0
-49.94576 36.13406 -1.27777 0
-49.94576 36.18407 -1.27777 0
-49.89576 35.93407 -1.37777 0
-49.79576 35.93407 -1.37777 0
-49.74576 35.93407 -1.37777 0
-49.84576 35.98407 -1.07777 0
-49.84576 36.03407 -1.12777 0
-49.74576 36.03407 -1.17777 0
-49.79576 36.13406 -1.27777 0
-49.84576 36.18407 -1.07777 0
-49.79576 36.13406 -1.07777 0
-49.64576 36.03407 -1.47777 0
-49.69576 36.13406 -1.57777 0
-49.64576 36.08406 -1.52777 0
-49.64576 36.23407 -1.62777 0
-49.44576 36.23407 -1.62777 0
-49.39576 36.13406 -1.52777 0
-49.34576 36.08406 -1.47777 0
-49.59576 35.93407 -1.37777 0
-49.59576 35.98407 -1.37777 0
-49.69576 35.98407 -1.07777 0
-49.59576 36.03407 -1.17777 0
-49.69576 36.13406 -1.27777 0
-49.64576 36.13406 -1.27777 0
-49.69576 36.08406 -1.07777 0
-49.59576 36.08406 -1.07777 0
-49.59576 36.13406 -1.12777 0
-49.54576 36.08406 -1.07777 0
-49.44576 35.93407 -1.37777 0
-49.44576 35.88406 -1.27777 0
-49.49576 36.03407 -1.42777 0
-49.44576 35.98407 -1.37777 0
-49.34576 36.03407 -1.42777 0
-49.44576 35.98407 -1.07777 0
-49.39576 36.03407 -1.12777 0
-49.39576 36.03407 -1.07777 0
-49.49576 36.13406 -1.27777 0
-49.44576 36.13406 -1.27777 0
-49.34576 36.13406 -1.27777 0
-49.49576 36.13406 -1.17777 0
-49.49576 36.08406 -1.12777 0
-49.39576 36.08406 -1.17777 0
-49.39576 36.13406 -1.17777 0
-50.09576 35.58406 -0.8277704 0
-49.99576 35.63406 -0.8277704 0
-50.04576 35.83406 -1.02777 0
-49.99576 35.83406 -0.7277703 0
-49.84576 35.73407 -0.8777703 0
-49.84576 35.83406 -0.7777703 0
-49.84576 35.83406 -0.7277703 0
-49.74576 35.78407 -0.7277703 0
-50.04576 35.58406 -0.3277703 0
-50.04576 35.63406 -0.2777703 0
-50.04576 35.78407 -0.5277703 0
-49.94576 35.68407 -0.5777703 0
-50.09576 35.73407 -0.3277703 0
-49.99576 35.68407 -0.4277703 0
-49.94576 35.73407 -0.2777703 0
-49.84576 35.63406 -0.5277703 0
-49.79576 35.63406 -0.5777703 0
-49.74576 35.63406 -0.5777703 0
-49.89576 35.63406 -0.3277703 0
-49.74576 35.63406 -0.3277703 0
-49.89576 35.73407 -0.6277703 0
-49.84576 35.68407 -0.5777703 0
-49.84576 35.73407 -0.6277703 0
-49.89576 35.83406 -0.5277703 0
-49.79576 35.68407 -0.6277703 0
-49.74576 35.83406 -0.5277703 0
-49.79576 35.73407 -0.4277703 0
-49.74576 35.78407 -0.2777703 0
-49.94576 35.98407 -0.8777703 0
-49.99576 35.88406 -0.7777703 0
-50.04576 36.08406 -0.9777703 0
-49.99576 36.08406 -0.9777703 0
-49.99576 36.13406 -1.02777 0
-49.94576 36.08406 -0.9777703 0
-49.84576 35.93407 -0.8777703 0
-49.84576 36.03407 -0.9777703 0
-49.74576 35.93407 -0.8777703 0
-49.74576 35.98407 -0.9777703 0
-49.89576 35.88406 -0.7777703 0
-49.74576 35.88406 -0.8277704 0
-49.84576 36.13406 -1.02777 0
-49.99576 35.88406 -0.5777703 0
-49.94576 35.88406 -0.4277703 0
-49.84576 35.93407 -0.4277703 0
-49.79576 35.88406 -0.3777703 0
-49.74576 35.88406 -0.3777703 0
-49.64576 35.73407 -0.7277703 0
-49.69576 35.78407 -0.7777703 0
-49.54576 35.73407 -0.7777703 0
-49.59576 35.83406 -0.8277704 0
-49.34576 35.78407 -0.8777703 0
-49.34576 35.83406 -0.9277703 0
-49.34576 35.83406 -0.8777703 0
-49.49576 35.68407 -0.7277703 0
-49.49576 35.83406 -0.8277704 0
-49.39576 35.68407 -0.7777703 0
-49.39576 35.68407 -0.7277703 0
-49.69576 35.63406 -0.5777703 0
-49.64576 35.58406 -0.5777703 0
-49.64576 35.63406 -0.5777703 0
-49.59576 35.58406 -0.5777703 0
-49.59576 35.63406 -0.6277703 0
-49.54576 35.58406 -0.5777703 0
-49.69576 35.63406 -0.3277703 0
-49.59576 35.63406 -0.3277703 0
-49.69576 35.68407 -0.6277703 0
-49.59576 35.83406 -0.5277703 0
-49.59576 35.73407 -0.4277703 0
-49.59576 35.73407 -0.2777703 0
-49.54576 35.83406 -0.3777703 0
-49.49576 35.53407 -0.5777703 0
-49.49576 35.63406 -0.6277703 0
-49.44576 35.58406 -0.6277703 0
-49.44576 35.58406 -0.5777703 0
-49.39576 35.63406 -0.6277703 0
-49.34576 35.58406 -0.6277703 0
-49.44576 35.63406 -0.3777703 0
-49.34576 35.53407 -0.3277703 0
-49.39576 35.58406 -0.3777703 0
-49.39576 35.63406 -0.3777703 0
-49.34576 35.58406 -0.4277703 0
-49.44576 35.83406 -0.5277703 0
-49.34576 35.73407 -0.5277703 0
-49.39576 35.78407 -0.5277703 0
-49.44576 35.68407 -0.4277703 0
-49.44576 35.68407 -0.3777703 0
-49.44576 35.68407 -0.2777703 0
-49.49576 35.83406 -0.3777703 0
-49.39576 35.83406 -0.4277703 0
-49.34576 35.78407 -0.3777703 0
-49.34576 35.83406 -0.3777703 0
-49.64576 35.93407 -0.8777703 0
-49.69576 36.03407 -0.9777703 0
-49.54576 35.88406 -0.9277703 0
-49.54576 35.88406 -0.8777703 0
-49.59576 35.98407 -0.9777703 0
-49.49576 35.93407 -0.9777703 0
-49.44576 35.93407 -0.9777703 0
-49.44576 35.88406 -0.8777703 0
-49.49576 35.98407 -0.9777703 0
-49.34576 35.93407 -0.9777703 0
-49.39576 35.88406 -0.9277703 0
-49.69576 35.88406 -0.5777703 0
-49.69576 35.88406 -0.3777703 0
-49.64576 35.88406 -0.3777703 0
-49.59576 35.88406 -0.3777703 0
-49.74576 36.28407 -1.72777 0
-49.19576 35.73407 -1.07777 0
-49.04576 35.63406 -1.07777 0
-48.94576 35.53407 -1.07777 0
-48.99576 35.63406 -1.07777 0
-48.94576 35.63406 -1.12777 0
-48.94576 35.83406 -1.27777 0
-49.09576 35.68407 -1.07777 0
-49.04576 35.68407 -1.12777 0
-49.09576 35.78407 -1.12777 0
-48.99576 35.73407 -1.17777 0
-48.99576 35.73407 -1.12777 0
-48.99576 35.83406 -1.22777 0
-49.14576 36.18407 -1.52777 0
-49.29576 35.88406 -1.27777 0
-49.29576 35.98407 -1.37777 0
-49.29576 36.03407 -1.37777 0
-49.19576 35.93407 -1.27777 0
-49.14576 35.98407 -1.37777 0
-49.29576 36.03407 -1.07777 0
-49.24576 36.03407 -1.12777 0
-49.14576 35.88406 -1.22777 0
-49.19576 36.03407 -1.17777 0
-49.14576 35.98407 -1.07777 0
-49.14576 36.03407 -1.12777 0
-49.19576 36.08406 -1.42777 0
-49.19576 36.08406 -1.27777 0
-49.19576 36.13406 -1.32777 0
-49.29576 36.13406 -1.17777 0
-49.24576 36.08406 -1.17777 0
-49.24576 36.08406 -1.12777 0
-49.19576 36.08406 -1.17777 0
-49.04576 35.88406 -1.27777 0
-49.04576 35.98407 -1.27777 0
-48.94576 35.88406 -1.27777 0
-48.94576 36.03407 -1.42777 0
-48.99576 35.98407 -1.32777 0
-49.09576 36.03407 -1.17777 0
-49.09576 35.98407 -1.12777 0
-48.99576 35.93407 -1.12777 0
-48.99576 35.98407 -1.17777 0
-48.99576 35.98407 -1.12777 0
-49.09576 36.08406 -1.42777 0
-48.99576 36.08406 -1.42777 0
-48.89576 35.53407 -1.07777 0
-48.84576 35.48407 -1.07777 0
-48.84576 35.53407 -1.12777 0
-48.84576 35.63406 -1.17777 0
-48.74576 35.58406 -1.17777 0
-48.74576 35.63406 -1.22777 0
-48.84576 35.83406 -1.27777 0
-48.74576 35.73407 -1.27777 0
-48.74576 35.83406 -1.37777 0
-48.89576 35.68407 -1.22777 0
-48.89576 35.68407 -1.17777 0
-48.84576 35.78407 -1.22777 0
-48.79576 35.68407 -1.22777 0
-48.64576 35.63406 -1.32777 0
-48.59576 35.63406 -1.27777 0
-48.54576 35.58406 -1.27777 0
-48.64576 35.48407 -1.17777 0
-48.69576 35.58406 -1.22777 0
-48.59576 35.53407 -1.22777 0
-48.54576 35.48407 -1.22777 0
-48.64576 35.73407 -1.37777 0
-48.64576 35.68407 -1.27777 0
-48.69576 35.83406 -1.37777 0
-48.64576 35.83406 -1.42777 0
-48.59576 35.73407 -1.37777 0
-48.54576 35.68407 -1.37777 0
-48.84576 35.93407 -1.37777 0
-48.89576 35.88406 -1.32777 0
-48.89576 35.93407 -1.32777 0
-48.89576 35.98407 -1.37777 0
-48.74576 35.88406 -1.42777 0
-48.74576 35.88406 -1.37777 0
-48.79576 35.88406 -1.32777 0
-48.89576 35.88406 -1.07777 0
-48.84576 35.93407 -1.12777 0
-49.19576 35.58406 -0.9277703 0
-49.29576 35.63406 -0.7277703 0
-49.19576 35.63406 -0.7277703 0
-49.14576 35.63406 -0.7277703 0
-49.24576 35.78407 -0.8777703 0
-49.24576 35.83406 -0.9277703 0
-49.14576 35.78407 -0.8777703 0
-49.14576 35.83406 -0.9277703 0
-49.24576 35.68407 -0.7777703 0
-48.94576 35.53407 -1.02777 0
-49.09576 35.58406 -0.7277703 0
-48.99576 35.58406 -0.7277703 0
-48.99576 35.63406 -0.6777703 0
-48.94576 35.58406 -0.7277703 0
-48.94576 35.58406 -0.6777703 0
-49.04576 35.83406 -0.9777703 0
-49.09576 35.78407 -0.8777703 0
-49.04576 35.83406 -0.9277703 0
-48.94576 35.73407 -0.8777703 0
-48.94576 35.83406 -0.9777703 0
-48.99576 35.78407 -0.9277703 0
-48.94576 35.78407 -0.9277703 0
-48.94576 35.78407 -0.8777703 0
-49.09576 35.68407 -0.7777703 0
-49.04576 35.68407 -0.6777703 0
-48.99576 35.68407 -0.6777703 0
-49.29576 35.58406 -0.6277703 0
-49.24576 35.63406 -0.4777703 0
-49.19576 35.53407 -0.4777703 0
-49.19576 35.58406 -0.6277703 0
-49.29576 35.48407 -0.3777703 0
-49.24576 35.53407 -0.4277703 0
-49.29576 35.48407 -0.3277703 0
-49.19576 35.48407 -0.4277703 0
-49.19576 35.58406 -0.2777703 0
-49.24576 35.73407 -0.5777703 0
-49.29576 35.73407 -0.5277703 0
-49.19576 35.68407 -0.5777703 0
-49.29576 35.68407 -0.2777703 0
-49.29576 35.78407 -0.3777703 0
-49.29576 35.83406 -0.4277703 0
-49.24576 35.78407 -0.3777703 0
-49.19576 35.73407 -0.3777703 0
-49.14576 35.68407 -0.3777703 0
-49.09576 35.58406 -0.5777703 0
-49.09576 35.63406 -0.5777703 0
-49.04576 35.58406 -0.5777703 0
-49.09576 35.63406 -0.3777703 0
-48.99576 35.53407 -0.3277703 0
-48.94576 35.48407 -0.3277703 0
-48.94576 35.58406 -0.4277703 0
-49.24576 35.88406 -0.9777703 0
-49.24576 35.98407 -1.02777 0
-49.14576 35.88406 -0.9777703 0
-49.09576 35.93407 -1.02777 0
-48.89576 35.48407 -1.02777 0
-48.84576 35.48407 -0.6777703 0
-48.84576 35.53407 -0.6777703 0
-48.89576 35.58406 -0.6777703 0
-48.84576 35.58406 -0.7277703 0
-48.84576 35.58406 -0.6777703 0
-48.89576 35.78407 -0.9777703 0
-48.89576 35.83406 -1.02777 0
-48.84576 35.83406 -0.9777703 0
-48.89576 35.78407 -0.9277703 0
-48.84576 35.78407 -0.9277703 0
-48.74576 35.68407 -0.8777703 0
-48.74576 35.73407 -0.9277703 0
-48.74576 35.78407 -1.02777 0
-48.74576 35.78407 -0.9777703 0
-48.79576 35.78407 -0.9277703 0
-48.59576 35.53407 -0.9277703 0
-48.59576 35.53407 -0.8777703 0
-48.54576 35.48407 -0.9277703 0
-48.54576 35.63406 -0.9777703 0
-48.59576 35.63406 -0.9277703 0
-48.54576 35.58406 -0.9277703 0
-48.69576 35.63406 -0.8277704 0
-48.64576 35.58406 -0.8277704 0
-48.59576 35.48407 -0.8277704 0
-48.69576 35.73407 -0.9777703 0
-48.69576 35.73407 -0.9277703 0
-48.64576 35.68407 -0.9277703 0
-48.64576 35.73407 -0.9277703 0
-48.59576 35.68407 -0.9777703 0
-48.59576 35.68407 -0.9277703 0
-48.89576 35.48407 -0.6277703 0
-48.89576 35.53407 -0.6277703 0
-48.84576 35.48407 -0.6277703 0
-48.84576 35.48407 -0.3777703 0
-50.89576 38.48407 -2.27777 0
-50.89576 38.48407 -2.02777 0
-50.34576 38.23407 -2.32777 0
-50.24576 38.18407 -2.32777 0
-50.14576 38.13406 -2.27777 0
-50.34576 38.38406 -2.47777 0
-50.44576 38.48407 -2.47777 0
-50.44576 38.58406 -2.47777 0
-50.34576 38.48407 -2.32777 0
-50.29576 38.43407 -2.27777 0
-50.29576 38.53407 -2.27777 0
-50.29576 38.58406 -2.27777 0
-50.29576 38.63406 -2.27777 0
-50.29576 38.48407 -2.22777 0
-50.29576 38.53407 -2.22777 0
-50.24576 38.48407 -2.22777 0
-50.24576 38.53407 -2.22777 0
-50.29576 38.58406 -2.22777 0
-50.29576 38.63406 -2.22777 0
-50.29576 38.48407 -2.02777 0
-50.24576 38.48407 -2.02777 0
-50.24576 38.53407 -2.02777 0
-51.69576 38.58406 -1.52777 0
-51.54576 38.38406 -1.22777 0
-51.49576 38.48407 -1.22777 0
-51.49576 38.58406 -1.22777 0
-50.89576 38.48407 -1.77777 0
-50.79576 38.63406 -1.27777 0
-50.34576 38.48407 -1.77777 0
-50.44576 38.53407 -1.52777 0
-50.14576 38.53407 -1.77777 0
-50.29576 38.58406 -1.57777 0
-50.24576 38.58406 -1.52777 0
-50.14576 38.63406 -1.57777 0
-50.34576 38.63406 -1.32777 0
-50.94576 38.73407 -2.37777 0
-50.94576 38.73407 -2.32777 0
-50.79576 38.73407 -2.37777 0
-50.79576 38.73407 -2.32777 0
-50.79576 38.73407 -2.27777 0
-50.79576 38.78407 -2.27777 0
-50.64576 38.73407 -2.32777 0
-50.64576 38.73407 -2.27777 0
-50.69576 38.78407 -2.27777 0
-50.54576 39.03407 -2.52777 0
-50.54576 39.08406 -2.52777 0
-50.54576 39.18407 -2.52777 0
-50.54576 39.28407 -2.52777 0
-50.54576 39.38406 -2.52777 0
-50.54576 39.43407 -2.52777 0
-50.44576 38.68407 -2.47777 0
-50.49576 38.78407 -2.47777 0
-50.49576 38.73407 -2.32777 0
-50.49576 38.73407 -2.27777 0
-50.49576 38.78407 -2.27777 0
-50.34576 38.68407 -2.32777 0
-50.34576 38.73407 -2.27777 0
-50.49576 38.88406 -2.47777 0
-50.49576 38.93407 -2.52777 0
-50.29576 38.68407 -2.27777 0
-50.29576 38.73407 -2.27777 0
-50.29576 38.78407 -2.27777 0
-50.29576 38.68407 -2.22777 0
-50.29576 38.73407 -2.22777 0
-50.29576 38.78407 -2.22777 0
-50.49576 39.08406 -2.52777 0
-50.49576 39.13406 -2.52777 0
-50.44576 39.23407 -2.52777 0
-50.44576 39.33406 -2.52777 0
-50.44576 39.43407 -2.52777 0
-50.54576 39.58406 -2.52777 0
-50.54576 39.68407 -2.52777 0
-50.54576 39.78407 -2.52777 0
-50.54576 39.88406 -2.52777 0
-50.59576 39.98407 -2.52777 0
-50.54576 40.08406 -2.52777 0
-50.54576 40.18407 -2.52777 0
-50.54576 40.23407 -2.52777 0
-50.39576 39.53407 -2.52777 0
-50.39576 39.58406 -2.52777 0
-50.14576 39.58406 -2.52777 0
-50.19576 39.68407 -2.52777 0
-50.19576 39.78407 -2.52777 0
-50.34576 40.13406 -2.52777 0
-50.34576 40.18407 -2.52777 0
-50.24576 39.93407 -2.52777 0
-50.29576 40.03407 -2.52777 0
-51.39576 38.88406 -1.07777 0
-51.29576 39.08406 -1.07777 0
-51.24576 39.18407 -1.07777 0
-51.19576 39.33406 -1.12777 0
-51.19576 39.43407 -1.12777 0
-51.59576 38.83406 -0.9777703 0
-51.59576 38.93407 -0.8777703 0
-51.59576 39.03407 -0.8777703 0
-51.54576 39.03407 -0.9277703 0
-51.49576 38.88406 -0.9777703 0
-51.44576 38.98407 -0.9777703 0
-51.44576 39.03407 -0.9777703 0
-51.54576 39.13406 -0.9277703 0
-51.54576 39.23407 -0.9277703 0
-51.44576 39.13406 -0.9777703 0
-51.49576 39.23407 -0.9277703 0
-51.39576 39.13406 -1.02777 0
-51.39576 39.18407 -0.9777703 0
-51.39576 39.23407 -1.02777 0
-51.49576 39.33406 -0.9277703 0
-51.44576 39.38406 -0.9777703 0
-51.49576 39.43407 -0.9277703 0
-51.39576 39.28407 -1.02777 0
-51.39576 39.28407 -0.9777703 0
-51.39576 39.38406 -0.9777703 0
-51.34576 39.38406 -1.02777 0
-51.49576 40.18407 -1.07777 0
-51.19576 39.58406 -1.12777 0
-51.14576 39.68407 -1.12777 0
-51.19576 39.78407 -1.17777 0
-51.19576 39.88406 -1.17777 0
-51.19576 39.98407 -1.17777 0
-51.24576 40.08406 -1.17777 0
-51.24576 40.13406 -1.17777 0
-51.29576 40.23407 -1.17777 0
-51.69576 39.53407 -0.7777703 0
-51.69576 39.63406 -0.7777703 0
-51.69576 39.73407 -0.8277704 0
-51.69576 39.83406 -0.8277704 0
-51.44576 39.53407 -0.9777703 0
-51.44576 39.63406 -0.9777703 0
-51.39576 39.48407 -0.9777703 0
-51.34576 39.48407 -1.02777 0
-51.34576 39.53407 -1.02777 0
-51.39576 39.58406 -0.9777703 0
-51.39576 39.63406 -0.9777703 0
-51.34576 39.63406 -1.02777 0
-51.44576 39.68407 -1.02777 0
-51.44576 39.73407 -0.9777703 0
-51.49576 39.78407 -0.9777703 0
-51.44576 39.78407 -0.9777703 0
-51.39576 39.73407 -1.02777 0
-51.39576 39.73407 -0.9777703 0
-51.39576 39.83406 -1.02777 0
-51.54576 40.08406 -0.9777703 0
-51.59576 40.23407 -0.9777703 0
-51.49576 39.88406 -0.9777703 0
-51.44576 39.88406 -0.9777703 0
-51.49576 39.98407 -0.9777703 0
-51.44576 39.98407 -1.02777 0
-51.44576 40.03407 -1.02777 0
-51.39576 39.88406 -1.02777 0
-51.39576 39.93407 -1.02777 0
-51.49576 40.13406 -1.02777 0
-51.44576 40.08406 -1.02777 0
-50.14576 38.68407 -1.32777 0
-50.39576 39.93407 -1.22777 0
-49.69576 37.83406 -2.27777 0
-49.59576 37.78407 -2.27777 0
-49.39576 37.63406 -2.22777 0
-49.49576 37.73407 -2.22777 0
-50.04576 38.03407 -2.27777 0
-49.94576 37.98407 -2.27777 0
-49.84576 37.88406 -2.27777 0
-50.04576 38.38406 -2.42777 0
-49.94576 38.33406 -2.32777 0
-49.74576 38.33406 -2.27777 0
-50.09576 38.58406 -2.02777 0
-49.99576 38.63406 -1.97777 0
-49.69576 38.38406 -2.42777 0
-49.59576 38.33406 -2.27777 0
-49.59576 38.38406 -2.42777 0
-49.64576 38.48407 -2.42777 0
-49.69576 38.63406 -2.42777 0
-49.64576 38.58406 -2.42777 0
-49.44576 38.38406 -2.37777 0
-49.44576 38.38406 -2.27777 0
-49.39576 38.38406 -2.42777 0
-48.94576 37.43407 -2.17777 0
-49.29576 37.58406 -2.22777 0
-49.19576 37.53407 -2.22777 0
-49.04576 37.48407 -2.22777 0
-48.79576 37.38406 -2.17777 0
-48.69576 37.33406 -2.17777 0
-48.59576 37.28407 -2.17777 0
-49.29576 38.38406 -2.42777 0
-49.29576 38.38406 -2.27777 0
-49.19576 38.33406 -2.27777 0
-49.14576 38.38406 -2.37777 0
-49.14576 38.38406 -2.27777 0
-49.14576 38.43407 -2.32777 0
-48.99576 38.43407 -2.37777 0
-48.99576 38.38406 -2.27777 0
-48.94576 38.43407 -2.32777 0
-48.99576 38.38406 -2.22777 0
-48.89576 38.38406 -2.37777 0
-48.84576 38.38406 -2.27777 0
-48.79576 38.43407 -2.37777 0
-48.69576 38.38406 -2.27777 0
-48.69576 38.43407 -2.27777 0
-48.64576 38.38406 -2.32777 0
-48.54576 38.43407 -2.32777 0
-48.84576 38.33406 -2.22777 0
-48.84576 38.38406 -2.22777 0
-48.64576 38.33406 -2.22777 0
-48.69576 38.38406 -2.22777 0
-48.54576 38.38406 -2.22777 0
-49.99576 38.58406 -1.77777 0
-49.94576 38.63406 -1.72777 0
-49.89576 38.63406 -1.77777 0
-49.74576 38.68407 -2.47777 0
-49.79576 38.78407 -2.47777 0
-49.84576 38.88406 -2.47777 0
-49.89576 38.98407 -2.47777 0
-49.94576 38.68407 -1.97777 0
-49.94576 38.73407 -1.97777 0
-49.89576 38.73407 -1.97777 0
-49.89576 38.78407 -1.97777 0
-49.84576 38.83406 -1.97777 0
-49.84576 38.83406 -1.92777 0
-49.84576 38.93407 -1.97777 0
-49.79576 38.93407 -1.97777 0
-49.79576 38.88406 -1.92777 0
-49.79576 38.98407 -2.02777 0
-49.79576 38.98407 -1.97777 0
-49.79576 39.03407 -2.02777 0
-49.79576 39.03407 -1.97777 0
-49.94576 39.08406 -2.47777 0
-49.99576 39.18407 -2.47777 0
-50.04576 39.28407 -2.47777 0
-50.04576 39.38406 -2.47777 0
-49.79576 39.08406 -2.02777 0
-49.79576 39.08406 -1.97777 0
-49.79576 39.13406 -2.02777 0
-49.79576 39.08406 -1.92777 0
-49.79576 39.13406 -1.92777 0
-49.79576 39.18407 -2.02777 0
-49.79576 39.18407 -1.97777 0
-49.79576 39.23407 -2.02777 0
-49.79576 39.18407 -1.92777 0
-49.79576 39.28407 -2.02777 0
-49.79576 39.28407 -1.97777 0
-49.79576 39.33406 -2.02777 0
-49.79576 39.33406 -1.97777 0
-49.79576 39.28407 -1.92777 0
-49.79576 39.38406 -1.97777 0
-49.79576 39.43407 -2.02777 0
-50.09576 39.48407 -2.47777 0
-49.79576 39.48407 -2.02777 0
-49.79576 39.48407 -1.97777 0
-49.79576 39.53407 -1.92777 0
-49.79576 39.58406 -2.02777 0
-49.79576 39.58406 -1.97777 0
-49.79576 39.63406 -1.97777 0
-49.79576 39.68407 -2.02777 0
-49.79576 39.68407 -1.97777 0
-49.79576 39.73407 -1.97777 0
-49.79576 39.68407 -1.92777 0
-49.79576 39.78407 -2.02777 0
-49.79576 39.78407 -1.97777 0
-49.84576 39.98407 -2.02777 0
-49.84576 40.03407 -1.97777 0
-49.79576 39.88406 -2.02777 0
-49.79576 39.88406 -1.97777 0
-49.79576 39.98407 -2.02777 0
-49.79576 39.98407 -1.97777 0
-49.79576 40.03407 -2.02777 0
-49.84576 40.13406 -2.02777 0
-49.84576 40.13406 -1.97777 0
-49.89576 40.23407 -2.02777 0
-49.84576 40.18407 -2.02777 0
-49.84576 40.18407 -1.97777 0
-49.84576 40.23407 -2.02777 0
-49.79576 40.08406 -2.02777 0
-49.34576 40.03407 -2.47777 0
-49.44576 40.23407 -2.47777 0
-49.39576 40.13406 -2.47777 0
-48.74576 39.33406 -2.42777 0
-48.79576 39.38406 -2.42777 0
-48.64576 39.23407 -2.37777 0
-48.54576 39.13406 -2.37777 0
-48.59576 39.18407 -2.37777 0
-48.69576 39.28407 -2.37777 0
-49.19576 39.83406 -2.42777 0
-48.99576 39.63406 -2.42777 0
-49.09576 39.73407 -2.42777 0
-49.24576 39.93407 -2.47777 0
-49.29576 39.98407 -2.47777 0
-48.89576 39.53407 -2.42777 0
-49.99576 38.68407 -1.57777 0
-49.94576 38.73407 -1.57777 0
-49.94576 38.73407 -1.52777 0
-49.89576 38.68407 -1.77777 0
-49.84576 38.73407 -1.77777 0
-49.84576 38.78407 -1.72777 0
-49.84576 38.83406 -1.67777 0
-49.79576 38.78407 -1.77777 0
-49.79576 38.83406 -1.77777 0
-49.89576 38.78407 -1.57777 0
-49.89576 38.83406 -1.62777 0
-49.89576 38.83406 -1.57777 0
-49.89576 38.83406 -1.52777 0
-49.84576 38.98407 -1.67777 0
-49.79576 38.88406 -1.77777 0
-49.79576 38.93407 -1.77777 0
-49.79576 39.03407 -1.77777 0
-49.74576 38.98407 -1.77777 0
-49.89576 38.88406 -1.57777 0
-49.84576 38.93407 -1.57777 0
-49.84576 38.93407 -1.52777 0
-49.84576 38.98407 -1.57777 0
-49.84576 39.03407 -1.62777 0
-49.84576 39.03407 -1.57777 0
-49.89576 39.03407 -1.52777 0
-49.84576 39.03407 -1.52777 0
-50.09576 38.68407 -1.32777 0
-50.04576 38.73407 -1.32777 0
-50.04576 38.78407 -1.32777 0
-49.99576 38.73407 -1.37777 0
-49.99576 38.83406 -1.32777 0
-49.94576 38.88406 -1.37777 0
-49.94576 38.93407 -1.37777 0
-49.99576 38.88406 -1.32777 0
-49.94576 38.98407 -1.37777 0
-49.94576 39.03407 -1.37777 0
-49.99576 38.98407 -1.27777 0
-49.99576 39.03407 -1.27777 0
-49.89576 39.03407 -1.42777 0
-49.84576 39.08406 -1.67777 0
-49.84576 39.18407 -1.67777 0
-49.79576 39.08406 -1.77777 0
-49.79576 39.13406 -1.77777 0
-49.79576 39.18407 -1.77777 0
-49.79576 39.23407 -1.77777 0
-49.74576 39.23407 -1.77777 0
-49.84576 39.08406 -1.57777 0
-49.84576 39.13406 -1.57777 0
-49.84576 39.08406 -1.52777 0
-49.84576 39.18407 -1.62777 0
-49.84576 39.18407 -1.57777 0
-49.84576 39.23407 -1.57777 0
-49.84576 39.18407 -1.52777 0
-49.84576 39.28407 -1.72777 0
-49.84576 39.38406 -1.72777 0
-49.74576 39.28407 -1.82777 0
-49.74576 39.28407 -1.77777 0
-49.74576 39.33406 -1.77777 0
-49.79576 39.38406 -1.82777 0
-49.79576 39.38406 -1.77777 0
-49.74576 39.43407 -1.77777 0
-49.84576 39.28407 -1.57777 0
-49.84576 39.33406 -1.62777 0
-49.84576 39.33406 -1.57777 0
-49.84576 39.33406 -1.52777 0
-49.84576 39.38406 -1.57777 0
-49.84576 39.43407 -1.57777 0
-49.94576 39.08406 -1.37777 0
-49.94576 39.13406 -1.37777 0
-49.99576 39.13406 -1.27777 0
-49.94576 39.08406 -1.27777 0
-49.94576 39.18407 -1.37777 0
-49.99576 39.23407 -1.32777 0
-49.99576 39.23407 -1.27777 0
-49.94576 39.28407 -1.37777 0
-49.94576 39.33406 -1.37777 0
-49.94576 39.33406 -1.32777 0
-49.94576 39.38406 -1.37777 0
-49.94576 39.43407 -1.37777 0
-49.94576 39.38406 -1.32777 0
-49.94576 39.43407 -1.32777 0
-49.89576 39.13406 -1.42777 0
-49.89576 39.23407 -1.42777 0
-49.89576 39.33406 -1.42777 0
-49.84576 39.48407 -1.67777 0
-49.84576 39.58406 -1.72777 0
-49.84576 39.58406 -1.67777 0
-49.79576 39.48407 -1.82777 0
-49.79576 39.53407 -1.77777 0
-49.79576 39.48407 -1.72777 0
-49.79576 39.58406 -1.77777 0
-49.74576 39.58406 -1.82777 0
-49.84576 39.48407 -1.57777 0
-49.84576 39.53407 -1.62777 0
-49.84576 39.53407 -1.57777 0
-49.84576 39.58406 -1.62777 0
-49.84576 39.63406 -1.57777 0
-49.89576 39.58406 -1.47777 0
-49.89576 39.63406 -1.47777 0
-49.84576 39.68407 -1.72777 0
-49.84576 39.73407 -1.67777 0
-49.84576 39.78407 -1.72777 0
-49.79576 39.68407 -1.82777 0
-49.79576 39.68407 -1.77777 0
-49.79576 39.78407 -1.82777 0
-49.84576 39.68407 -1.62777 0
-49.84576 39.73407 -1.57777 0
-49.89576 39.73407 -1.47777 0
-49.84576 39.78407 -1.62777 0
-49.84576 39.83406 -1.57777 0
-49.94576 39.53407 -1.32777 0
-49.94576 39.63406 -1.37777 0
-49.94576 39.63406 -1.32777 0
-49.94576 39.68407 -1.37777 0
-49.94576 39.73407 -1.32777 0
-49.94576 39.78407 -1.37777 0
-49.94576 39.83406 -1.32777 0
-49.89576 39.48407 -1.42777 0
-49.89576 39.48407 -1.37777 0
-49.89576 39.58406 -1.37777 0
-49.84576 39.88406 -1.72777 0
-49.84576 39.88406 -1.67777 0
-49.84576 40.03407 -1.77777 0
-49.84576 39.98407 -1.72777 0
-49.84576 39.98407 -1.67777 0
-49.79576 39.88406 -1.82777 0
-49.79576 39.98407 -1.82777 0
-49.79576 40.03407 -1.82777 0
-49.84576 39.88406 -1.62777 0
-49.84576 39.93407 -1.57777 0
-49.89576 39.88406 -1.47777 0
-49.89576 39.93407 -1.47777 0
-49.89576 39.98407 -1.62777 0
-49.89576 39.98407 -1.57777 0
-49.84576 39.98407 -1.62777 0
-49.89576 40.03407 -1.47777 0
-49.84576 40.13406 -1.77777 0
-49.84576 40.13406 -1.72777 0
-49.84576 40.23407 -1.77777 0
-49.89576 40.23407 -1.72777 0
-49.79576 40.08406 -1.82777 0
-49.79576 40.13406 -1.82777 0
-49.79576 40.18407 -1.82777 0
-49.79576 40.23407 -1.82777 0
-49.89576 40.08406 -1.57777 0
-49.89576 40.13406 -1.62777 0
-49.84576 40.08406 -1.62777 0
-49.89576 40.13406 -1.52777 0
-49.89576 40.18407 -1.62777 0
-49.84576 40.18407 -1.62777 0
-49.89576 40.18407 -1.52777 0
-49.99576 39.93407 -1.37777 0
-49.94576 39.88406 -1.37777 0
-49.94576 39.93407 -1.37777 0
-49.94576 39.98407 -1.37777 0
-49.94576 40.03407 -1.37777 0
-49.99576 40.13406 -1.42777 0
-49.94576 40.08406 -1.42777 0
-49.94576 40.13406 -1.37777 0
-49.99576 40.23407 -1.42777 0
-49.99576 40.23407 -1.37777 0
-49.94576 40.18407 -1.42777 0
-54.19576 40.48407 -2.72777 0
-54.84576 40.43407 -2.02777 0
-54.59576 40.43407 -2.02777 0
-54.34576 40.48407 -2.62777 0
-54.39576 40.48407 -2.22777 0
-54.29576 40.48407 -2.02777 0
-53.99576 40.48407 -2.67777 0
-53.94576 40.48407 -2.57777 0
-53.94576 40.53407 -2.57777 0
-53.89576 40.28407 -2.57777 0
-53.89576 40.33406 -2.57777 0
-53.89576 40.38406 -2.57777 0
-53.89576 40.43407 -2.57777 0
-53.89576 40.53407 -2.57777 0
-53.99576 40.53407 -2.17777 0
-53.94576 40.53407 -2.22777 0
-53.94576 40.53407 -1.87777 0
-53.79576 40.48407 -1.87777 0
-53.64576 40.48407 -2.17777 0
-54.39576 40.53407 -1.82777 0
-54.49576 40.38406 -1.42777 0
-54.09576 40.43407 -1.47777 0
-53.99576 40.53407 -1.82777 0
-53.84576 40.43407 -1.82777 0
-54.04576 40.38406 -1.42777 0
-53.54576 40.43407 -1.82777 0
-53.34576 40.43407 -1.47777 0
-53.64576 40.43407 -1.42777 0
-53.29576 40.48407 -2.17777 0
-52.99576 40.48407 -2.17777 0
-52.89576 40.48407 -1.87777 0
-52.69576 40.53407 -2.12777 0
-52.39576 40.53407 -2.12777 0
-52.14576 40.53407 -2.12777 0
-51.99576 40.53407 -2.12777 0
-51.84576 40.53407 -2.12777 0
-51.79576 40.53407 -2.12777 0
-53.19576 40.43407 -1.82777 0
-52.99576 40.43407 -1.47777 0
-53.09576 40.33406 -1.07777 0
-52.89576 40.43407 -1.82777 0
-52.64576 40.43407 -1.47777 0
-52.59576 40.48407 -1.82777 0
-52.84576 40.43407 -1.37777 0
-52.74576 40.33406 -1.12777 0
-52.64576 40.43407 -1.37777 0
-52.94576 40.28407 -0.9777703 0
-52.74576 40.28407 -1.02777 0
-52.39576 40.43407 -1.47777 0
-52.34576 40.48407 -1.77777 0
-52.29576 40.48407 -1.82777 0
-52.14576 40.48407 -1.77777 0
-52.39576 40.43407 -1.42777 0
-52.19576 40.43407 -1.42777 0
-52.09576 40.53407 -1.82777 0
-51.99576 40.48407 -1.82777 0
-52.09576 40.48407 -1.47777 0
-51.89576 40.48407 -1.77777 0
-51.74576 40.48407 -1.82777 0
-51.74576 40.48407 -1.77777 0
-51.79576 40.48407 -1.47777 0
-51.99576 40.48407 -1.42777 0
-51.79576 40.33406 -1.07777 0
-51.79576 40.48407 -1.42777 0
-52.49576 40.28407 -1.02777 0
-52.24576 40.33406 -1.02777 0
-52.04576 40.33406 -1.02777 0
-51.84576 40.33406 -0.9777703 0
-51.64576 40.53407 -2.07777 0
-51.59576 40.53407 -2.12777 0
-51.44576 40.53407 -2.07777 0
-51.34576 40.53407 -2.07777 0
-51.04576 40.53407 -2.37777 0
-51.24576 40.53407 -2.07777 0
-51.09576 40.58406 -2.12777 0
-51.09576 40.58406 -2.07777 0
-51.04576 40.58406 -2.07777 0
-50.89576 40.48407 -2.42777 0
-50.84576 40.53407 -2.37777 0
-50.84576 40.53407 -2.32777 0
-50.54576 40.38406 -2.57777 0
-50.54576 40.48407 -2.57777 0
-50.69576 40.53407 -2.42777 0
-50.69576 40.58406 -2.37777 0
-50.64576 40.58406 -2.32777 0
-50.54576 40.58406 -2.37777 0
-50.59576 40.58406 -2.32777 0
-50.89576 40.58406 -2.07777 0
-50.84576 40.58406 -2.07777 0
-50.69576 40.58406 -2.07777 0
-50.64576 40.58406 -2.07777 0
-50.59576 40.58406 -2.07777 0
-50.54576 40.58406 -2.07777 0
-50.34576 40.28407 -2.52777 0
-50.39576 40.38406 -2.52777 0
-50.34576 40.28407 -2.32777 0
-50.34576 40.38406 -2.32777 0
-50.34576 40.38406 -2.27777 0
-50.34576 40.43407 -2.32777 0
-50.49576 40.58406 -2.57777 0
-50.44576 40.63406 -2.57777 0
-50.39576 40.53407 -2.57777 0
-50.39576 40.48407 -2.52777 0
-50.49576 40.53407 -2.42777 0
-50.44576 40.58406 -2.32777 0
-50.34576 40.48407 -2.32777 0
-50.39576 40.58406 -2.32777 0
-50.34576 40.58406 -2.32777 0
-50.29576 40.33406 -2.32777 0
-50.29576 40.33406 -2.27777 0
-50.29576 40.38406 -2.32777 0
-50.29576 40.43407 -2.32777 0
-50.29576 40.48407 -2.32777 0
-50.29576 40.53407 -2.32777 0
-50.29576 40.58406 -2.32777 0
-50.44576 40.58406 -2.07777 0
-50.39576 40.58406 -2.02777 0
-50.29576 40.53407 -2.07777 0
-50.29576 40.58406 -2.07777 0
-50.14576 40.53407 -2.07777 0
-50.29576 40.48407 -2.02777 0
-50.29576 40.53407 -2.02777 0
-50.19576 40.48407 -2.02777 0
-50.14576 40.48407 -2.02777 0
-50.49576 40.68407 -2.57777 0
-50.44576 40.68407 -2.57777 0
-50.49576 40.78407 -2.57777 0
-50.44576 40.78407 -2.57777 0
-50.49576 40.88406 -2.57777 0
-50.44576 40.88406 -2.57777 0
-50.49576 41.03407 -2.57777 0
-50.44576 40.98407 -2.57777 0
-50.44576 41.03407 -2.57777 0
-50.54576 41.43407 -2.57777 0
-50.54576 41.48407 -2.57777 0
-50.54576 41.58406 -2.57777 0
-50.54576 41.68407 -2.57777 0
-50.54576 41.83406 -2.62777 0
-50.49576 41.13406 -2.57777 0
-50.44576 41.13406 -2.57777 0
-50.49576 41.18407 -2.57777 0
-50.49576 41.28407 -2.57777 0
-50.39576 41.28407 -2.57777 0
-50.39576 41.38406 -2.57777 0
-50.34576 41.48407 -2.57777 0
-50.34576 41.58406 -2.57777 0
-50.34576 41.68407 -2.57777 0
-50.14576 41.63406 -2.57777 0
-50.19576 41.73407 -2.57777 0
-51.54576 40.48407 -1.77777 0
-51.69576 40.53407 -1.57777 0
-51.54576 40.48407 -1.47777 0
-51.49576 40.48407 -1.77777 0
-51.34576 40.48407 -1.77777 0
-51.34576 40.48407 -1.52777 0
-51.64576 40.33406 -1.07777 0
-51.54576 40.28407 -1.07777 0
-51.59576 40.38406 -1.17777 0
-51.59576 40.48407 -1.42777 0
-51.54576 40.48407 -1.27777 0
-51.54576 40.53407 -1.27777 0
-51.54576 40.53407 -1.22777 0
-51.34576 40.43407 -1.32777 0
-51.44576 40.38406 -1.17777 0
-51.34576 40.28407 -1.17777 0
-51.44576 40.48407 -1.42777 0
-51.59576 40.68407 -1.32777 0
-51.59576 40.68407 -1.27777 0
-51.59576 40.68407 -1.22777 0
-51.04576 40.48407 -1.72777 0
-51.09576 40.58406 -1.82777 0
-51.04576 40.58406 -1.77777 0
-51.09576 40.48407 -1.52777 0
-51.24576 40.48407 -1.42777 0
-51.04576 40.48407 -1.42777 0
-51.64576 40.28407 -0.9777703 0
-51.54576 40.28407 -1.02777 0
-50.89576 40.58406 -1.77777 0
-50.74576 40.58406 -1.77777 0
-50.74576 40.58406 -1.52777 0
-50.64576 40.43407 -1.72777 0
-50.69576 40.58406 -1.77777 0
-50.59576 40.63406 -1.82777 0
-50.59576 40.58406 -1.72777 0
