# .PCD v0.7 - Point Cloud Data file format
VERSION 0.7
FIELDS x y z intensity
SIZE 4 4 4 4
TYPE F F F F
COUNT 1 1 1 1
WIDTH 953
HEIGHT 1
VIEWPOINT 0 0 0 1 0 0 0
POINTS 953
DATA ascii
-14.94576 -18.86594 -0.4777703 0
-14.74576 -18.96593 -0.4277703 0
-14.54576 -19.01594 -0.4277703 0
-14.34576 -19.06594 -0.4277703 0
-13.84576 -19.91594 -0.4277703 0
-13.64576 -19.91594 -0.4277703 0
-13.44576 -19.86594 -0.4277703 0
-14.09576 -19.11594 -0.4277703 0
-13.89576 -19.16594 -0.4277703 0
-13.69576 -19.21593 -0.4277703 0
-13.49576 -19.31594 -0.4277703 0
-13.19576 -19.81594 -0.4277703 0
-12.99576 -19.76594 -0.4277703 0
-13.09576 -19.36594 -0.4277703 0
-13.29576 -19.31594 -0.4277703 0
-13.09576 -19.06594 -0.4277703 0
-12.79576 -19.71593 -0.4277703 0
-12.89576 -19.41594 -0.4277703 0
-12.69576 -19.46593 -0.4277703 0
-12.84576 -19.11594 -0.4277703 0
-12.64576 -19.11594 -0.4277703 0
-12.49576 -19.51594 -0.4277703 0
-12.24576 -19.51594 -0.4277703 0
-12.44576 -19.11594 -0.4277703 0
-12.24576 -19.16594 -0.4277703 0
-12.04576 -19.56594 -0.4277703 0
-11.94576 -19.51594 -0.3777703 0
-11.84576 -19.61594 -0.4277703 0
-11.74576 -19.46593 -0.3777703 0
-11.99576 -19.16594 -0.3777703 0
-11.79576 -19.16594 -0.3777703 0
-11.64576 -19.61594 -0.4277703 0
-11.54576 -19.41594 -0.3777703 0
-11.44576 -19.66594 -0.4277703 0
-11.59576 -19.21593 -0.3777703 0
-11.39576 -19.21593 -0.3777703 0
-11.19576 -19.66594 -0.4277703 0
-10.99576 -19.71593 -0.4277703 0
-11.14576 -19.21593 -0.3777703 0
-10.94576 -19.21593 -0.3777703 0
-10.59576 -19.76594 -0.4277703 0
-10.39576 -19.76594 -0.3777703 0
-10.14576 -19.81594 -0.3777703 0
-10.79576 -19.71593 -0.4277703 0
-10.74576 -19.21593 -0.3777703 0
-10.54576 -19.21593 -0.3777703 0
-10.34576 -19.01594 -0.3777703 0
-10.29576 -19.21593 -0.3777703 0
-10.14576 -18.96593 -0.3777703 0
-9.945759 -19.81594 -0.3777703 0
-9.745759 -19.81594 -0.3777703 0
-9.545758 -19.81594 -0.3777703 0
-10.09576 -19.21593 -0.3777703 0
-9.895759 -19.21593 -0.3777703 0
-9.645759 -19.16594 -0.3777703 0
-9.445759 -19.16594 -0.3777703 0
-9.295758 -19.81594 -0.3777703 0
-9.095758 -19.86594 -0.3777703 0
-8.895759 -19.86594 -0.3777703 0
-8.695759 -19.81594 -0.3777703 0
-9.245759 -19.16594 -0.3777703 0
-9.045758 -19.16594 -0.3777703 0
-8.795758 -19.11594 -0.3777703 0
-8.595758 -19.11594 -0.3777703 0
-9.945759 -18.86594 -0.3777703 0
-9.745759 -18.81594 -0.3777703 0
-9.545758 -18.71593 -0.3277703 0
-9.345758 -18.66594 -0.3277703 0
-9.145759 -18.56594 -0.3277703 0
-8.945759 -18.46593 -0.3277703 0
-8.745759 -18.36594 -0.3277703 0
-8.545758 -18.26594 -0.3277703 0
-8.445759 -19.81594 -0.3777703 0
-8.245759 -19.81594 -0.3777703 0
-8.045758 -19.81594 -0.3777703 0
-7.845759 -19.81594 -0.3777703 0
-8.395759 -19.06594 -0.3277703 0
-8.195759 -19.06594 -0.3277703 0
-7.945759 -19.06594 -0.3277703 0
-7.745759 -19.01594 -0.3277703 0
-7.645759 -19.81594 -0.3777703 0
-7.395759 -19.76594 -0.3777703 0
-7.195759 -19.76594 -0.3777703 0
-6.995759 -19.76594 -0.3777703 0
-7.545759 -18.96593 -0.3277703 0
-8.345758 -18.21593 -0.3277703 0
-8.145759 -18.11594 -0.3277703 0
-7.995759 -18.01594 -0.3277703 0
-7.795759 -17.91594 -0.3277703 0
-7.345759 -18.91594 -0.3277703 0
-7.145759 -18.86594 -0.3277703 0
-7.595759 -17.81594 -0.3277703 0
-7.395759 -17.71593 -0.3277703 0
-7.195759 -17.61594 -0.3277703 0
-7.045759 -17.51594 -0.2777703 0
-6.795759 -19.71593 -0.3777703 0
-6.545759 -19.71593 -0.3777703 0
-6.345758 -19.66594 -0.3777703 0
-6.145759 -19.66594 -0.3277703 0
-5.945759 -19.61594 -0.3277703 0
-5.745759 -19.61594 -0.3277703 0
-5.545759 -19.56594 -0.3277703 0
-6.895759 -18.86594 -0.3277703 0
-6.695759 -18.81594 -0.3277703 0
-6.495759 -18.76594 -0.3277703 0
-6.295759 -18.71593 -0.3277703 0
-6.845758 -17.41594 -0.2777703 0
-6.095758 -18.71593 -0.3277703 0
-5.895759 -18.66594 -0.3277703 0
-5.645759 -18.56594 -0.3277703 0
-5.445759 -18.51594 -0.3277703 0
-5.295759 -19.51594 -0.3277703 0
-5.095758 -19.46593 -0.3277703 0
-4.895759 -19.46593 -0.3277703 0
-4.695759 -19.41594 -0.3277703 0
-4.495759 -19.36594 -0.3277703 0
-4.295759 -19.31594 -0.3277703 0
-4.095758 -19.26594 -0.3277703 0
-3.845759 -19.21593 -0.3277703 0
-5.245759 -18.46593 -0.3277703 0
-5.045759 -18.41594 -0.3277703 0
-4.845758 -18.36594 -0.3277703 0
-4.645759 -18.31594 -0.2777703 0
-4.445759 -18.21593 -0.2777703 0
-4.245759 -18.16594 -0.2777703 0
-4.045759 -18.11594 -0.2777703 0
-3.845759 -18.01594 -0.2777703 0
-3.645759 -19.16594 -0.3277703 0
-3.445759 -19.11594 -0.3277703 0
-3.245759 -19.06594 -0.3277703 0
-3.045759 -19.01594 -0.3277703 0
-3.645759 -17.96593 -0.2777703 0
-3.445759 -17.86594 -0.2777703 0
-3.245759 -17.81594 -0.2777703 0
-3.045759 -17.71593 -0.2777703 0
-2.845759 -18.91594 -0.3277703 0
-2.645759 -18.86594 -0.3277703 0
-2.445759 -18.81594 -0.3277703 0
-2.245759 -18.76594 -0.3277703 0
-2.845759 -17.66594 -0.2777703 0
-2.645759 -17.56594 -0.2777703 0
-2.445759 -17.46593 -0.2777703 0
-2.245759 -17.41594 -0.2777703 0
-2.045758 -18.66594 -0.3277703 0
-1.845759 -18.61594 -0.2777703 0
-1.645759 -18.51594 -0.2777703 0
-1.445759 -18.41594 -0.2777703 0
-1.245759 -18.36594 -0.2777703 0
-1.045759 -18.26594 -0.2777703 0
-0.8457586 -18.21593 -0.2777703 0
-0.6957586 -18.11594 -0.2777703 0
0.1542414 -19.91594 -0.3277703 0
0.3542414 -19.96593 -0.3277703 0
0.5542414 -19.96593 -0.3277703 0
0.8042414 -19.96593 -0.3277703 0
1.004241 -19.96593 -0.3277703 0
-0.4957586 -18.01594 -0.2777703 0
-0.2957586 -17.96593 -0.2777703 0
-0.09575857 -17.86594 -0.2777703 0
0.1042414 -17.76594 -0.2777703 0
0.3042414 -17.66594 -0.2777703 0
0.4542414 -17.56594 -0.2777703 0
0.6542414 -17.46593 -0.2777703 0
0.8542414 -17.36594 -0.2777703 0
1.204241 -19.96593 -0.3277703 0
1.404241 -19.96593 -0.3277703 0
1.654241 -19.96593 -0.3277703 0
1.854241 -19.96593 -0.3277703 0
2.054241 -19.96593 -0.3277703 0
2.254241 -19.91594 -0.3277703 0
2.504241 -19.91594 -0.3277703 0
2.704242 -19.91594 -0.3277703 0
2.904242 -19.86594 -0.3277703 0
3.104241 -19.86594 -0.3277703 0
3.304241 -19.81594 -0.3277703 0
3.554241 -19.81594 -0.3277703 0
3.754241 -19.76594 -0.3277703 0
3.954242 -19.76594 -0.3277703 0
4.154242 -19.71593 -0.3277703 0
4.404242 -19.71593 -0.3277703 0
4.604241 -19.66594 -0.3277703 0
4.804242 -19.61594 -0.3277703 0
5.004241 -19.61594 -0.3277703 0
5.104241 -19.71593 -0.3277703 0
5.204241 -19.56594 -0.3277703 0
5.404242 -19.51594 -0.3277703 0
5.504241 -19.66594 -0.3277703 0
5.954242 -19.61594 -0.3277703 0
6.154242 -19.56594 -0.3277703 0
6.354241 -19.56594 -0.3277703 0
6.654242 -19.16594 -0.3277703 0
6.804242 -19.46593 -0.3277703 0
7.004241 -19.46593 -0.3277703 0
6.854241 -19.11594 -0.3277703 0
7.054242 -19.06594 -0.3277703 0
7.204242 -19.41594 -0.3277703 0
7.254241 -19.01594 -0.3277703 0
8.454242 -19.11594 -0.3277703 0
8.654242 -19.06594 -0.3277703 0
8.854241 -18.96593 -0.3277703 0
3.604241 -17.41594 -0.2277703 0
7.804242 -19.31594 4.52223 0
8.004242 -19.26594 4.52223 0
8.204242 -19.31594 4.52223 0
8.204242 -19.26594 4.52223 0
8.404242 -19.26594 4.47223 0
8.404242 -19.26594 4.52223 0
8.604241 -19.26594 4.52223 0
8.654242 -19.26594 4.47223 0
8.854241 -19.26594 4.47223 0
8.854241 -19.21593 4.47223 0
9.054241 -19.26594 4.47223 0
9.054241 -19.16594 4.47223 0
9.254242 -19.26594 4.52223 0
9.254242 -19.16594 4.47223 0
9.454242 -19.26594 4.52223 0
9.454242 -19.11594 4.47223 0
9.554241 -19.26594 4.52223 0
9.654242 -19.26594 4.52223 0
9.654242 -19.11594 4.47223 0
9.804241 -19.21593 4.52223 0
9.854241 -19.06594 4.42223 0
9.904242 -19.26594 4.52223 0
10.00424 -19.16594 4.47223 0
10.10424 -19.31594 4.52223 0
10.10424 -19.06594 4.42223 0
10.20424 -19.11594 4.47223 0
10.30424 -19.06594 4.42223 0
10.45424 -19.06594 4.47223 0
10.50424 -19.01594 4.42223 0
10.65424 -19.01594 4.47223 0
10.70424 -19.06594 4.42223 0
10.85424 -19.01594 4.42223 0
10.90424 -19.01594 4.42223 0
11.05424 -18.96593 4.42223 0
11.10424 -19.06594 4.42223 0
11.30424 -19.01594 4.42223 0
11.50424 -19.06594 4.42223 0
11.70424 -19.06594 4.47223 0
11.95424 -19.06594 4.47223 0
12.15424 -19.11594 4.47223 0
11.25424 -18.91594 4.42223 0
11.45424 -18.86594 4.42223 0
11.65424 -18.86594 4.37223 0
11.85424 -18.86594 4.37223 0
12.05424 -18.86594 4.37223 0
12.25424 -18.86594 4.37223 0
12.35424 -19.16594 4.47223 0
12.55424 -19.16594 4.47223 0
12.80424 -19.21593 4.52223 0
12.45424 -18.86594 4.37223 0
12.65424 -18.81594 4.37223 0
12.90424 -18.86594 4.37223 0
13.10424 -18.81594 4.37223 0
13.30424 -18.86594 4.37223 0
13.50424 -18.86594 4.37223 0
13.70424 -18.91594 4.42223 0
14.30424 -18.96593 4.42223 0
14.55424 -19.01594 4.42223 0
14.75424 -19.01594 4.47223 0
14.95424 -19.06594 4.47223 0
13.90424 -18.91594 4.42223 0
14.10424 -18.91594 4.42223 0
-6.695759 -17.26594 -0.2777703 0
-6.495759 -17.16594 -0.2777703 0
-6.295759 -17.06594 -0.2777703 0
-6.145759 -16.96593 -0.2777703 0
-5.945759 -16.81594 -0.2777703 0
-5.795759 -16.71593 -0.2777703 0
-5.595758 -16.61594 -0.2777703 0
-5.445759 -16.46593 -0.2777703 0
-5.245759 -16.31594 -0.2777703 0
-5.095758 -16.21593 -0.2777703 0
-4.895759 -16.11594 -0.2777703 0
-4.745759 -15.96594 -0.2777703 0
-2.045758 -17.31594 -0.2777703 0
-1.845759 -17.21593 -0.2777703 0
-1.695759 -17.11594 -0.2777703 0
-1.495759 -17.01594 -0.2777703 0
-1.295759 -16.91594 -0.2777703 0
-1.095759 -16.81594 -0.2777703 0
-0.8957586 -16.71593 -0.2777703 0
1.054241 -17.26594 -0.2777703 0
1.204241 -17.16594 -0.2777703 0
1.404241 -17.06594 -0.2777703 0
1.604241 -16.96593 -0.2777703 0
1.754241 -16.86594 -0.2777703 0
1.954242 -16.71593 -0.2777703 0
2.104241 -16.61594 -0.2777703 0
9.054241 -17.26594 -0.2777703 0
9.004242 -17.21593 -0.3277703 0
9.004242 -16.76594 -0.2777703 0
9.004242 -16.36594 -0.2777703 0
9.004242 -15.96594 -0.2777703 0
8.954242 -15.56594 -0.2777703 0
8.804241 -15.21594 -0.2777703 0
8.904242 -15.26594 -0.2777703 0
8.954242 -15.16594 -0.2777703 0
9.054241 -15.16594 -0.2777703 0
9.154242 -15.16594 -0.2777703 0
9.254242 -15.16594 -0.2777703 0
9.304241 -15.11594 -0.2777703 0
9.354241 -15.11594 -0.2777703 0
9.454242 -15.11594 -0.2777703 0
9.404242 -15.01594 -0.2777703 0
-4.595758 -15.81594 -0.2277703 0
-4.395759 -15.71594 -0.2277703 0
-4.245759 -15.56594 -0.2277703 0
-4.095758 -15.41594 -0.2277703 0
-3.945759 -15.31594 -0.2277703 0
-3.745759 -15.16594 -0.2277703 0
-3.595759 -15.01594 -0.2277703 0
-0.7457586 -16.61594 -0.2277703 0
-0.5457586 -16.51594 -0.2277703 0
-0.3457586 -16.41594 -0.2277703 0
-0.1957586 -16.31594 -0.2277703 0
0.004241427 -16.16594 -0.2277703 0
0.2042414 -16.06594 -0.2277703 0
0.3542414 -15.91594 -0.2277703 0
0.5542414 -15.86594 -0.2277703 0
0.7042415 -15.71594 -0.2277703 0
0.9042414 -15.61594 -0.2277703 0
1.054241 -15.46594 -0.2277703 0
2.304241 -16.51594 -0.2277703 0
2.454242 -16.41594 -0.2277703 0
2.654242 -16.26594 -0.2277703 0
1.254241 -15.36594 -0.2277703 0
1.404241 -15.21594 -0.2277703 0
1.604241 -15.11594 -0.2277703 0
2.854241 -16.16594 -0.2277703 0
3.004241 -16.01594 -0.2277703 0
3.154242 -15.91594 -0.2277703 0
3.354241 -15.81594 -0.2277703 0
3.804241 -17.26594 -0.2277703 0
3.954242 -17.16594 -0.2277703 0
4.154242 -17.06594 -0.2277703 0
3.504241 -15.61594 -0.2277703 0
3.654242 -15.51594 -0.2277703 0
3.854241 -15.41594 -0.2277703 0
4.004241 -15.26594 -0.2277703 0
4.154242 -15.11594 -0.2277703 0
4.504241 -16.81594 -0.2277703 0
4.704241 -16.71593 -0.2277703 0
4.854241 -16.56594 -0.2277703 0
5.054242 -16.41594 -0.2277703 0
5.204241 -16.31594 -0.2277703 0
5.354241 -16.16594 -0.2277703 0
5.554242 -16.06594 -0.2277703 0
5.704241 -15.91594 -0.2277703 0
5.904242 -15.76594 -0.2277703 0
6.054242 -15.66594 -0.2277703 0
6.204242 -15.51594 -0.2277703 0
6.354241 -15.36594 -0.2277703 0
6.554242 -15.21594 -0.2277703 0
6.704242 -15.06594 -0.2277703 0
8.954242 -16.06594 2.42223 0
8.104241 -15.16594 -0.2277703 0
8.254242 -15.16594 -0.2277703 0
8.404242 -15.16594 -0.2277703 0
8.454242 -15.16594 -0.2277703 0
8.654242 -15.16594 -0.2277703 0
8.804241 -15.21594 0.2722297 0
8.954242 -15.16594 0.2722297 0
8.804241 -15.16594 0.8722297 0
8.954242 -15.16594 0.8722297 0
8.054241 -15.16594 1.97223 0
8.254242 -15.16594 1.97223 0
7.804242 -15.11594 2.47223 0
8.104241 -15.16594 2.47223 0
8.254242 -15.16594 2.47223 0
8.454242 -15.16594 1.37223 0
8.654242 -15.21594 1.37223 0
8.404242 -15.16594 1.97223 0
8.504242 -15.16594 1.92223 0
8.654242 -15.21594 1.92223 0
8.604241 -15.16594 1.97223 0
8.804241 -15.16594 1.37223 0
8.804241 -15.16594 1.42223 0
8.954242 -15.16594 1.37223 0
8.954242 -15.16594 1.42223 0
8.804241 -15.21594 1.92223 0
8.754242 -15.16594 1.97223 0
8.804241 -15.16594 1.97223 0
8.954242 -15.16594 1.92223 0
9.004242 -15.16594 1.92223 0
8.954242 -15.16594 1.97223 0
8.354241 -15.16594 2.42223 0
8.454242 -15.16594 2.47223 0
8.504242 -15.16594 2.42223 0
8.504242 -15.16594 2.47223 0
8.654242 -15.16594 2.42223 0
8.604241 -15.16594 2.47223 0
8.654242 -15.16594 2.47223 0
8.754242 -15.16594 2.42223 0
8.754242 -15.16594 2.52223 0
8.854241 -15.21594 2.42223 0
8.804241 -15.16594 2.47223 0
8.954242 -15.16594 2.42223 0
8.954242 -15.16594 2.47223 0
9.004242 -15.16594 2.42223 0
9.004242 -15.16594 2.47223 0
8.254242 -15.81594 3.22223 0
8.354241 -15.86594 3.07223 0
8.404242 -15.76594 3.22223 0
8.604241 -15.81594 3.22223 0
8.804241 -15.81594 3.22223 0
9.004242 -15.86594 3.27223 0
7.554242 -15.71594 3.22223 0
7.804242 -15.61594 3.22223 0
7.854241 -15.36594 3.02223 0
7.604241 -15.31594 3.07223 0
7.754241 -15.26594 3.02223 0
7.704242 -15.11594 2.97223 0
7.854241 -15.11594 2.97223 0
7.954242 -15.56594 3.17223 0
8.154242 -15.51594 3.17223 0
7.954242 -15.21594 3.02223 0
8.004242 -15.26594 3.02223 0
8.004242 -15.11594 2.97223 0
8.154242 -15.26594 3.02223 0
8.104241 -15.16594 3.02223 0
8.204242 -15.11594 2.97223 0
8.304241 -15.51594 3.02223 0
8.354241 -15.41594 3.12223 0
8.554241 -15.36594 3.12223 0
8.354241 -15.31594 3.02223 0
8.304241 -15.16594 2.97223 0
8.304241 -15.11594 3.02223 0
8.354241 -15.11594 2.97223 0
8.454242 -15.11594 2.97223 0
8.504242 -15.31594 3.07223 0
8.504242 -15.11594 2.97223 0
8.604241 -15.06594 2.97223 0
8.654242 -15.06594 2.97223 0
8.704242 -15.36594 3.07223 0
8.754242 -15.36594 3.12223 0
8.854241 -15.36594 3.07223 0
9.054241 -15.36594 3.07223 0
8.804241 -15.06594 2.97223 0
8.854241 -15.06594 2.97223 0
8.904242 -15.26594 3.07223 0
8.954242 -15.01594 2.97223 0
9.004242 -15.06594 2.97223 0
9.104241 -15.16594 0.2722297 0
9.304241 -15.16594 0.2722297 0
9.504242 -15.11594 0.2722297 0
9.604241 -15.11594 0.2722297 0
9.654242 -15.11594 0.2722297 0
9.854241 -15.16594 0.2722297 0
9.804241 -15.11594 0.2722297 0
9.154242 -15.16594 0.8722297 0
9.304241 -15.16594 0.8722297 0
9.504242 -15.16594 0.8722297 0
9.604241 -15.11594 0.8722297 0
9.654242 -15.11594 0.8722297 0
9.854241 -15.16594 0.8722297 0
9.804241 -15.11594 0.8722297 0
10.00424 -15.11594 0.2722297 0
10.20424 -15.11594 0.2722297 0
10.35424 -15.11594 0.2722297 0
10.00424 -15.11594 0.8722297 0
10.05424 -15.11594 0.8722297 0
10.25424 -15.16594 0.8222297 0
10.20424 -15.11594 0.8722297 0
10.45424 -15.16594 0.8222297 0
10.35424 -15.11594 0.8722297 0
10.60424 -15.16594 0.8222297 0
10.60424 -15.11594 0.8722297 0
9.104241 -15.16594 1.37223 0
9.154242 -15.16594 1.42223 0
9.254242 -15.16594 1.37223 0
9.304241 -15.16594 1.42223 0
9.454242 -15.16594 1.37223 0
9.104241 -15.16594 1.92223 0
9.154242 -15.16594 1.92223 0
9.254242 -15.16594 1.87223 0
9.254242 -15.16594 1.92223 0
9.154242 -15.16594 1.97223 0
9.304241 -15.16594 1.92223 0
9.404242 -15.16594 1.87223 0
9.454242 -15.16594 1.92223 0
9.304241 -15.16594 1.97223 0
9.504242 -15.16594 1.42223 0
9.604241 -15.16594 1.37223 0
9.754242 -15.16594 1.37223 0
9.854241 -15.16594 1.42223 0
9.704242 -15.11594 1.42223 0
9.504242 -15.16594 1.92223 0
9.604241 -15.16594 1.87223 0
9.604241 -15.16594 1.92223 0
9.504242 -15.16594 1.97223 0
9.754242 -15.16594 1.87223 0
9.754242 -15.16594 1.92223 0
9.704242 -15.11594 2.02223 0
9.854241 -15.11594 2.02223 0
9.104241 -15.16594 2.42223 0
9.154242 -15.16594 2.42223 0
9.254242 -15.16594 2.42223 0
9.104241 -15.11594 2.47223 0
9.354241 -15.16594 2.42223 0
9.304241 -15.16594 2.47223 0
9.404242 -15.16594 2.42223 0
9.454242 -15.16594 2.47223 0
9.504242 -15.16594 2.42223 0
9.604241 -15.16594 2.42223 0
9.654242 -15.16594 2.42223 0
9.604241 -15.16594 2.47223 0
9.754242 -15.16594 2.42223 0
9.804241 -15.16594 2.42223 0
9.804241 -15.16594 2.47223 0
9.954242 -15.16594 1.37223 0
10.05424 -15.11594 1.42223 0
10.00424 -15.11594 1.47223 0
10.10424 -15.16594 1.37223 0
10.25424 -15.16594 1.37223 0
10.20424 -15.11594 1.42223 0
10.20424 -15.06594 1.47223 0
9.904242 -15.16594 1.87223 0
9.954242 -15.16594 1.92223 0
10.05424 -15.16594 1.87223 0
10.05424 -15.11594 2.02223 0
10.00424 -15.11594 2.07223 0
10.10424 -15.16594 1.92223 0
10.25424 -15.16594 1.87223 0
10.25424 -15.16594 1.92223 0
10.25424 -15.11594 2.02223 0
10.20424 -15.11594 2.07223 0
10.40424 -15.16594 1.37223 0
10.45424 -15.16594 1.37223 0
10.40424 -15.11594 1.42223 0
10.40424 -15.11594 1.47223 0
10.55424 -15.16594 1.37223 0
10.60424 -15.16594 1.37223 0
10.55424 -15.06594 1.47223 0
10.40424 -15.16594 1.87223 0
10.45424 -15.16594 1.92223 0
10.45424 -15.11594 2.02223 0
10.40424 -15.11594 2.07223 0
10.55424 -15.16594 1.87223 0
10.60424 -15.16594 1.92223 0
10.65424 -15.16594 1.92223 0
10.55424 -15.06594 2.07223 0
10.60424 -15.11594 2.02223 0
9.904242 -15.16594 2.42223 0
9.954242 -15.16594 2.47223 0
10.00424 -15.16594 2.42223 0
10.10424 -15.16594 2.42223 0
10.10424 -15.16594 2.47223 0
10.15424 -15.16594 2.47223 0
10.25424 -15.16594 2.42223 0
10.25424 -15.16594 2.47223 0
10.30424 -15.16594 2.47223 0
10.40424 -15.16594 2.42223 0
10.45424 -15.16594 2.42223 0
10.55424 -15.16594 2.42223 0
10.50424 -15.16594 2.47223 0
10.60424 -15.16594 2.42223 0
10.65424 -15.16594 2.47223 0
10.75424 -15.16594 0.8222297 0
10.90424 -15.16594 0.8222297 0
11.10424 -15.16594 0.8222297 0
11.25424 -15.16594 0.8222297 0
11.40424 -15.16594 0.8222297 0
11.55424 -15.16594 0.8222297 0
11.70424 -15.16594 0.8222297 0
11.75424 -15.16594 0.8222297 0
11.85424 -15.16594 0.8222297 0
11.90424 -15.16594 0.8222297 0
12.05424 -15.16594 0.8222297 0
12.20424 -15.16594 0.8222297 0
12.20424 -15.16594 1.32223 0
10.70424 -15.16594 1.37223 0
10.75424 -15.16594 1.37223 0
10.75424 -15.06594 1.47223 0
10.90424 -15.16594 1.37223 0
11.05424 -15.16594 1.37223 0
10.95424 -15.06594 1.47223 0
10.75424 -15.16594 1.87223 0
10.75424 -15.16594 1.92223 0
10.80424 -15.16594 1.92223 0
10.80424 -15.11594 2.02223 0
10.80424 -15.06594 2.07223 0
10.90424 -15.16594 1.87223 0
10.95424 -15.16594 1.87223 0
11.00424 -15.16594 1.92223 0
11.05424 -15.16594 1.87223 0
10.95424 -15.06594 2.07223 0
11.00424 -15.11594 2.07223 0
11.10424 -15.16594 1.37223 0
11.20424 -15.16594 1.37223 0
11.25424 -15.16594 1.37223 0
11.40424 -15.16594 1.37223 0
11.10424 -15.16594 1.87223 0
11.15424 -15.16594 1.92223 0
11.20424 -15.16594 1.87223 0
11.25424 -15.16594 1.87223 0
11.20424 -15.11594 2.07223 0
11.20424 -15.06594 2.12223 0
11.35424 -15.16594 1.92223 0
11.40424 -15.16594 1.87223 0
11.40424 -15.11594 2.07223 0
11.40424 -15.06594 2.12223 0
10.75424 -15.16594 2.42223 0
10.85424 -15.16594 2.47223 0
10.90424 -15.16594 2.42223 0
10.95424 -15.16594 2.42223 0
11.05424 -15.16594 2.42223 0
11.00424 -15.16594 2.47223 0
11.10424 -15.16594 2.42223 0
11.15424 -15.16594 2.47223 0
11.20424 -15.16594 2.42223 0
11.25424 -15.16594 2.42223 0
11.35424 -15.16594 2.47223 0
11.40424 -15.16594 2.42223 0
11.55424 -15.16594 1.37223 0
11.70424 -15.16594 1.37223 0
11.75424 -15.16594 1.37223 0
11.85424 -15.16594 1.37223 0
11.50424 -15.16594 1.92223 0
11.55424 -15.16594 1.87223 0
11.60424 -15.16594 1.87223 0
11.60424 -15.16594 1.97223 0
11.60424 -15.11594 2.07223 0
11.60424 -15.06594 2.12223 0
11.70424 -15.16594 1.87223 0
11.70424 -15.16594 1.92223 0
11.75424 -15.16594 1.87223 0
11.85424 -15.16594 1.92223 0
11.80424 -15.16594 2.02223 0
11.80424 -15.06594 2.07223 0
11.80424 -15.06594 2.12223 0
11.90424 -15.16594 1.37223 0
12.00424 -15.16594 1.37223 0
12.05424 -15.16594 1.37223 0
12.20424 -15.16594 1.37223 0
11.90424 -15.16594 1.87223 0
12.00424 -15.16594 1.92223 0
12.05424 -15.16594 1.87223 0
12.00424 -15.11594 2.02223 0
12.00424 -15.06594 2.12223 0
12.20424 -15.16594 1.87223 0
12.20424 -15.16594 1.92223 0
12.25424 -15.16594 1.87223 0
12.20424 -15.16594 2.02223 0
12.20424 -15.06594 2.12223 0
11.55424 -15.16594 2.42223 0
11.50424 -15.16594 2.47223 0
11.60424 -15.16594 2.42223 0
11.70424 -15.16594 2.42223 0
11.75424 -15.16594 2.42223 0
11.70424 -15.16594 2.47223 0
11.80424 -15.01594 2.47223 0
11.90424 -15.16594 2.42223 0
12.05424 -15.16594 2.42223 0
12.00424 -15.06594 2.17223 0
12.20424 -15.16594 2.42223 0
12.25424 -15.16594 2.42223 0
12.20424 -15.01594 2.17223 0
9.204242 -15.91594 3.27223 0
9.404242 -15.96594 3.27223 0
9.654242 -16.01594 3.32223 0
9.854241 -16.06594 3.32223 0
10.40424 -16.56594 3.52223 0
10.65424 -16.66594 3.57223 0
10.05424 -16.16594 3.37223 0
10.30424 -16.21593 3.37223 0
10.50424 -16.26594 3.42223 0
9.204242 -15.41594 3.07223 0
9.404242 -15.41594 3.07223 0
9.104241 -15.26594 3.07223 0
9.254242 -15.21594 3.02223 0
9.154242 -15.11594 2.97223 0
9.104241 -15.01594 2.97223 0
9.254242 -15.01594 2.97223 0
9.454242 -15.16594 3.02223 0
9.354241 -15.06594 2.97223 0
9.554241 -15.46594 3.12223 0
9.754242 -15.51594 3.12223 0
9.504242 -15.11594 2.97223 0
9.604241 -15.11594 3.02223 0
9.654242 -15.11594 2.97223 0
9.804241 -15.11594 2.97223 0
9.804241 -15.06594 3.02223 0
9.954242 -15.51594 3.12223 0
10.10424 -15.56594 3.17223 0
9.954242 -15.01594 2.97223 0
10.00424 -15.11594 2.97223 0
10.15424 -15.11594 2.97223 0
10.15424 -15.01594 2.97223 0
10.30424 -15.61594 3.17223 0
10.50424 -15.66594 3.17223 0
10.35424 -15.16594 3.02223 0
10.30424 -15.01594 2.97223 0
10.50424 -15.16594 3.02223 0
10.65424 -15.21594 3.02223 0
10.90424 -16.71593 3.62223 0
11.20424 -16.81594 3.62223 0
11.45424 -16.86594 3.67223 0
10.75424 -16.36594 3.47223 0
11.00424 -16.41594 3.47223 0
10.90424 -15.76594 3.22223 0
11.25424 -16.51594 3.52223 0
11.10424 -15.81594 3.22223 0
11.30424 -15.86594 3.27223 0
11.70424 -17.01594 3.72223 0
11.50424 -16.61594 3.52223 0
11.75424 -16.66594 3.57223 0
12.00424 -16.76594 3.62223 0
12.25424 -16.86594 3.67223 0
12.00424 -17.11594 3.77223 0
11.55424 -15.91594 3.27223 0
11.75424 -15.96594 3.32223 0
12.20424 -16.16594 3.37223 0
11.95424 -16.06594 3.32223 0
10.70424 -15.71594 3.22223 0
10.85424 -15.21594 3.02223 0
11.00424 -15.26594 3.02223 0
11.20424 -15.26594 3.02223 0
11.35424 -15.31594 3.07223 0
11.75424 -15.36594 3.07223 0
11.55424 -15.31594 3.07223 0
11.90424 -15.41594 3.12223 0
12.10424 -15.46594 3.12223 0
12.20424 -15.01594 2.97223 0
12.35424 -15.16594 0.8222297 0
12.40424 -15.16594 0.8222297 0
12.55424 -15.16594 0.8222297 0
12.40424 -15.16594 1.32223 0
12.55424 -15.16594 1.32223 0
12.70424 -15.16594 0.8222297 0
12.85424 -15.16594 0.8222297 0
13.05424 -15.16594 0.8222297 0
12.70424 -15.16594 1.32223 0
12.85424 -15.16594 1.32223 0
13.05424 -15.16594 1.32223 0
13.20424 -15.16594 0.8222297 0
13.35424 -15.16594 0.8222297 0
13.40424 -15.16594 0.8222297 0
13.45424 -15.16594 0.8222297 0
13.20424 -15.16594 1.32223 0
13.35424 -15.16594 1.32223 0
13.55424 -15.16594 0.8222297 0
13.60424 -15.16594 0.8222297 0
13.70424 -15.16594 0.8222297 0
13.80424 -15.16594 0.8222297 0
13.85424 -15.16594 0.8222297 0
13.55424 -15.16594 1.32223 0
13.70424 -15.16594 1.32223 0
12.35424 -15.16594 1.37223 0
12.55424 -15.16594 1.37223 0
12.35424 -15.16594 1.87223 0
12.35424 -15.16594 1.92223 0
12.40424 -15.16594 1.87223 0
12.35424 -15.11594 2.02223 0
12.40424 -15.06594 2.12223 0
12.55424 -15.16594 1.87223 0
12.55424 -15.16594 1.92223 0
12.55424 -15.16594 1.97223 0
12.55424 -15.11594 2.02223 0
12.60424 -15.06594 2.12223 0
12.70424 -15.16594 1.37223 0
12.85424 -15.11594 1.37223 0
12.90424 -15.16594 1.37223 0
13.05424 -15.16594 1.37223 0
12.70424 -15.16594 1.87223 0
12.70424 -15.16594 1.92223 0
12.85424 -15.16594 1.92223 0
12.70424 -15.16594 1.97223 0
12.75424 -15.11594 2.02223 0
12.85424 -15.06594 2.12223 0
12.90424 -15.16594 1.87223 0
13.05424 -15.16594 1.87223 0
13.05424 -15.16594 1.92223 0
12.90424 -15.16594 1.97223 0
12.95424 -15.11594 2.02223 0
12.40424 -15.16594 2.42223 0
12.45424 -15.01594 2.17223 0
12.55424 -15.16594 2.42223 0
12.65424 -15.01594 2.17223 0
12.70424 -15.16594 2.42223 0
12.70424 -15.16594 2.47223 0
12.70424 -15.01594 2.27223 0
12.90424 -15.16594 2.42223 0
12.90424 -15.16594 2.47223 0
13.05424 -15.16594 2.42223 0
13.05424 -15.16594 2.47223 0
12.95424 -15.01594 2.27223 0
13.05424 -15.06594 2.17223 0
13.10424 -15.16594 1.42223 0
13.20424 -15.16594 1.37223 0
13.25424 -15.16594 1.42223 0
13.40424 -15.16594 1.37223 0
13.45424 -15.16594 1.42223 0
13.20424 -15.16594 1.87223 0
13.20424 -15.16594 1.92223 0
13.10424 -15.16594 1.97223 0
13.25424 -15.16594 1.97223 0
13.15424 -15.11594 2.07223 0
13.35424 -15.16594 1.87223 0
13.40424 -15.16594 1.92223 0
13.45424 -15.16594 1.97223 0
13.35424 -15.11594 2.07223 0
13.55424 -15.16594 1.37223 0
13.60424 -15.16594 1.42223 0
13.55424 -15.11594 1.47223 0
13.70424 -15.16594 1.37223 0
13.85424 -15.31594 1.37223 0
13.75424 -15.11594 1.47223 0
13.80424 -15.11594 1.42223 0
13.55424 -15.16594 1.87223 0
13.55424 -15.16594 1.92223 0
13.65424 -15.16594 1.97223 0
13.55424 -15.11594 2.07223 0
13.70424 -15.16594 1.87223 0
13.70424 -15.16594 1.92223 0
13.80424 -15.16594 1.97223 0
13.75424 -15.11594 2.07223 0
13.20424 -15.16594 2.42223 0
13.20424 -15.16594 2.47223 0
13.10424 -15.01594 2.22223 0
13.15424 -15.01594 2.32223 0
13.25424 -15.06594 2.17223 0
13.35424 -15.16594 2.42223 0
13.40424 -15.16594 2.47223 0
13.45424 -15.01594 2.32223 0
13.55424 -15.16594 2.42223 0
13.50424 -15.01594 2.17223 0
13.70424 -15.16594 2.42223 0
13.75424 -15.16594 2.47223 0
13.70424 -15.01594 2.17223 0
13.70424 -15.01594 2.32223 0
13.90424 -15.16594 0.8222297 0
14.00424 -15.16594 0.8222297 0
14.05424 -15.16594 0.8222297 0
14.00424 -15.11594 0.8722297 0
14.20424 -15.16594 0.8222297 0
14.25424 -15.16594 0.8222297 0
14.20424 -15.11594 0.8722297 0
14.35424 -15.16594 0.8222297 0
14.35424 -15.16594 0.8722297 0
14.40424 -15.11594 0.8222297 0
14.50424 -15.16594 0.8222297 0
14.60424 -15.16594 0.8222297 0
14.55424 -15.11594 0.8722297 0
14.70424 -15.16594 0.8222297 0
14.75424 -15.16594 0.8222297 0
14.75424 -15.16594 0.8722297 0
14.85424 -15.16594 0.8222297 0
14.95424 -15.16594 0.8222297 0
14.95424 -15.16594 0.8722297 0
13.95424 -15.26594 1.37223 0
14.05424 -15.26594 1.37223 0
14.00424 -15.16594 1.42223 0
13.95424 -15.11594 1.47223 0
14.10424 -15.26594 1.37223 0
14.20424 -15.31594 1.37223 0
14.25424 -15.26594 1.42223 0
14.15424 -15.11594 1.47223 0
13.90424 -15.26594 1.92223 0
13.95424 -15.26594 1.92223 0
14.05424 -15.26594 1.92223 0
14.00424 -15.16594 1.97223 0
13.95424 -15.11594 2.07223 0
14.10424 -15.26594 1.92223 0
14.20424 -15.26594 1.92223 0
14.25424 -15.26594 2.02223 0
14.15424 -15.11594 2.12223 0
14.30424 -15.26594 1.37223 0
14.35424 -15.26594 1.37223 0
14.40424 -15.26594 1.42223 0
14.45424 -15.31594 1.37223 0
14.40424 -15.21594 1.52223 0
14.55424 -15.26594 1.37223 0
14.60424 -15.26594 1.42223 0
14.65424 -15.31594 1.37223 0
14.65424 -15.21594 1.52223 0
14.30424 -15.26594 1.92223 0
14.35424 -15.26594 1.92223 0
14.40424 -15.26594 2.02223 0
14.45424 -15.26594 1.97223 0
14.45424 -15.21594 2.12223 0
14.55424 -15.31594 1.92223 0
14.60424 -15.26594 2.02223 0
14.65424 -15.26594 1.97223 0
14.65424 -15.21594 2.12223 0
13.90424 -15.31594 2.42223 0
13.95424 -15.31594 2.52223 0
14.05424 -15.26594 2.42223 0
13.95424 -15.01594 2.22223 0
14.10424 -15.26594 2.52223 0
14.20424 -15.26594 2.42223 0
14.15424 -15.01594 2.22223 0
14.30424 -15.26594 2.52223 0
14.40424 -15.31594 2.47223 0
14.45424 -15.26594 2.52223 0
14.40424 -15.01594 2.22223 0
14.55424 -15.31594 2.47223 0
14.70424 -15.26594 1.37223 0
14.80424 -15.26594 1.37223 0
14.80424 -15.26594 1.47223 0
14.85424 -15.21594 1.52223 0
14.90424 -15.31594 1.37223 0
14.70424 -15.26594 1.92223 0
14.80424 -15.26594 1.97223 0
14.80424 -15.26594 2.02223 0
14.90424 -15.26594 1.92223 0
14.85424 -15.21594 2.17223 0
14.70424 -15.26594 2.47223 0
14.70424 -15.11594 2.27223 0
14.90424 -15.31594 2.47223 0
14.95424 -15.11594 2.27223 0
12.55424 -16.96593 3.67223 0
12.80424 -17.06594 3.72223 0
12.40424 -16.16594 3.37223 0
12.65424 -16.26594 3.42223 0
12.90424 -16.31594 3.47223 0
13.65424 -16.61594 3.57223 0
13.15424 -16.41594 3.47223 0
13.40424 -16.51594 3.52223 0
13.30424 -15.76594 3.22223 0
13.50424 -15.81594 3.27223 0
13.70424 -15.86594 3.27223 0
12.30424 -15.51594 3.12223 0
12.50424 -15.56594 3.17223 0
12.35424 -15.01594 2.97223 0
12.55424 -15.01594 2.97223 0
12.70424 -15.61594 3.17223 0
12.90424 -15.61594 3.17223 0
12.70424 -15.06594 2.97223 0
12.85424 -15.11594 2.97223 0
13.05424 -15.11594 3.02223 0
13.10424 -15.66594 3.22223 0
13.20424 -15.16594 3.02223 0
13.40424 -15.21594 3.02223 0
13.60424 -15.21594 3.02223 0
13.75424 -15.26594 3.07223 0
13.70424 -15.01594 3.02223 0
13.90424 -16.71593 3.57223 0
14.15424 -16.81594 3.62223 0
14.45424 -16.91594 3.67223 0
13.95424 -15.96594 3.32223 0
14.15424 -16.01594 3.32223 0
14.60424 -16.16594 3.37223 0
14.35424 -16.11594 3.37223 0
14.75424 -17.01594 3.72223 0
14.85424 -16.26594 3.42223 0
13.95424 -15.31594 3.07223 0
14.05424 -15.11594 3.07223 0
14.10424 -15.31594 3.07223 0
14.30424 -15.41594 3.12223 0
14.50424 -15.41594 3.12223 0
14.70424 -15.51594 3.12223 0
14.90424 -15.56594 3.17223 0
