# .PCD v0.7 - Point Cloud Data file format
VERSION 0.7
FIELDS x y z intensity
SIZE 4 4 4 4
TYPE F F F F
COUNT 1 1 1 1
WIDTH 1615
HEIGHT 1
VIEWPOINT 0 0 0 1 0 0 0
POINTS 1615
DATA ascii
0.1042414 83.98406 -3.37777 0
0.1542414 83.98406 -3.37777 0
0.2042414 83.93407 -3.37777 0
0.2542414 83.88406 -3.37777 0
0.1542414 84.08407 -3.37777 0
0.2042414 84.08407 -3.37777 0
-0.4457586 84.33407 -3.37777 0
-0.4957586 84.38406 -3.37777 0
-0.3457586 84.28407 -3.37777 0
-0.2957586 84.28407 -3.37777 0
-0.1457586 84.43407 -3.37777 0
-0.2457586 84.58407 -3.37777 0
-0.2457586 84.63406 -3.42777 0
-0.1957586 84.53407 -3.37777 0
-0.3457586 84.78407 -3.42777 0
-0.3457586 84.88406 -3.42777 0
-0.3957586 84.98406 -3.42777 0
-0.2957586 84.73406 -3.42777 0
-0.1457586 84.68407 -3.37777 0
-0.1957586 84.83407 -3.37777 0
-0.1457586 84.78407 -3.37777 0
-0.2457586 85.03407 -3.42777 0
-0.1957586 84.93407 -3.37777 0
-0.09575857 84.33407 -3.37777 0
-0.04575858 84.28407 -3.37777 0
-0.04575858 84.33407 -3.37777 0
-0.04575858 84.43407 -3.37777 0
0.004241427 84.28407 -3.37777 0
-0.09575857 84.53407 -3.37777 0
0.3542414 83.53407 -3.22777 0
0.3542414 83.58407 -3.22777 0
0.4042414 83.63406 -3.22777 0
0.3042414 83.78407 -3.37777 0
0.3042414 83.83407 -3.37777 0
0.3542414 83.83407 -3.37777 0
0.3042414 83.83407 -3.27777 0
0.3542414 83.78407 -3.27777 0
0.3542414 83.83407 -3.32777 0
0.3542414 83.83407 -3.27777 0
0.4042414 83.83407 -3.37777 0
0.4542414 83.83407 -3.37777 0
0.4042414 83.83407 -3.27777 0
0.4542414 83.83407 -3.27777 0
0.3042414 83.73406 -3.22777 0
0.3542414 83.73406 -3.22777 0
0.4042414 83.73406 -3.22777 0
0.4542414 83.68407 -3.22777 0
0.4542414 83.73406 -3.22777 0
0.4542414 83.83407 -3.22777 0
0.5042414 83.83407 -3.37777 0
0.5542414 83.83407 -3.37777 0
0.5042414 83.83407 -3.32777 0
0.5542414 83.83407 -3.27777 0
0.6542414 83.83407 -3.37777 0
0.6042414 83.83407 -3.32777 0
0.6542414 83.83407 -3.27777 0
0.5042414 83.73406 -3.22777 0
0.5542414 83.83407 -3.22777 0
0.6042414 83.73406 -3.22777 0
0.6042414 83.83407 -3.22777 0
0.6542414 83.83407 -3.22777 0
0.3042414 84.03407 -3.37777 0
0.4042414 84.03407 -3.37777 0
0.5042414 84.03407 -3.37777 0
0.6042414 84.03407 -3.37777 0
0.5542414 84.08407 -3.37777 0
0.6542414 84.08407 -3.37777 0
0.7042415 83.83407 -3.32777 0
0.7542415 83.83407 -3.27777 0
0.8042414 83.83407 -3.32777 0
0.8042414 83.83407 -3.27777 0
0.8542414 83.83407 -3.32777 0
0.7042415 83.73406 -3.22777 0
0.7042415 83.83407 -3.22777 0
0.8042414 83.78407 -3.22777 0
0.8042414 83.83407 -3.22777 0
0.8542414 83.78407 -3.22777 0
0.9042414 83.83407 -3.32777 0
0.9542415 83.83407 -3.32777 0
1.004241 83.83407 -3.32777 0
1.054241 83.83407 -3.32777 0
0.9042414 83.83407 -3.22777 0
0.9542415 83.83407 -3.22777 0
1.004241 83.83407 -3.22777 0
1.054241 83.83407 -3.22777 0
0.7542415 83.88406 -3.37777 0
0.8542414 83.88406 -3.37777 0
0.7542415 83.88406 -3.17777 0
0.7042415 84.08407 -3.37777 0
0.8042414 84.08407 -3.37777 0
0.8542414 84.08407 -3.37777 0
0.8042414 84.23406 -3.37777 0
0.8542414 84.18407 -3.37777 0
0.9542415 83.93407 -3.37777 0
0.9042414 84.03407 -3.37777 0
0.9542415 83.98406 -3.37777 0
1.004241 83.88406 -3.37777 0
1.004241 84.03407 -3.37777 0
1.054241 83.98406 -3.37777 0
0.9042414 84.13406 -3.37777 0
0.9542415 84.08407 -3.37777 0
0.9542415 84.18407 -3.37777 0
1.004241 84.18407 -3.37777 0
1.054241 84.23406 -3.37777 0
0.4542414 84.58407 -3.42777 0
0.6042414 84.43407 -3.37777 0
0.6542414 84.43407 -3.37777 0
0.5542414 84.48406 -3.42777 0
0.5042414 84.58407 -3.42777 0
0.6542414 84.53407 -3.37777 0
0.6042414 84.63406 -3.42777 0
0.4542414 84.68407 -3.42777 0
0.4042414 84.78407 -3.42777 0
0.3042414 84.93407 -3.42777 0
0.3542414 84.88406 -3.42777 0
0.3042414 84.98406 -3.42777 0
0.4542414 84.98406 -3.42777 0
0.5542414 84.73406 -3.42777 0
0.5042414 84.83407 -3.42777 0
0.5542414 84.78407 -3.42777 0
0.5042414 84.88406 -3.42777 0
0.7042415 84.33407 -3.37777 0
0.7542415 84.28407 -3.37777 0
0.7042415 84.38406 -3.37777 0
0.7042415 84.43407 -3.37777 0
1.054241 84.53407 -3.42777 0
1.004241 84.58407 -3.42777 0
1.004241 84.63406 -3.42777 0
0.8042414 84.83407 -3.42777 0
0.8542414 84.78407 -3.42777 0
0.7042415 85.03407 -3.42777 0
0.7542415 84.98406 -3.42777 0
0.8042414 84.88406 -3.42777 0
0.9042414 84.68407 -3.42777 0
1.004241 85.03407 -3.42777 0
1.104241 82.08407 -3.12777 0
1.154241 82.18407 -3.12777 0
1.204241 82.13406 -3.12777 0
1.254241 82.13406 -3.12777 0
1.204241 82.18407 -3.12777 0
1.254241 82.23406 -3.12777 0
1.354241 82.13406 -3.12777 0
1.404241 82.08407 -3.12777 0
1.354241 82.28407 -3.12777 0
1.354241 82.33407 -3.12777 0
1.454241 82.38406 -3.12777 0
1.654241 82.03407 -3.12777 0
1.504241 82.08407 -3.12777 0
1.554241 82.08407 -3.12777 0
1.704241 82.03407 -3.12777 0
1.804241 82.03407 -3.12777 0
1.504241 82.48406 -3.17777 0
1.604241 82.58407 -3.17777 0
1.154241 83.18407 -3.17777 0
1.204241 83.18407 -3.17777 0
1.254241 83.23406 -3.17777 0
1.304241 83.23406 -3.17777 0
1.404241 83.28407 -3.17777 0
1.654241 82.68407 -3.17777 0
1.704241 82.78407 -3.17777 0
1.754241 82.83407 -3.17777 0
1.854241 82.78407 -3.12777 0
1.754241 82.98406 -3.12777 0
1.804241 82.93407 -3.17777 0
1.804241 82.88406 -3.12777 0
1.854241 83.03407 -3.17777 0
1.654241 83.23406 -3.17777 0
1.504241 83.33407 -3.17777 0
1.604241 83.33407 -3.17777 0
1.604241 83.38406 -3.22777 0
1.604241 83.43407 -3.22777 0
1.654241 83.38406 -3.17777 0
1.654241 83.43407 -3.22777 0
1.704241 83.13406 -3.17777 0
1.804241 83.23406 -3.17777 0
1.754241 83.33407 -3.17777 0
1.804241 83.28407 -3.17777 0
1.904241 82.03407 -3.12777 0
2.004241 81.88406 -3.12777 0
2.004241 81.98406 -3.12777 0
2.104241 81.88406 -3.12777 0
2.154242 81.93407 -3.12777 0
2.104241 81.98406 -3.12777 0
2.204242 81.93407 -3.12777 0
2.254241 81.88406 -3.12777 0
2.204242 81.98406 -3.12777 0
2.154242 82.08407 -3.12777 0
2.104241 82.23406 -3.12777 0
1.954242 82.43407 -3.12777 0
2.004241 82.33407 -3.12777 0
1.954242 82.53407 -3.12777 0
2.304241 81.98406 -3.12777 0
2.404242 81.98406 -3.12777 0
2.404242 82.03407 -3.12777 0
2.454242 82.08407 -3.12777 0
2.504241 81.98406 -3.12777 0
2.604241 81.98406 -3.12777 0
2.504241 82.13406 -3.12777 0
2.554241 82.13406 -3.12777 0
2.654242 82.23406 -3.12777 0
1.904241 82.68407 -3.12777 0
2.104241 83.03407 -3.17777 0
2.254241 82.93407 -3.17777 0
2.204242 82.98406 -3.17777 0
1.904241 83.18407 -3.17777 0
1.954242 83.18407 -3.17777 0
2.004241 83.13406 -3.17777 0
2.054241 83.08407 -3.17777 0
2.454242 82.78407 -3.17777 0
2.354241 82.88406 -3.17777 0
2.554241 82.78407 -3.17777 0
2.604241 82.73406 -3.17777 0
2.654242 82.73406 -3.17777 0
2.054241 81.93407 -0.6277703 0
2.054241 81.98406 -0.5777703 0
2.054241 81.93407 -0.4277703 0
2.054241 82.13406 -0.5777703 0
2.054241 82.13406 -0.4777703 0
2.554241 81.88406 -0.3777703 0
2.554241 81.93407 -0.3277703 0
2.504241 82.03407 -0.2777703 0
2.604241 81.93407 -0.2777703 0
1.104241 83.83407 -3.37777 0
1.104241 83.83407 -3.32777 0
1.154241 83.83407 -3.32777 0
1.204241 83.83407 -3.37777 0
1.254241 83.83407 -3.37777 0
1.204241 83.83407 -3.27777 0
1.254241 83.83407 -3.32777 0
1.254241 83.83407 -3.27777 0
1.104241 83.83407 -3.22777 0
1.154241 83.83407 -3.22777 0
1.204241 83.83407 -3.22777 0
1.254241 83.78407 -3.22777 0
1.254241 83.83407 -3.22777 0
1.404241 83.63406 -3.22777 0
1.304241 83.83407 -3.37777 0
1.354241 83.83407 -3.37777 0
1.304241 83.83407 -3.32777 0
1.354241 83.83407 -3.32777 0
1.354241 83.83407 -3.27777 0
1.404241 83.83407 -3.37777 0
1.454241 83.83407 -3.37777 0
1.404241 83.83407 -3.32777 0
1.404241 83.83407 -3.27777 0
1.454241 83.83407 -3.32777 0
1.454241 83.83407 -3.27777 0
1.354241 83.68407 -3.22777 0
1.354241 83.73406 -3.22777 0
1.304241 83.78407 -3.22777 0
1.304241 83.83407 -3.22777 0
1.404241 83.73406 -3.22777 0
1.454241 83.68407 -3.22777 0
1.404241 83.83407 -3.22777 0
1.454241 83.83407 -3.17777 0
1.104241 83.98406 -3.37777 0
1.154241 84.03407 -3.37777 0
1.204241 83.93407 -3.37777 0
1.254241 83.88406 -3.37777 0
1.204241 83.88406 -3.17777 0
1.204241 84.08407 -3.37777 0
1.454241 83.88406 -3.37777 0
1.304241 84.13406 -3.37777 0
1.354241 84.18407 -3.37777 0
1.404241 84.18407 -3.37777 0
1.454241 84.23406 -3.37777 0
1.554241 83.48406 -3.22777 0
1.554241 83.48406 -3.17777 0
1.554241 83.53407 -3.22777 0
1.504241 83.58407 -3.22777 0
1.504241 83.58407 -3.17777 0
1.504241 83.63406 -3.22777 0
1.604241 83.63406 -3.22777 0
1.504241 83.83407 -3.37777 0
1.504241 83.83407 -3.32777 0
1.504241 83.83407 -3.27777 0
1.554241 83.83407 -3.32777 0
1.554241 83.83407 -3.27777 0
1.604241 83.83407 -3.32777 0
1.604241 83.83407 -3.27777 0
1.654241 83.83407 -3.32777 0
1.654241 83.83407 -3.27777 0
1.504241 83.68407 -3.17777 0
1.554241 83.68407 -3.22777 0
1.704241 83.48406 -3.22777 0
1.704241 83.63406 -3.22777 0
1.754241 83.58407 -3.22777 0
1.804241 83.48406 -3.22777 0
1.804241 83.58407 -3.22777 0
1.854241 83.58407 -3.22777 0
1.704241 83.83407 -3.32777 0
1.754241 83.83407 -3.32777 0
1.754241 83.83407 -3.27777 0
1.804241 83.83407 -3.32777 0
1.854241 83.83407 -3.32777 0
1.854241 83.83407 -3.27777 0
1.504241 83.93407 -3.37777 0
1.554241 83.98406 -3.37777 0
1.604241 84.03407 -3.37777 0
1.554241 84.18407 -3.37777 0
1.654241 84.08407 -3.37777 0
1.654241 84.13406 -3.37777 0
1.704241 84.13406 -3.37777 0
1.754241 84.18407 -3.37777 0
1.804241 84.08407 -3.37777 0
1.854241 84.08407 -3.37777 0
1.804241 84.23406 -3.37777 0
1.154241 84.28407 -3.37777 0
1.154241 84.43407 -3.42777 0
1.204241 84.33407 -3.42777 0
1.254241 84.38406 -3.37777 0
1.104241 84.48406 -3.42777 0
1.304241 84.33407 -3.37777 0
1.354241 84.28407 -3.37777 0
1.304241 84.43407 -3.42777 0
1.404241 84.28407 -3.37777 0
1.454241 84.28407 -3.37777 0
1.354241 84.48406 -3.42777 0
1.404241 84.53407 -3.42777 0
1.404241 84.63406 -3.42777 0
1.454241 84.58407 -3.42777 0
1.154241 84.83407 -3.42777 0
1.204241 84.78407 -3.42777 0
1.104241 84.93407 -3.42777 0
1.304241 84.68407 -3.42777 0
1.304241 84.73406 -3.42777 0
1.454241 84.83407 -3.42777 0
1.304241 84.98406 -3.42777 0
1.304241 85.03407 -3.42777 0
1.404241 84.93407 -3.42777 0
1.504241 84.33407 -3.42777 0
1.554241 84.38406 -3.42777 0
1.604241 84.43407 -3.42777 0
1.654241 84.43407 -3.42777 0
1.504241 84.53407 -3.42777 0
1.554241 84.48406 -3.42777 0
1.504241 84.63406 -3.42777 0
1.604241 84.48406 -3.42777 0
1.654241 84.48406 -3.42777 0
1.754241 84.43407 -3.42777 0
1.854241 84.28407 -3.37777 0
1.804241 84.38406 -3.42777 0
1.704241 84.53407 -3.42777 0
1.704241 84.63406 -3.42777 0
1.754241 84.58407 -3.42777 0
1.804241 84.63406 -3.42777 0
1.854241 84.58407 -3.42777 0
1.554241 84.68407 -3.42777 0
1.504241 84.83407 -3.42777 0
1.554241 84.78407 -3.42777 0
1.604241 84.73406 -3.42777 0
1.654241 84.68407 -3.42777 0
1.854241 84.68407 -3.42777 0
1.804241 84.78407 -3.42777 0
1.754241 84.88406 -3.42777 0
1.754241 84.93407 -3.42777 0
1.704241 84.98406 -3.42777 0
1.854241 84.93407 -3.42777 0
1.854241 84.98406 -3.42777 0
1.954242 83.53407 -3.22777 0
1.904241 83.58407 -3.22777 0
1.954242 83.63406 -3.22777 0
2.004241 83.53407 -3.22777 0
1.904241 83.83407 -3.37777 0
1.904241 83.83407 -3.32777 0
1.954242 83.83407 -3.32777 0
1.954242 83.83407 -3.27777 0
2.004241 83.83407 -3.37777 0
2.004241 83.83407 -3.27777 0
2.054241 83.83407 -3.32777 0
2.004241 83.73406 -3.22777 0
2.054241 83.78407 -3.22777 0
2.104241 83.53407 -3.22777 0
2.204242 83.53407 -3.22777 0
2.254241 83.53407 -3.22777 0
2.104241 83.83407 -3.32777 0
2.104241 83.83407 -3.27777 0
2.154242 83.83407 -3.32777 0
2.204242 83.83407 -3.32777 0
2.204242 83.83407 -3.27777 0
2.254241 83.83407 -3.32777 0
2.254241 83.83407 -3.27777 0
2.104241 83.78407 -3.22777 0
2.204242 83.83407 -3.22777 0
1.904241 84.03407 -3.37777 0
2.004241 84.03407 -3.37777 0
2.104241 83.88406 -3.37777 0
2.104241 84.03407 -3.37777 0
2.154242 83.98406 -3.37777 0
2.154242 84.03407 -3.37777 0
2.254241 83.93407 -3.37777 0
2.204242 83.98406 -3.37777 0
2.154242 84.18407 -3.37777 0
2.204242 84.08407 -3.37777 0
2.254241 84.13406 -3.37777 0
2.204242 84.23406 -3.37777 0
2.354241 83.48406 -3.22777 0
2.454242 83.53407 -3.22777 0
2.304241 83.83407 -3.32777 0
2.354241 83.83407 -3.27777 0
2.404242 83.83407 -3.32777 0
2.404242 83.83407 -3.27777 0
2.454242 83.83407 -3.32777 0
2.454242 83.83407 -3.27777 0
2.304241 83.83407 -3.22777 0
2.404242 83.83407 -3.22777 0
2.454242 83.83407 -3.22777 0
2.554241 83.53407 -3.22777 0
2.604241 83.53407 -3.22777 0
2.654242 83.53407 -3.22777 0
2.504241 83.83407 -3.32777 0
2.504241 83.83407 -3.27777 0
2.554241 83.83407 -3.32777 0
2.554241 83.83407 -3.27777 0
2.604241 83.83407 -3.27777 0
2.654242 83.83407 -3.32777 0
2.654242 83.83407 -3.27777 0
2.304241 83.88406 -3.37777 0
2.304241 83.98406 -3.37777 0
2.454242 83.88406 -3.37777 0
2.454242 83.98406 -3.37777 0
2.454242 84.03407 -3.37777 0
2.354241 84.08407 -3.37777 0
2.354241 84.13406 -3.37777 0
2.304241 84.18407 -3.37777 0
2.304241 84.23406 -3.37777 0
2.554241 83.93407 -3.37777 0
2.554241 83.88406 -3.27777 0
2.504241 83.98406 -3.37777 0
2.504241 84.03407 -3.37777 0
2.554241 83.98406 -3.37777 0
2.604241 83.88406 -3.37777 0
2.604241 83.93407 -3.37777 0
2.654242 83.88406 -3.37777 0
2.604241 84.03407 -3.37777 0
2.654242 83.93407 -3.22777 0
1.904241 84.33407 -3.37777 0
1.954242 84.33407 -3.42777 0
1.954242 84.38406 -3.42777 0
1.954242 84.43407 -3.42777 0
2.054241 84.28407 -3.42777 0
2.054241 84.33407 -3.37777 0
2.054241 84.38406 -3.37777 0
2.054241 84.43407 -3.42777 0
1.904241 84.58407 -3.42777 0
1.954242 84.58407 -3.42777 0
1.954242 84.63406 -3.37777 0
2.004241 84.48406 -3.37777 0
2.004241 84.53407 -3.42777 0
2.004241 84.53407 -3.37777 0
2.054241 84.48406 -3.42777 0
2.104241 84.28407 -3.37777 0
2.104241 84.33407 -3.42777 0
2.154242 84.28407 -3.37777 0
2.254241 84.28407 -3.42777 0
2.104241 84.53407 -3.42777 0
2.204242 84.48406 -3.42777 0
1.954242 84.73406 -3.42777 0
1.904241 84.83407 -3.42777 0
2.354241 84.28407 -3.37777 0
2.454242 84.28407 -3.42777 0
2.454242 84.28407 -3.37777 0
2.304241 84.48406 -3.42777 0
2.404242 84.48406 -3.42777 0
2.454242 84.48406 -3.42777 0
2.554241 84.28407 -3.42777 0
2.654242 84.33407 -3.42777 0
2.504241 84.48406 -3.42777 0
2.504241 84.53407 -3.42777 0
2.604241 84.53407 -3.42777 0
2.454242 85.03407 -3.42777 0
2.554241 84.83407 -3.42777 0
2.654242 84.78407 -3.42777 0
2.654242 84.83407 -3.42777 0
2.504241 84.93407 -3.42777 0
2.654242 84.88406 -3.42777 0
2.604241 84.98406 -3.42777 0
2.754241 77.23406 -2.97777 0
2.754241 77.28407 -3.02777 0
2.754241 77.33407 -2.92777 0
2.754241 77.43407 -2.97777 0
2.904242 77.23406 -2.97777 0
2.704242 77.48406 -2.87777 0
2.754241 77.48406 -2.92777 0
2.754241 77.63406 -3.02777 0
2.704242 77.63406 -2.87777 0
2.754241 77.63406 -2.92777 0
2.754241 77.63406 -2.87777 0
2.804241 77.48406 -3.02777 0
2.804241 77.63406 -2.97777 0
2.854241 77.63406 -2.97777 0
2.754241 77.78407 -2.97777 0
2.704242 77.78407 -2.87777 0
2.754241 77.78407 -2.92777 0
2.754241 77.78407 -2.87777 0
2.754241 77.83407 -2.92777 0
2.904242 77.48406 -2.97777 0
2.704242 77.93407 -2.92777 0
2.754241 77.88406 -2.87777 0
2.804241 77.88406 -3.02777 0
2.804241 77.88406 -2.92777 0
2.854241 77.93407 -2.92777 0
2.854241 77.98406 -2.97777 0
2.804241 78.03407 -2.92777 0
2.804241 78.08407 -2.92777 0
2.804241 78.18407 -2.92777 0
2.854241 78.18407 -2.92777 0
2.904242 78.03407 -2.97777 0
2.904242 78.13406 -2.92777 0
2.954242 78.18407 -2.97777 0
2.904242 78.18407 -2.92777 0
2.704242 78.43407 -3.02777 0
2.754241 78.48406 -2.97777 0
2.854241 78.58407 -3.02777 0
2.904242 78.33407 -2.92777 0
2.954242 78.33407 -2.92777 0
3.004241 78.28407 -2.92777 0
3.004241 78.33407 -2.92777 0
3.054241 78.43407 -2.92777 0
3.004241 78.53407 -2.97777 0
3.104241 78.63406 -3.07777 0
3.404242 78.63406 -3.07777 0
3.154242 78.28407 -2.97777 0
3.104241 78.43407 -2.92777 0
3.254241 78.43407 -2.92777 0
3.154242 78.63406 -2.97777 0
3.204242 78.48406 -2.92777 0
3.204242 78.53407 -2.92777 0
3.254241 78.53407 -2.92777 0
3.304241 78.43407 -2.97777 0
3.354241 78.58407 -3.02777 0
3.354241 78.58407 -2.97777 0
3.304241 78.58407 -2.92777 0
2.754241 78.53407 -2.62777 0
2.754241 78.58407 -2.62777 0
2.754241 78.63406 -2.62777 0
2.754241 78.48406 -2.37777 0
2.804241 78.63406 -2.37777 0
2.804241 78.58407 -2.32777 0
3.054241 78.43407 -2.47777 0
2.954242 78.48406 -2.47777 0
3.004241 78.48406 -2.47777 0
3.054241 78.48406 -2.47777 0
2.954242 78.63406 -2.32777 0
2.854241 78.58407 -2.12777 0
2.854241 78.58407 -2.07777 0
2.754241 78.53407 -1.97777 0
2.754241 78.58407 -1.97777 0
3.004241 78.48406 -2.02777 0
3.054241 78.48406 -2.02777 0
3.004241 78.63406 -1.97777 0
3.054241 78.63406 -2.02777 0
3.254241 78.38406 -2.47777 0
3.104241 78.58407 -2.47777 0
3.154242 78.58407 -2.47777 0
3.254241 78.53407 -2.52777 0
3.204242 78.63406 -2.47777 0
3.254241 78.58407 -2.52777 0
3.404242 78.43407 -2.57777 0
3.304241 78.58407 -2.52777 0
3.404242 78.53407 -2.52777 0
3.454242 78.58407 -2.57777 0
3.404242 78.58407 -2.52777 0
3.154242 78.53407 -1.97777 0
3.154242 78.58407 -2.02777 0
3.154242 78.63406 -2.02777 0
3.354241 78.48406 -2.17777 0
3.354241 78.53407 -2.07777 0
3.354241 78.58407 -2.22777 0
3.354241 78.53407 -2.02777 0
3.404242 78.48406 -1.97777 0
3.404242 78.63406 -1.92777 0
3.504241 78.63406 -3.02777 0
2.754241 77.63406 -1.12777 0
2.804241 77.68407 -1.12777 0
2.754241 77.28407 -0.5277703 0
2.704242 77.43407 -0.5277703 0
3.254241 77.83407 -0.8277704 0
3.054241 78.23406 -1.07777 0
2.704242 78.63406 -1.62777 0
2.704242 78.63406 -1.52777 0
2.904242 78.43407 -1.57777 0
2.904242 78.53407 -1.47777 0
2.954242 78.53407 -1.52777 0
3.054241 78.28407 -1.12777 0
3.054241 78.33407 -1.07777 0
3.004241 78.38406 -1.12777 0
3.004241 78.38406 -1.07777 0
3.004241 78.63406 -1.12777 0
3.004241 78.63406 -1.07777 0
3.054241 78.58407 -1.07777 0
3.054241 78.63406 -1.07777 0
3.154242 78.18407 -1.12777 0
3.104241 78.53407 -1.57777 0
3.154242 78.58407 -1.57777 0
3.154242 78.63406 -1.57777 0
3.104241 78.63406 -1.52777 0
3.204242 78.53407 -1.52777 0
3.204242 78.58407 -1.47777 0
3.404242 78.58407 -1.77777 0
3.404242 78.63406 -1.67777 0
3.454242 78.63406 -1.72777 0
3.304241 78.48406 -1.47777 0
3.104241 78.48406 -1.07777 0
3.104241 78.53407 -1.12777 0
3.154242 78.48406 -1.12777 0
3.154242 78.48406 -1.07777 0
3.054241 78.23406 -1.02777 0
2.704242 77.98406 -0.3277703 0
2.754241 78.08407 -0.4277703 0
2.854241 78.13406 -0.3277703 0
3.054241 78.23406 -0.6277703 0
3.054241 78.23406 -0.5277703 0
3.004241 78.38406 -1.02777 0
3.054241 78.53407 -1.02777 0
3.054241 78.53407 -0.9777703 0
3.054241 78.53407 -0.9277703 0
3.054241 78.33407 -0.4777703 0
3.154242 78.03407 -0.9777703 0
3.254241 77.98406 -0.8777703 0
3.104241 78.13406 -1.02777 0
3.104241 78.18407 -0.9777703 0
3.254241 78.18407 -0.9277703 0
3.104241 77.93407 -0.6277703 0
3.154242 77.88406 -0.6277703 0
3.154242 77.88406 -0.5777703 0
3.104241 77.98406 -0.6277703 0
3.154242 77.98406 -0.4777703 0
3.104241 78.08407 -0.6277703 0
3.104241 78.13406 -0.6277703 0
3.104241 78.08407 -0.5277703 0
3.154242 78.08407 -0.3777703 0
3.304241 78.13406 -0.5277703 0
3.404242 78.13406 -0.3777703 0
3.104241 78.28407 -1.02777 0
3.154242 78.38406 -0.9777703 0
3.254241 78.28407 -0.8777703 0
3.204242 78.43407 -0.7277703 0
3.104241 78.63406 -0.8277704 0
3.154242 78.63406 -0.7277703 0
3.254241 78.33407 -0.5777703 0
3.254241 78.38406 -0.5777703 0
3.254241 78.38406 -0.4777703 0
3.404242 78.43407 -0.3777703 0
3.504241 78.33407 -0.6777703 0
3.854241 78.38406 -1.02777 0
3.754241 78.53407 -0.9777703 0
3.554241 78.33407 -0.6277703 0
3.504241 78.43407 -0.5277703 0
3.654242 78.43407 -0.4277703 0
3.754241 78.43407 -0.5277703 0
4.154242 78.18407 -0.9277703 0
4.254241 78.13406 -0.8777703 0
4.254241 78.18407 -0.8777703 0
4.154242 78.23406 -0.8277704 0
4.254241 78.08407 -0.8277704 0
4.254241 78.13406 -0.8277704 0
4.204241 78.18407 -0.8277704 0
4.254241 78.18407 -0.7777703 0
4.254241 78.23406 -0.7277703 0
4.004241 78.23406 -0.5777703 0
3.954242 78.23406 -0.3277703 0
4.104241 78.08407 -0.5777703 0
3.904242 78.28407 -1.02777 0
3.954242 78.38406 -0.9777703 0
3.954242 78.43407 -0.8777703 0
4.054242 78.33407 -0.9277703 0
4.054242 78.33407 -0.8777703 0
4.004241 78.43407 -0.9277703 0
4.004241 78.43407 -0.8777703 0
4.054242 78.38406 -0.9277703 0
4.004241 78.38406 -0.8277704 0
4.054242 78.38406 -0.8277704 0
3.904242 78.53407 -0.8777703 0
3.954242 78.48406 -0.9277703 0
3.954242 78.58407 -0.8777703 0
3.954242 78.53407 -0.8277704 0
3.904242 78.63406 -0.7777703 0
3.954242 78.63406 -0.8277704 0
4.004241 78.48406 -0.8277704 0
4.004241 78.48406 -0.7777703 0
4.004241 78.58407 -0.7277703 0
4.004241 78.63406 -0.6777703 0
4.104241 78.28407 -0.8777703 0
4.154242 78.28407 -0.8777703 0
4.154242 78.33407 -0.8777703 0
4.104241 78.28407 -0.8277704 0
4.104241 78.33407 -0.7777703 0
4.104241 78.38406 -0.8277704 0
4.154242 78.43407 -0.7777703 0
4.104241 78.43407 -0.7277703 0
4.204241 78.28407 -0.7777703 0
4.254241 78.33407 -0.7777703 0
4.204241 78.28407 -0.7277703 0
4.204241 78.33407 -0.7277703 0
4.254241 78.38406 -0.6777703 0
4.254241 78.43407 -0.6777703 0
4.104241 78.48406 -0.7277703 0
4.154242 78.53407 -0.6777703 0
4.204241 78.48406 -0.6777703 0
3.954242 78.48406 -0.5777703 0
3.904242 78.48406 -0.4277703 0
4.204241 78.28407 -0.2777703 0
4.254241 78.53407 -0.5777703 0
4.154242 78.48406 -0.4277703 0
4.654242 77.83407 -0.6777703 0
4.354241 78.03407 -0.8277704 0
4.404242 77.98406 -0.8277704 0
4.404242 78.03407 -0.8277704 0
4.454241 77.98406 -0.7777703 0
4.354241 78.08407 -0.7777703 0
4.354241 78.13406 -0.8277704 0
4.354241 78.13406 -0.7777703 0
4.304242 78.23406 -0.7277703 0
4.404242 78.18407 -0.7277703 0
4.554242 77.88406 -0.7777703 0
4.504241 78.03407 -0.6777703 0
4.554242 77.98406 -0.7277703 0
4.604241 77.93407 -0.6777703 0
4.654242 77.93407 -0.6777703 0
4.404242 78.23406 -0.6277703 0
4.504241 78.13406 -0.6277703 0
4.554242 78.23406 -0.5277703 0
4.354241 78.33407 -0.6777703 0
4.504241 78.58407 -0.7777703 0
4.354241 78.43407 -0.5777703 0
4.454241 78.33407 -0.5777703 0
4.454241 78.28407 -0.5277703 0
4.404242 78.38406 -0.5777703 0
4.404242 78.63406 -0.5777703 0
4.654242 78.63406 -0.4777703 0
4.854241 78.23406 -0.7777703 0
4.854241 78.23406 -0.7277703 0
5.054242 78.03407 -0.7277703 0
4.954241 78.13406 -0.7277703 0
4.954241 78.18407 -0.6777703 0
5.004241 78.08407 -0.6777703 0
4.954241 78.23406 -0.6277703 0
5.054242 78.13406 -0.6277703 0
5.054242 78.13406 -0.5777703 0
5.004241 78.23406 -0.5777703 0
5.054242 78.18407 -0.5277703 0
4.754241 78.38406 -0.7277703 0
4.804242 78.28407 -0.7777703 0
4.854241 78.28407 -0.7277703 0
4.804242 78.38406 -0.7277703 0
4.704241 78.48406 -0.7277703 0
4.804242 78.48406 -0.6777703 0
4.704241 78.28407 -0.4777703 0
4.854241 78.43407 -0.6277703 0
4.754241 78.48406 -0.6277703 0
4.704241 78.63406 -0.6277703 0
4.754241 78.63406 -0.5277703 0
4.804242 78.53407 -0.6277703 0
4.854241 78.58407 -0.5777703 0
4.804242 78.58407 -0.4777703 0
4.804242 78.63406 -0.5277703 0
4.904242 78.33407 -0.6277703 0
4.954241 78.28407 -0.5777703 0
4.954241 78.28407 -0.5277703 0
4.904242 78.38406 -0.6277703 0
4.904242 78.38406 -0.5777703 0
4.904242 78.43407 -0.5277703 0
4.954241 78.38406 -0.5277703 0
5.004241 78.28407 -0.5277703 0
5.004241 78.43407 -0.5277703 0
5.004241 78.43407 -0.4777703 0
5.054242 78.38406 -0.4277703 0
4.904242 78.48406 -0.5277703 0
4.904242 78.58407 -0.5277703 0
4.954241 78.58407 -0.4277703 0
4.954241 78.63406 -0.4277703 0
5.054242 78.53407 -0.4277703 0
5.404242 77.83407 -0.4777703 0
5.604241 77.83407 -0.3277703 0
5.604241 77.83407 -0.2777703 0
5.654242 77.78407 -0.3277703 0
5.754241 77.58407 -0.3277703 0
5.804242 77.58407 -0.3277703 0
5.804242 77.63406 -0.2777703 0
5.704241 77.73406 -0.3277703 0
5.704241 77.73406 -0.2777703 0
5.754241 77.68407 -0.3277703 0
5.754241 77.73406 -0.2777703 0
5.704241 77.83407 -0.2777703 0
5.104241 77.98406 -0.6777703 0
5.154242 78.03407 -0.6277703 0
5.254241 77.93407 -0.6277703 0
5.254241 78.03407 -0.4777703 0
5.154242 78.08407 -0.5777703 0
5.104241 78.18407 -0.5777703 0
5.154242 78.23406 -0.4777703 0
5.254241 78.08407 -0.5277703 0
5.204241 78.18407 -0.5277703 0
5.204241 78.18407 -0.4777703 0
5.354241 77.93407 -0.4777703 0
5.454241 78.38406 -0.6777703 0
5.304242 78.48406 -0.6777703 0
5.104241 78.28407 -0.5777703 0
5.104241 78.28407 -0.4777703 0
5.104241 78.33407 -0.4777703 0
5.154242 78.28407 -0.4777703 0
5.154242 78.48406 -0.6277703 0
5.204241 78.53407 -0.5277703 0
5.204241 78.63406 -0.5777703 0
5.354241 78.33407 -0.6277703 0
5.354241 78.33407 -0.5777703 0
5.404242 78.38406 -0.6277703 0
5.354241 78.48406 -0.5777703 0
5.304242 78.48406 -0.5277703 0
5.404242 78.48406 -0.5777703 0
5.454241 78.53407 -0.5777703 0
5.404242 78.58407 -0.5777703 0
5.554242 77.88406 -0.3277703 0
5.554242 77.93407 -0.2777703 0
5.504241 78.03407 -0.2777703 0
5.554242 77.98406 -0.2777703 0
5.604241 77.93407 -0.2777703 0
5.804242 78.13406 -0.3777703 0
5.854241 78.13406 -0.3277703 0
5.804242 78.18407 -0.4277703 0
5.854241 78.18407 -0.3277703 0
5.604241 78.43407 -0.6777703 0
5.554242 78.58407 -0.6777703 0
5.654242 78.58407 -0.7277703 0
5.704241 78.43407 -0.7277703 0
5.804242 78.48406 -0.7277703 0
5.504241 78.43407 -0.6277703 0
5.604241 78.43407 -0.6277703 0
5.654242 78.38406 -0.4277703 0
5.654242 78.38406 -0.3277703 0
5.554242 78.58407 -0.5777703 0
5.654242 78.48406 -0.6277703 0
5.604241 78.63406 -0.6277703 0
5.654242 78.63406 -0.5777703 0
5.604241 78.58407 -0.5277703 0
5.554242 78.48406 -0.4277703 0
5.504241 78.58407 -0.4277703 0
5.604241 78.53407 -0.2777703 0
5.654242 78.58407 -0.3277703 0
5.704241 78.28407 -0.4277703 0
5.754241 78.28407 -0.3777703 0
5.754241 78.28407 -0.3277703 0
5.704241 78.38406 -0.3277703 0
5.704241 78.43407 -0.3277703 0
5.754241 78.53407 -0.6277703 0
5.754241 78.63406 -0.6277703 0
5.804242 78.53407 -0.6277703 0
5.854241 78.63406 -0.6277703 0
5.754241 78.48406 -0.3777703 0
5.704241 78.63406 -0.3277703 0
5.854241 78.53407 -0.3777703 0
5.854241 78.53407 -0.3277703 0
5.854241 78.58407 -0.3277703 0
5.904242 77.48406 -0.3277703 0
5.904242 77.53407 -0.2777703 0
6.254241 77.78407 -0.2777703 0
5.904242 78.08407 -0.3277703 0
6.004241 78.13406 -0.2777703 0
6.104241 78.03407 -0.2777703 0
6.204242 77.93407 -0.2777703 0
5.904242 78.53407 -0.7277703 0
5.904242 78.58407 -0.6777703 0
6.004241 78.48406 -0.6777703 0
6.004241 78.63406 -0.6777703 0
6.054242 78.58407 -0.6777703 0
6.154242 78.63406 -0.6777703 0
6.004241 78.53407 -0.3777703 0
6.254241 78.43407 -0.3777703 0
6.154242 78.48406 -0.3777703 0
6.154242 78.63406 -0.3277703 0
6.204242 78.63406 -0.3777703 0
6.304242 78.58407 -0.3777703 0
6.304242 78.63406 -0.3277703 0
6.454242 78.63406 -0.3277703 0
6.554242 78.58407 -0.3277703 0
6.654242 78.53407 -0.3277703 0
6.804242 78.53407 -0.3277703 0
2.704242 78.83407 -2.87777 0
2.704242 78.88406 -2.92777 0
2.754241 78.88406 -2.92777 0
2.754241 78.88406 -2.87777 0
2.754241 78.93407 -2.92777 0
2.804241 78.88406 -2.87777 0
2.804241 78.93407 -2.92777 0
2.804241 78.93407 -2.87777 0
2.854241 78.88406 -2.87777 0
2.854241 78.93407 -2.92777 0
2.804241 79.03407 -3.02777 0
2.904242 78.93407 -2.87777 0
2.904242 79.03407 -2.97777 0
2.904242 78.98406 -2.87777 0
2.954242 78.98406 -2.92777 0
2.954242 79.03407 -2.92777 0
3.004241 78.98406 -2.87777 0
3.054241 79.03407 -2.92777 0
3.054241 79.03407 -2.87777 0
2.954242 78.93407 -2.67777 0
3.004241 78.98406 -2.67777 0
3.054241 78.98406 -2.67777 0
2.954242 79.08407 -2.97777 0
2.954242 79.08407 -2.92777 0
3.054241 79.08407 -2.97777 0
3.254241 78.73406 -3.07777 0
3.254241 78.68407 -2.92777 0
3.254241 78.78407 -2.97777 0
3.154242 79.03407 -2.97777 0
3.104241 79.03407 -2.92777 0
3.104241 79.03407 -2.87777 0
3.154242 79.03407 -2.92777 0
3.154242 79.03407 -2.87777 0
3.204242 79.03407 -2.97777 0
3.204242 79.03407 -2.92777 0
3.204242 79.03407 -2.87777 0
3.254241 78.98406 -2.92777 0
3.104241 78.98406 -2.67777 0
3.154242 78.98406 -2.67777 0
3.204242 78.98406 -2.67777 0
3.254241 78.98406 -2.67777 0
3.354241 78.73406 -2.97777 0
3.354241 78.73406 -2.92777 0
3.304241 78.83407 -2.92777 0
3.354241 78.78407 -2.92777 0
3.404242 78.73406 -3.02777 0
3.404242 78.78407 -2.97777 0
3.354241 78.88406 -2.92777 0
3.354241 78.93407 -2.92777 0
3.304241 78.98406 -2.97777 0
3.304241 79.03407 -3.02777 0
3.304241 79.03407 -2.97777 0
3.304241 78.98406 -2.92777 0
3.304241 78.98406 -2.87777 0
3.354241 78.98406 -2.92777 0
3.354241 78.98406 -2.87777 0
3.454242 78.88406 -2.97777 0
3.404242 78.93407 -2.92777 0
3.454242 78.93407 -2.92777 0
3.454242 78.98406 -2.97777 0
3.404242 78.98406 -2.92777 0
3.404242 78.98406 -2.87777 0
3.454242 78.98406 -2.92777 0
3.454242 79.03407 -2.92777 0
3.354241 78.93407 -2.67777 0
3.404242 78.93407 -2.67777 0
3.454242 78.93407 -2.67777 0
3.254241 79.08407 -3.07777 0
3.354241 79.13406 -3.07777 0
3.354241 79.33407 -3.07777 0
3.104241 79.08407 -3.02777 0
3.204242 79.13406 -3.02777 0
3.254241 79.08407 -2.97777 0
3.354241 79.23406 -3.02777 0
3.404242 79.08407 -2.97777 0
3.454242 79.13406 -2.97777 0
2.754241 78.73406 -2.62777 0
2.754241 78.83407 -2.62777 0
2.804241 78.78407 -2.62777 0
2.804241 78.83407 -2.62777 0
2.854241 78.83407 -2.62777 0
2.804241 78.68407 -2.37777 0
2.804241 78.78407 -2.37777 0
2.854241 78.78407 -2.37777 0
2.854241 78.83407 -2.37777 0
2.704242 78.88406 -2.52777 0
2.854241 78.93407 -2.62777 0
2.904242 78.83407 -2.37777 0
2.954242 78.83407 -2.37777 0
3.054241 78.73406 -2.37777 0
2.904242 78.88406 -2.62777 0
2.904242 78.93407 -2.62777 0
2.954242 78.88406 -2.62777 0
2.954242 78.93407 -2.62777 0
2.954242 79.03407 -2.52777 0
3.004241 78.93407 -2.62777 0
3.004241 78.98406 -2.62777 0
3.004241 78.98406 -2.57777 0
3.054241 78.98406 -2.62777 0
3.054241 78.98406 -2.57777 0
3.004241 79.03407 -2.52777 0
2.954242 78.88406 -2.42777 0
2.954242 78.88406 -2.37777 0
2.904242 78.88406 -2.32777 0
2.954242 78.93407 -2.27777 0
3.004241 78.88406 -2.37777 0
3.004241 78.93407 -2.42777 0
3.004241 78.93407 -2.37777 0
3.054241 78.93407 -2.42777 0
3.004241 78.93407 -2.32777 0
2.754241 78.78407 -2.22777 0
2.804241 78.73406 -2.07777 0
2.854241 78.78407 -2.12777 0
2.804241 78.73406 -1.87777 0
2.854241 78.78407 -1.87777 0
2.854241 78.98406 -1.92777 0
2.904242 78.78407 -2.12777 0
2.904242 78.78407 -2.07777 0
2.904242 78.83407 -2.12777 0
2.954242 78.83407 -2.12777 0
2.954242 78.83407 -2.07777 0
2.954242 78.88406 -2.17777 0
2.954242 78.98406 -2.17777 0
3.004241 78.93407 -2.17777 0
3.054241 78.93407 -2.17777 0
3.004241 78.93407 -2.12777 0
3.004241 78.98406 -2.12777 0
2.904242 78.93407 -2.02777 0
2.904242 78.88406 -1.92777 0
2.904242 78.93407 -1.92777 0
2.904242 78.93407 -1.87777 0
2.954242 78.93407 -1.92777 0
2.904242 79.03407 -1.97777 0
2.954242 78.98406 -2.02777 0
2.954242 78.98406 -1.92777 0
2.954242 78.98406 -1.87777 0
3.004241 78.93407 -2.02777 0
3.004241 78.93407 -1.92777 0
3.054241 78.93407 -1.92777 0
3.054241 79.03407 -2.02777 0
3.004241 78.98406 -1.92777 0
3.004241 78.98406 -1.87777 0
2.904242 79.08407 -2.52777 0
3.054241 79.13406 -2.52777 0
2.754241 79.13406 -2.02777 0
2.804241 79.08407 -2.02777 0
2.854241 79.13406 -2.02777 0
3.054241 79.08407 -2.07777 0
3.004241 79.13406 -2.02777 0
3.004241 79.13406 -1.97777 0
3.204242 78.68407 -2.47777 0
3.204242 78.73406 -2.47777 0
3.254241 78.73406 -2.47777 0
3.254241 78.83407 -2.47777 0
3.104241 78.73406 -2.32777 0
3.254241 78.83407 -2.27777 0
3.104241 78.98406 -2.62777 0
3.154242 78.98406 -2.62777 0
3.154242 78.98406 -2.57777 0
3.254241 78.93407 -2.62777 0
3.204242 78.88406 -2.47777 0
3.254241 78.93407 -2.52777 0
3.204242 78.98406 -2.62777 0
3.254241 78.98406 -2.62777 0
3.254241 78.98406 -2.57777 0
3.204242 78.98406 -2.52777 0
3.204242 79.03407 -2.52777 0
3.204242 79.03407 -2.47777 0
3.254241 78.98406 -2.47777 0
3.104241 78.93407 -2.37777 0
3.154242 78.93407 -2.42777 0
3.104241 78.93407 -2.32777 0
3.104241 78.93407 -2.27777 0
3.204242 78.88406 -2.37777 0
3.204242 78.93407 -2.37777 0
3.254241 78.93407 -2.42777 0
3.254241 78.93407 -2.37777 0
3.204242 78.93407 -2.32777 0
3.204242 78.93407 -2.27777 0
3.304241 78.73406 -2.52777 0
3.354241 78.73406 -2.52777 0
3.354241 78.78407 -2.52777 0
3.404242 78.73406 -2.52777 0
3.454242 78.78407 -2.57777 0
3.404242 78.78407 -2.52777 0
3.354241 78.73406 -2.27777 0
3.354241 78.78407 -2.32777 0
3.454242 78.73406 -2.37777 0
3.404242 78.73406 -2.32777 0
3.404242 78.78407 -2.37777 0
3.404242 78.83407 -2.37777 0
3.304241 78.93407 -2.62777 0
3.354241 78.88406 -2.57777 0
3.354241 78.93407 -2.62777 0
3.304241 78.88406 -2.52777 0
3.354241 78.88406 -2.52777 0
3.304241 78.98406 -2.57777 0
3.404242 78.88406 -2.62777 0
3.404242 78.93407 -2.62777 0
3.454242 78.88406 -2.62777 0
3.454242 78.93407 -2.62777 0
3.404242 78.98406 -2.62777 0
3.304241 78.88406 -2.37777 0
3.354241 78.88406 -2.42777 0
3.354241 78.88406 -2.37777 0
3.304241 78.88406 -2.32777 0
3.254241 78.73406 -2.07777 0
3.254241 78.83407 -2.12777 0
3.154242 78.73406 -1.97777 0
3.204242 78.73406 -2.02777 0
3.254241 78.73406 -2.02777 0
3.204242 78.78407 -2.02777 0
3.254241 78.83407 -2.02777 0
3.254241 78.83407 -1.92777 0
3.104241 78.93407 -2.17777 0
3.154242 78.93407 -2.17777 0
3.104241 78.93407 -2.12777 0
3.154242 78.93407 -2.12777 0
3.104241 79.03407 -2.07777 0
3.204242 78.88406 -2.22777 0
3.204242 78.88406 -2.12777 0
3.204242 78.93407 -2.07777 0
3.254241 78.88406 -2.07777 0
3.254241 78.93407 -2.12777 0
3.104241 78.93407 -2.02777 0
3.154242 78.88406 -1.97777 0
3.154242 78.93407 -2.02777 0
3.104241 78.93407 -1.92777 0
3.154242 78.88406 -1.92777 0
3.154242 78.93407 -1.87777 0
3.104241 78.98406 -2.02777 0
3.104241 78.98406 -1.97777 0
3.104241 78.98406 -1.92777 0
3.104241 78.98406 -1.87777 0
3.154242 78.98406 -1.92777 0
3.204242 78.88406 -2.02777 0
3.204242 78.93407 -2.02777 0
3.254241 78.88406 -1.97777 0
3.204242 78.93407 -1.92777 0
3.254241 78.88406 -1.87777 0
3.354241 78.73406 -2.12777 0
3.304241 78.78407 -2.17777 0
3.304241 78.83407 -2.12777 0
3.354241 78.78407 -2.12777 0
3.404242 78.73406 -2.17777 0
3.404242 78.73406 -2.12777 0
3.454242 78.73406 -2.12777 0
3.454242 78.73406 -2.07777 0
3.304241 78.68407 -1.97777 0
3.354241 78.73406 -2.02777 0
3.304241 78.78407 -2.02777 0
3.354241 78.78407 -2.02777 0
3.304241 78.83407 -1.92777 0
3.304241 78.83407 -1.87777 0
3.354241 78.78407 -1.92777 0
3.354241 78.83407 -1.87777 0
3.404242 78.73406 -2.02777 0
3.404242 78.78407 -1.87777 0
3.454242 78.78407 -1.87777 0
3.304241 78.88406 -2.17777 0
3.304241 78.93407 -2.12777 0
3.304241 78.88406 -2.02777 0
3.154242 79.08407 -2.52777 0
3.104241 79.18407 -2.47777 0
3.554241 78.88406 -3.07777 0
3.504241 78.93407 -2.97777 0
3.554241 79.03407 -2.97777 0
3.504241 78.98406 -2.92777 0
3.504241 78.98406 -2.87777 0
3.504241 79.03407 -2.92777 0
3.554241 78.98406 -2.92777 0
3.554241 78.98406 -2.87777 0
3.554241 79.03407 -2.92777 0
3.604241 78.98406 -3.02777 0
3.604241 79.03407 -2.92777 0
3.654242 78.98406 -2.92777 0
3.654242 79.03407 -2.92777 0
3.504241 78.98406 -2.67777 0
3.604241 78.88406 -2.67777 0
3.704242 79.03407 -2.92777 0
3.754241 79.03407 -2.92777 0
3.804241 79.03407 -2.92777 0
3.554241 79.43407 -3.07777 0
3.554241 79.08407 -2.97777 0
3.554241 79.13406 -2.97777 0
3.554241 79.18407 -2.97777 0
3.604241 79.13406 -2.97777 0
3.654242 79.08407 -2.92777 0
3.604241 79.23406 -2.97777 0
3.604241 79.18407 -2.92777 0
3.554241 79.33407 -3.02777 0
3.704242 79.13406 -3.02777 0
3.704242 79.13406 -2.97777 0
3.754241 79.08407 -2.92777 0
3.804241 79.13406 -2.97777 0
3.804241 79.08407 -2.92777 0
3.804241 79.13406 -2.92777 0
3.854241 79.08407 -2.92777 0
3.804241 79.18407 -2.97777 0
3.804241 79.23406 -2.97777 0
3.854241 79.18407 -2.97777 0
3.704242 79.28407 -2.97777 0
3.754241 79.28407 -2.97777 0
3.754241 79.33407 -2.97777 0
3.704242 79.43407 -3.02777 0
3.854241 79.38406 -2.97777 0
3.904242 79.08407 -2.92777 0
3.904242 79.13406 -2.92777 0
3.954242 79.08407 -2.92777 0
3.904242 79.18407 -2.97777 0
3.954242 79.18407 -2.92777 0
4.004241 79.08407 -2.92777 0
4.004241 79.13406 -2.92777 0
4.054242 79.08407 -2.92777 0
4.054242 79.13406 -2.92777 0
4.004241 79.18407 -2.92777 0
3.954242 79.33407 -2.97777 0
3.904242 79.38406 -2.97777 0
3.904242 79.43407 -2.97777 0
3.954242 79.43407 -2.97777 0
4.004241 79.33407 -2.97777 0
4.104241 79.13406 -2.92777 0
4.104241 79.23406 -2.97777 0
4.104241 79.43407 -2.97777 0
3.504241 78.78407 -2.62777 0
3.554241 78.83407 -2.62777 0
3.504241 78.93407 -2.62777 0
3.504241 78.78407 -1.87777 0
3.554241 79.73406 -3.12777 0
3.704242 79.88406 -3.12777 0
3.904242 79.53407 -3.02777 0
4.004241 79.53407 -2.97777 0
4.054242 79.48406 -2.97777 0
4.054242 79.58407 -2.97777 0
4.054242 79.63406 -3.02777 0
4.104241 79.68407 -2.97777 0
4.204241 79.73406 -3.02777 0
3.904242 79.98406 -3.12777 0
4.254241 80.23406 -3.12777 0
2.704242 78.68407 -1.82777 0
2.754241 78.68407 -1.82777 0
2.854241 78.73406 -1.82777 0
2.804241 78.73406 -1.67777 0
2.854241 78.83407 -1.82777 0
2.754241 78.68407 -1.62777 0
2.754241 78.78407 -1.62777 0
2.754241 78.78407 -1.57777 0
2.754241 78.83407 -1.62777 0
2.854241 78.88406 -1.82777 0
2.804241 78.93407 -1.67777 0
2.804241 78.98406 -1.77777 0
2.804241 78.98406 -1.67777 0
2.854241 78.98406 -1.72777 0
2.854241 78.98406 -1.67777 0
2.754241 78.88406 -1.57777 0
2.754241 79.03407 -1.57777 0
2.804241 78.98406 -1.57777 0
2.854241 79.03407 -1.57777 0
2.904242 78.68407 -1.72777 0
3.054241 78.78407 -1.72777 0
3.054241 78.78407 -1.67777 0
2.954242 78.98406 -1.72777 0
2.954242 78.98406 -1.67777 0
3.004241 78.93407 -1.82777 0
3.004241 79.03407 -1.82777 0
3.054241 79.03407 -1.77777 0
3.004241 78.98406 -1.67777 0
3.054241 79.03407 -1.67777 0
2.904242 78.98406 -1.57777 0
2.954242 79.03407 -1.62777 0
3.054241 78.98406 -1.62777 0
3.054241 79.03407 -1.62777 0
3.054241 79.03407 -1.57777 0
2.704242 78.83407 -1.37777 0
2.704242 78.68407 -1.07777 0
2.704242 78.93407 -1.42777 0
2.754241 79.03407 -1.42777 0
2.754241 79.03407 -1.37777 0
2.704242 78.98406 -1.32777 0
2.704242 79.03407 -1.32777 0
2.804241 79.03407 -1.42777 0
2.854241 79.03407 -1.22777 0
2.854241 79.03407 -1.12777 0
2.854241 79.03407 -1.07777 0
2.904242 79.03407 -1.37777 0
3.004241 78.93407 -1.37777 0
3.004241 78.98406 -1.32777 0
2.954242 78.93407 -1.22777 0
2.954242 78.93407 -1.17777 0
2.904242 79.03407 -1.17777 0
2.954242 78.98406 -1.17777 0
2.904242 78.98406 -1.12777 0
3.054241 78.93407 -1.22777 0
3.004241 78.93407 -1.12777 0
3.054241 78.88406 -1.12777 0
3.054241 78.93407 -1.12777 0
2.854241 79.08407 -1.47777 0
2.854241 79.13406 -1.52777 0
2.854241 79.23406 -1.52777 0
2.904242 79.08407 -1.67777 0
2.954242 79.08407 -1.62777 0
2.954242 79.13406 -1.57777 0
2.954242 79.08407 -1.47777 0
2.904242 79.18407 -1.57777 0
2.904242 79.18407 -1.47777 0
3.004241 79.08407 -1.52777 0
3.004241 79.13406 -1.52777 0
2.704242 79.08407 -1.42777 0
2.804241 79.08407 -1.32777 0
2.804241 79.08407 -1.27777 0
2.804241 79.18407 -1.37777 0
2.704242 79.08407 -1.22777 0
2.704242 79.13406 -1.22777 0
2.754241 79.13406 -1.22777 0
2.754241 79.13406 -1.07777 0
2.704242 79.23406 -1.22777 0
2.754241 79.18407 -1.22777 0
2.754241 79.18407 -1.07777 0
2.804241 79.13406 -1.22777 0
2.804241 79.13406 -1.17777 0
2.804241 79.08407 -1.07777 0
2.804241 79.13406 -1.07777 0
2.904242 79.08407 -1.42777 0
2.904242 79.08407 -1.37777 0
2.904242 79.13406 -1.42777 0
2.954242 79.08407 -1.42777 0
2.904242 79.08407 -1.32777 0
3.054241 79.08407 -1.42777 0
3.104241 78.68407 -1.57777 0
3.154242 78.78407 -1.52777 0
3.204242 78.73406 -1.57777 0
3.254241 78.78407 -1.62777 0
3.104241 78.93407 -1.82777 0
3.104241 78.98406 -1.82777 0
3.104241 78.98406 -1.72777 0
3.104241 78.98406 -1.67777 0
3.204242 78.88406 -1.82777 0
3.204242 78.88406 -1.72777 0
3.204242 78.93407 -1.72777 0
3.204242 78.93407 -1.67777 0
3.104241 79.03407 -1.62777 0
3.154242 78.98406 -1.57777 0
3.154242 79.03407 -1.57777 0
3.104241 79.03407 -1.47777 0
3.204242 78.93407 -1.62777 0
3.254241 78.88406 -1.57777 0
3.254241 78.93407 -1.57777 0
3.254241 78.88406 -1.52777 0
3.204242 78.98406 -1.62777 0
3.204242 79.03407 -1.62777 0
3.204242 79.03407 -1.57777 0
3.254241 79.03407 -1.57777 0
3.204242 78.98406 -1.52777 0
3.204242 78.98406 -1.47777 0
3.254241 79.03407 -1.52777 0
3.304241 78.83407 -1.82777 0
3.404242 78.78407 -1.82777 0
3.404242 78.83407 -1.77777 0
3.404242 78.83407 -1.67777 0
3.454242 78.83407 -1.72777 0
3.304241 78.78407 -1.62777 0
3.304241 78.78407 -1.57777 0
3.354241 78.78407 -1.52777 0
3.354241 78.83407 -1.47777 0
3.454242 78.73406 -1.57777 0
3.454242 78.83407 -1.52777 0
3.304241 78.88406 -1.72777 0
3.304241 78.88406 -1.67777 0
3.304241 78.88406 -1.62777 0
3.304241 78.93407 -1.62777 0
3.304241 78.93407 -1.57777 0
3.354241 78.88406 -1.62777 0
3.354241 78.88406 -1.57777 0
3.354241 78.93407 -1.57777 0
3.304241 78.93407 -1.47777 0
3.354241 78.88406 -1.52777 0
3.354241 78.93407 -1.52777 0
3.304241 78.98406 -1.52777 0
3.404242 78.88406 -1.62777 0
3.404242 78.88406 -1.47777 0
3.254241 78.83407 -1.32777 0
3.104241 78.83407 -1.22777 0
3.254241 78.78407 -1.17777 0
3.204242 78.78407 -1.12777 0
3.104241 78.93407 -1.32777 0
3.104241 78.93407 -1.27777 0
3.154242 78.88406 -1.32777 0
3.104241 79.03407 -1.42777 0
3.154242 79.03407 -1.42777 0
3.254241 78.88406 -1.37777 0
3.204242 78.98406 -1.42777 0
3.254241 78.98406 -1.42777 0
3.104241 78.88406 -1.22777 0
3.154242 78.93407 -1.17777 0
3.104241 78.93407 -1.12777 0
3.154242 78.88406 -1.12777 0
3.204242 78.93407 -1.12777 0
3.204242 78.98406 -1.07777 0
3.454242 78.68407 -1.42777 0
3.404242 78.78407 -1.42777 0
3.304241 78.83407 -1.22777 0
3.354241 78.78407 -1.17777 0
3.304241 78.78407 -1.07777 0
3.354241 78.78407 -1.07777 0
3.404242 78.83407 -1.12777 0
3.404242 78.83407 -1.07777 0
3.454242 78.83407 -1.07777 0
3.304241 78.88406 -1.42777 0
3.354241 78.93407 -1.42777 0
3.304241 78.93407 -1.27777 0
3.354241 78.93407 -1.32777 0
3.354241 78.98406 -1.42777 0
3.404242 78.93407 -1.42777 0
3.404242 78.93407 -1.37777 0
3.454242 78.88406 -1.42777 0
3.454242 78.93407 -1.37777 0
3.404242 78.93407 -1.27777 0
3.454242 78.93407 -1.32777 0
3.354241 78.93407 -1.22777 0
3.354241 78.88406 -1.12777 0
3.354241 79.03407 -1.12777 0
3.404242 78.88406 -1.22777 0
3.404242 78.93407 -1.17777 0
3.454242 78.93407 -1.22777 0
3.454242 78.93407 -1.17777 0
3.404242 78.98406 -1.12777 0
3.404242 79.03407 -1.07777 0
3.454242 79.03407 -1.07777 0
3.254241 79.18407 -1.72777 0
3.154242 79.08407 -1.62777 0
3.104241 79.08407 -1.47777 0
3.254241 79.08407 -1.12777 0
3.354241 79.08407 -1.17777 0
3.354241 79.08407 -1.07777 0
2.754241 79.03407 -0.8777703 0
2.854241 78.93407 -0.9777703 0
2.804241 79.03407 -1.02777 0
2.854241 78.98406 -0.9277703 0
2.854241 79.03407 -0.8777703 0
2.954242 78.68407 -1.02777 0
3.004241 78.83407 -0.9277703 0
3.054241 78.78407 -0.8777703 0
2.904242 78.83407 -0.7277703 0
3.054241 78.78407 -0.7777703 0
2.954242 78.93407 -1.02777 0
2.904242 78.98406 -1.02777 0
2.904242 79.03407 -0.9777703 0
2.954242 78.98406 -1.02777 0
2.954242 78.98406 -0.9277703 0
2.954242 78.98406 -0.8777703 0
3.004241 78.93407 -1.02777 0
2.904242 79.03407 -0.8277704 0
2.954242 79.03407 -0.7777703 0
3.004241 78.98406 -0.8277704 0
2.904242 78.68407 -0.4777703 0
2.904242 78.78407 -0.5777703 0
2.704242 79.08407 -1.02777 0
2.754241 79.08407 -0.9777703 0
2.804241 79.13406 -0.9277703 0
2.854241 79.08407 -0.7777703 0
3.004241 79.13406 -1.02777 0
3.104241 78.78407 -0.9777703 0
3.154242 78.78407 -0.9777703 0
3.204242 78.73406 -0.9777703 0
3.154242 78.73406 -0.8277704 0
3.154242 78.68407 -0.6777703 0
3.154242 79.03407 -1.02777 0
3.254241 78.88406 -1.02777 0
3.204242 78.98406 -1.02777 0
3.104241 78.98406 -0.7777703 0
3.104241 78.98406 -0.7277703 0
3.354241 78.78407 -0.8777703 0
3.404242 78.78407 -1.02777 0
3.454242 78.73406 -0.8277704 0
3.404242 78.78407 -0.8277704 0
3.404242 78.83407 -0.7277703 0
3.404242 78.93407 -0.7277703 0
3.154242 79.08407 -0.9277703 0
3.254241 79.08407 -0.9277703 0
3.254241 79.23406 -0.8277704 0
3.304241 79.13406 -0.9277703 0
3.304241 79.23406 -0.8777703 0
3.454242 79.43407 -0.7777703 0
2.754241 79.63406 -1.27777 0
2.854241 79.63406 -1.22777 0
2.704242 79.68407 -1.27777 0
2.704242 79.73406 -1.27777 0
2.754241 79.83407 -1.17777 0
2.704242 79.83407 -1.12777 0
2.754241 79.78407 -1.12777 0
2.754241 79.83407 -1.07777 0
2.804241 79.68407 -1.22777 0
2.854241 79.73406 -1.12777 0
2.854241 79.73406 -1.07777 0
2.804241 79.78407 -1.17777 0
2.904242 79.63406 -1.12777 0
3.004241 79.63406 -1.12777 0
3.004241 79.63406 -1.07777 0
2.904242 79.73406 -1.12777 0
2.754241 79.88406 -1.07777 0
2.754241 79.93407 -1.07777 0
2.704242 79.98406 -1.07777 0
2.754241 79.83407 -1.02777 0
2.854241 79.73406 -1.02777 0
2.804241 79.78407 -1.02777 0
2.804241 79.83407 -1.02777 0
2.854241 79.83407 -1.02777 0
2.954242 79.63406 -1.02777 0
3.054241 79.63406 -0.9777703 0
2.904242 79.73406 -1.02777 0
2.954242 79.73406 -1.02777 0
2.904242 79.83407 -1.02777 0
2.954242 79.83407 -0.8777703 0
3.004241 79.68407 -1.02777 0
3.004241 79.73406 -0.8777703 0
3.004241 79.78407 -0.8777703 0
3.054241 79.78407 -0.7777703 0
2.704242 79.93407 -1.02777 0
2.754241 79.88406 -1.02777 0
2.704242 79.98406 -1.02777 0
2.754241 80.03407 -0.8777703 0
2.804241 79.88406 -1.02777 0
2.854241 79.88406 -0.9777703 0
2.854241 79.88406 -0.8777703 0
2.854241 79.93407 -0.8777703 0
2.854241 80.18407 -0.8277704 0
2.854241 80.23406 -0.8277704 0
2.954242 80.03407 -0.8277704 0
3.054241 79.93407 -0.8277704 0
3.054241 79.93407 -0.7777703 0
3.004241 79.98406 -0.8277704 0
3.004241 80.03407 -0.7777703 0
2.904242 80.13406 -0.8277704 0
2.954242 80.08407 -0.8277704 0
2.954242 80.13406 -0.8277704 0
2.954242 80.18407 -0.7277703 0
3.004241 80.08407 -0.7277703 0
3.054241 80.23406 -0.6777703 0
3.104241 79.58407 -0.9777703 0
3.154242 79.58407 -0.9777703 0
3.104241 79.63406 -0.9277703 0
3.104241 79.63406 -0.8777703 0
3.154242 79.63406 -0.8777703 0
3.204242 79.63406 -0.7777703 0
3.254241 79.63406 -0.7277703 0
3.154242 79.73406 -0.7777703 0
3.154242 79.78407 -0.7777703 0
3.204242 79.73406 -0.7777703 0
3.304241 79.53407 -0.7777703 0
3.304241 79.63406 -0.7277703 0
3.354241 79.58407 -0.7277703 0
3.404242 79.48406 -0.7777703 0
3.404242 79.63406 -0.7777703 0
3.454242 79.63406 -0.7777703 0
3.104241 79.88406 -0.7777703 0
3.154242 80.08407 -0.6777703 0
3.204242 80.23406 -0.5777703 0
3.404242 79.93407 -0.5277703 0
3.404242 79.98406 -0.5277703 0
3.304241 80.13406 -0.5277703 0
3.354241 80.08407 -0.5277703 0
3.354241 80.13406 -0.5277703 0
3.304241 80.18407 -0.5277703 0
3.504241 78.78407 -1.82777 0
3.504241 78.83407 -1.62777 0
3.504241 78.83407 -1.57777 0
3.504241 78.88406 -1.52777 0
3.504241 78.73406 -1.42777 0
3.504241 78.83407 -1.27777 0
3.504241 78.68407 -1.22777 0
3.504241 78.73406 -1.22777 0
3.604241 78.73406 -1.12777 0
3.604241 78.83407 -1.22777 0
3.604241 78.83407 -1.07777 0
3.504241 78.93407 -1.37777 0
3.504241 78.88406 -1.27777 0
3.554241 78.88406 -1.32777 0
3.554241 78.88406 -1.17777 0
3.504241 78.88406 -1.12777 0
3.504241 78.88406 -1.07777 0
3.504241 78.93407 -1.07777 0
3.554241 78.88406 -1.07777 0
3.554241 78.93407 -1.07777 0
3.604241 78.88406 -1.12777 0
3.704242 78.83407 -1.07777 0
3.504241 78.78407 -0.9277703 0
3.604241 78.78407 -1.02777 0
3.504241 78.78407 -0.8277704 0
3.554241 78.78407 -0.8277704 0
3.554241 78.78407 -0.7777703 0
3.504241 78.78407 -0.7277703 0
3.604241 78.78407 -0.8277704 0
3.654242 78.78407 -0.7777703 0
3.604241 78.78407 -0.7277703 0
3.554241 78.98406 -1.02777 0
3.604241 78.93407 -0.9777703 0
3.654242 78.88406 -1.02777 0
3.604241 78.88406 -0.9277703 0
3.654242 78.93407 -0.8777703 0
3.554241 78.98406 -0.7277703 0
3.754241 78.78407 -1.02777 0
3.804241 78.83407 -0.8777703 0
3.754241 78.78407 -0.7777703 0
3.804241 78.73406 -0.7777703 0
3.854241 78.68407 -0.7777703 0
3.804241 78.78407 -0.7277703 0
3.854241 78.83407 -0.7277703 0
3.704242 78.88406 -0.9277703 0
3.704242 78.88406 -0.8777703 0
3.754241 78.88406 -0.8777703 0
3.754241 78.88406 -0.7777703 0
3.754241 78.93407 -0.7277703 0
3.704242 78.98406 -0.7777703 0
3.804241 78.88406 -0.7777703 0
3.854241 78.88406 -0.8277704 0
3.504241 78.73406 -0.6277703 0
3.604241 78.78407 -0.5777703 0
3.654242 79.08407 -0.7777703 0
3.704242 79.08407 -0.7277703 0
3.754241 79.23406 -0.7277703 0
3.854241 79.13406 -0.6777703 0
3.804241 79.23406 -0.7777703 0
3.754241 79.28407 -0.8277704 0
3.754241 79.33407 -0.7777703 0
3.754241 79.38406 -0.7277703 0
3.804241 79.38406 -0.8277704 0
3.704242 79.08407 -0.6277703 0
3.904242 78.68407 -0.7277703 0
4.054242 78.68407 -0.6777703 0
4.004241 78.78407 -0.6777703 0
4.054242 78.83407 -0.7277703 0
3.954242 78.88406 -0.7777703 0
4.104241 78.68407 -0.6777703 0
4.254241 78.93407 -0.6777703 0
4.104241 78.88406 -0.5277703 0
4.254241 79.03407 -0.5777703 0
4.254241 79.03407 -0.4777703 0
