# .PCD v0.7 - Point Cloud Data file format
VERSION 0.7
FIELDS x y z intensity
SIZE 4 4 4 4
TYPE F F F F
COUNT 1 1 1 1
WIDTH 1591
HEIGHT 1
VIEWPOINT 0 0 0 1 0 0 0
POINTS 1591
DATA ascii
-50.29576 58.28407 -0.3777703 0
-50.29576 58.33406 -0.4277703 0
-50.24576 58.33406 -0.2777703 0
-50.29576 58.43407 -0.4277703 0
-50.89576 58.83406 -1.77777 0
-50.79576 58.83406 -1.47777 0
-50.79576 58.93407 -1.82777 0
-50.89576 58.98407 -1.62777 0
-50.79576 59.03407 -1.52777 0
-50.54576 58.78407 -1.67777 0
-50.69576 59.03407 -1.67777 0
-50.59576 58.93407 -1.82777 0
-50.69576 59.03407 -1.62777 0
-50.54576 58.88406 -1.47777 0
-50.84576 58.83406 -1.12777 0
-50.74576 58.98407 -1.42777 0
-50.79576 58.98407 -1.27777 0
-50.79576 58.93407 -1.22777 0
-50.69576 58.73407 -1.07777 0
-50.69576 58.83406 -1.12777 0
-50.59576 58.68407 -1.07777 0
-50.59576 58.78407 -1.17777 0
-50.69576 58.88406 -1.37777 0
-50.69576 58.93407 -1.27777 0
-50.54576 58.88406 -1.27777 0
-50.54576 58.93407 -1.27777 0
-50.59576 58.98407 -1.42777 0
-50.59576 58.88406 -1.17777 0
-50.89576 59.13406 -1.77777 0
-50.79576 59.08406 -1.52777 0
-50.64576 59.18407 -1.82777 0
-50.39576 58.83406 -1.67777 0
-50.44576 58.93407 -1.82777 0
-50.34576 58.93407 -1.52777 0
-50.39576 58.98407 -1.52777 0
-50.14576 58.83406 -1.52777 0
-50.24576 58.88406 -1.67777 0
-50.14576 58.88406 -1.72777 0
-50.19576 58.98407 -1.82777 0
-50.14576 58.93407 -1.52777 0
-50.19576 58.98407 -1.52777 0
-50.44576 58.83406 -1.32777 0
-50.44576 58.83406 -1.27777 0
-50.34576 58.73407 -1.37777 0
-50.34576 58.78407 -1.27777 0
-50.49576 58.73407 -1.12777 0
-50.49576 58.78407 -1.17777 0
-50.39576 58.68407 -1.17777 0
-50.34576 58.68407 -1.17777 0
-50.39576 58.68407 -1.07777 0
-50.49576 58.88406 -1.42777 0
-50.49576 58.93407 -1.42777 0
-50.44576 58.88406 -1.32777 0
-50.34576 58.88406 -1.42777 0
-50.34576 58.93407 -1.42777 0
-50.24576 58.73407 -1.42777 0
-50.24576 58.83406 -1.42777 0
-50.29576 58.78407 -1.32777 0
-50.19576 58.68407 -1.42777 0
-50.19576 58.73407 -1.32777 0
-50.19576 58.78407 -1.37777 0
-50.29576 58.73407 -1.22777 0
-50.19576 58.68407 -1.22777 0
-50.19576 58.88406 -1.42777 0
-50.49576 59.08406 -1.67777 0
-50.34576 59.18407 -1.72777 0
-50.29576 59.13406 -1.67777 0
-50.19576 59.08406 -1.77777 0
-50.14576 59.13406 -1.67777 0
-50.19576 59.18407 -1.72777 0
-50.84576 58.73407 -1.02777 0
-50.79576 58.83406 -1.02777 0
-50.74576 58.68407 -0.7777703 0
-50.74576 58.73407 -0.8277704 0
-50.74576 58.88406 -0.9777703 0
-50.59576 58.78407 -0.8777703 0
-50.54576 58.73407 -0.8277704 0
-50.89576 58.78407 -0.4277703 0
-50.69576 58.73407 -0.4777703 0
-50.64576 58.68407 -0.4777703 0
-50.64576 58.73407 -0.4777703 0
-50.59576 58.68407 -0.5277703 0
-50.39576 58.73407 -0.8277704 0
-50.34576 58.73407 -0.8277704 0
-50.24576 58.68407 -0.8277704 0
-50.49576 58.73407 -0.4777703 0
-50.04576 56.58406 -2.12777 0
-49.74576 56.78407 -2.27777 0
-50.09576 56.78407 -2.02777 0
-50.09576 56.83406 -2.02777 0
-49.99576 56.83406 -2.02777 0
-50.04576 56.98407 -1.92777 0
-49.89576 56.73407 -2.17777 0
-49.89576 56.83406 -2.07777 0
-49.79576 56.73407 -2.22777 0
-49.74576 56.78407 -2.22777 0
-49.74576 56.88406 -2.17777 0
-49.79576 56.98407 -2.07777 0
-49.89576 56.88406 -2.02777 0
-49.89576 56.93407 -2.02777 0
-49.74576 57.03407 -2.02777 0
-49.69576 56.88406 -2.27777 0
-49.64576 56.88406 -2.27777 0
-49.59576 56.93407 -2.27777 0
-49.94576 57.33406 -2.02777 0
-49.84576 57.23407 -1.97777 0
-49.74576 57.18407 -2.02777 0
-49.79576 57.43407 -2.07777 0
-49.64576 57.08406 -2.07777 0
-49.69576 57.23407 -2.07777 0
-49.59576 57.13406 -2.07777 0
-49.59576 57.23407 -2.07777 0
-49.59576 57.28407 -2.07777 0
-49.69576 57.43407 -1.87777 0
-49.59576 57.28407 -1.97777 0
-49.49576 57.33406 -2.07777 0
-49.44576 57.33406 -2.07777 0
-49.39576 57.38406 -2.07777 0
-49.59576 57.48407 -1.87777 0
-49.54576 57.58406 -1.87777 0
-49.64576 57.73407 -1.87777 0
-49.59576 57.68407 -1.87777 0
-49.59576 57.73407 -1.87777 0
-49.49576 57.53407 -1.87777 0
-49.49576 57.58406 -1.87777 0
-49.34576 57.63406 -2.02777 0
-49.39576 57.63406 -1.87777 0
-49.34576 57.78407 -2.12777 0
-49.49576 57.83406 -2.02777 0
-49.44576 57.78407 -2.02777 0
-49.39576 57.68407 -2.02777 0
-49.39576 57.83406 -2.02777 0
-49.39576 57.83406 -1.92777 0
-49.39576 57.83406 -1.87777 0
-48.79576 57.83406 -2.92777 0
-48.69576 57.78407 -2.92777 0
-48.59576 57.73407 -2.92777 0
-49.29576 57.53407 -2.02777 0
-49.29576 57.73407 -2.12777 0
-49.29576 57.83406 -2.12777 0
-50.04576 56.73407 -1.72777 0
-50.09576 56.88406 -1.62777 0
-50.04576 57.03407 -1.57777 0
-49.84576 56.93407 -1.67777 0
-49.79576 57.03407 -1.62777 0
-50.09576 57.13406 -1.82777 0
-49.99576 57.18407 -1.82777 0
-49.94576 57.23407 -1.82777 0
-49.89576 57.23407 -1.82777 0
-49.74576 57.23407 -1.47777 0
-49.84576 57.28407 -1.82777 0
-49.84576 57.33406 -1.82777 0
-49.74576 57.38406 -1.82777 0
-49.74576 57.28407 -1.47777 0
-49.74576 57.38406 -1.47777 0
-50.09576 57.08406 -1.32777 0
-50.09576 57.13406 -1.32777 0
-50.04576 57.13406 -1.32777 0
-50.04576 57.23407 -1.32777 0
-49.99576 57.28407 -1.37777 0
-49.94576 57.33406 -1.37777 0
-49.99576 57.28407 -1.32777 0
-49.94576 57.43407 -1.37777 0
-49.94576 57.43407 -1.27777 0
-49.89576 57.38406 -1.37777 0
-49.79576 57.28407 -1.42777 0
-49.79576 57.48407 -1.47777 0
-49.79576 57.53407 -1.47777 0
-49.79576 57.63406 -1.52777 0
-49.79576 57.63406 -1.47777 0
-49.74576 57.63406 -1.52777 0
-49.84576 57.83406 -1.47777 0
-49.79576 57.68407 -1.52777 0
-49.79576 57.78407 -1.52777 0
-50.04576 57.48407 -1.22777 0
-50.04576 57.58406 -1.22777 0
-50.09576 57.83406 -1.27777 0
-49.99576 57.68407 -1.32777 0
-49.94576 57.68407 -1.32777 0
-49.99576 57.83406 -1.37777 0
-50.09576 57.68407 -1.22777 0
-49.99576 57.73407 -1.22777 0
-49.89576 57.53407 -1.37777 0
-49.89576 57.63406 -1.37777 0
-49.84576 57.58406 -1.37777 0
-49.79576 57.48407 -1.42777 0
-49.74576 57.53407 -1.17777 0
-49.79576 57.48407 -1.07777 0
-49.74576 57.63406 -1.17777 0
-49.84576 57.68407 -1.37777 0
-49.89576 57.68407 -1.27777 0
-49.89576 57.83406 -1.27777 0
-49.79576 57.68407 -1.42777 0
-49.74576 57.73407 -1.42777 0
-49.74576 57.83406 -1.37777 0
-49.79576 57.83406 -1.32777 0
-49.69576 57.08406 -1.57777 0
-49.64576 57.23407 -1.52777 0
-49.69576 57.38406 -1.82777 0
-49.64576 57.33406 -1.52777 0
-49.64576 57.43407 -1.57777 0
-49.59576 57.33406 -1.62777 0
-49.59576 57.43407 -1.62777 0
-49.54576 57.38406 -1.62777 0
-49.54576 57.53407 -1.67777 0
-49.69576 57.48407 -1.57777 0
-49.64576 57.48407 -1.62777 0
-49.64576 57.53407 -1.62777 0
-49.69576 57.58406 -1.57777 0
-49.64576 57.58406 -1.62777 0
-49.69576 57.83406 -1.67777 0
-49.59576 57.68407 -1.67777 0
-49.54576 57.83406 -1.72777 0
-49.69576 57.68407 -1.57777 0
-49.69576 57.73407 -1.62777 0
-49.64576 57.68407 -1.62777 0
-49.69576 57.78407 -1.62777 0
-49.49576 57.53407 -1.67777 0
-49.44576 57.58406 -1.77777 0
-49.44576 57.63406 -1.77777 0
-49.44576 57.83406 -1.82777 0
-49.49576 57.78407 -1.72777 0
-49.39576 57.73407 -1.82777 0
-49.69576 57.83406 -1.42777 0
-50.09576 57.13406 -0.8777703 0
-50.09576 57.18407 -0.8777703 0
-50.04576 57.28407 -0.9277703 0
-50.04576 57.43407 -0.9277703 0
-49.99576 57.28407 -0.9277703 0
-49.99576 57.43407 -0.9277703 0
-49.99576 57.53407 -0.9777703 0
-49.94576 57.48407 -0.9777703 0
-49.99576 57.58406 -0.9777703 0
-49.99576 57.63406 -0.9777703 0
-50.09576 57.73407 -0.8277704 0
-49.89576 57.68407 -1.02777 0
-49.89576 57.73407 -1.02777 0
-49.84576 57.73407 -1.02777 0
-49.49576 58.18407 -3.02777 0
-49.34576 58.13406 -2.97777 0
-49.99576 58.58406 -1.97777 0
-49.74576 58.38406 -2.12777 0
-49.74576 58.38406 -2.07777 0
-49.79576 58.43407 -1.87777 0
-49.89576 58.63406 -2.12777 0
-49.84576 58.58406 -2.12777 0
-49.84576 58.63406 -2.12777 0
-49.79576 58.48407 -2.07777 0
-49.74576 58.48407 -2.07777 0
-49.89576 58.48407 -1.97777 0
-49.84576 58.63406 -1.87777 0
-49.79576 58.53407 -1.87777 0
-49.34576 58.13406 -2.27777 0
-49.39576 58.23407 -2.27777 0
-49.34576 58.18407 -2.32777 0
-49.34576 58.18407 -2.27777 0
-49.54576 58.03407 -2.12777 0
-49.54576 57.93407 -2.02777 0
-49.59576 58.03407 -2.02777 0
-49.54576 57.98407 -2.02777 0
-49.69576 58.13406 -2.07777 0
-49.64576 58.23407 -2.12777 0
-49.59576 58.13406 -2.12777 0
-49.59576 58.13406 -2.07777 0
-49.54576 58.23407 -2.22777 0
-49.64576 58.08406 -2.02777 0
-49.64576 58.23407 -1.87777 0
-49.54576 58.18407 -1.92777 0
-49.54576 58.23407 -1.92777 0
-49.44576 57.93407 -2.12777 0
-49.49576 57.98407 -2.12777 0
-49.34576 57.88406 -2.17777 0
-49.39576 57.88406 -2.12777 0
-49.39576 57.93407 -2.12777 0
-49.39576 57.98407 -2.17777 0
-49.49576 57.88406 -2.02777 0
-49.49576 57.98407 -2.02777 0
-49.44576 58.03407 -1.92777 0
-49.39576 57.88406 -1.92777 0
-49.39576 57.98407 -1.92777 0
-49.39576 57.98407 -1.87777 0
-49.44576 58.08406 -2.17777 0
-49.49576 58.18407 -2.17777 0
-49.49576 58.23407 -2.17777 0
-49.49576 58.13406 -1.92777 0
-49.44576 58.08406 -1.92777 0
-49.44576 58.08406 -1.87777 0
-49.44576 58.13406 -1.92777 0
-49.49576 58.18407 -1.92777 0
-49.44576 58.18407 -1.92777 0
-49.64576 58.63406 -2.32777 0
-49.54576 58.48407 -2.32777 0
-49.54576 58.53407 -2.32777 0
-49.54576 58.58406 -2.37777 0
-49.59576 58.58406 -2.32777 0
-49.54576 58.58406 -2.32777 0
-49.44576 58.28407 -2.27777 0
-49.44576 58.33406 -2.32777 0
-49.49576 58.38406 -2.27777 0
-49.49576 58.43407 -2.32777 0
-49.44576 58.38406 -2.32777 0
-49.34576 58.33406 -2.37777 0
-49.39576 58.28407 -2.32777 0
-49.39576 58.28407 -2.27777 0
-49.39576 58.43407 -2.37777 0
-49.44576 58.53407 -2.37777 0
-49.49576 58.48407 -2.32777 0
-49.49576 58.48407 -2.27777 0
-49.69576 58.28407 -2.07777 0
-49.69576 58.33406 -2.12777 0
-49.59576 58.33406 -2.22777 0
-49.59576 58.38406 -2.22777 0
-49.59576 58.38406 -2.17777 0
-49.54576 58.43407 -2.07777 0
-49.69576 58.33406 -1.87777 0
-49.64576 58.33406 -1.92777 0
-49.64576 58.38406 -1.97777 0
-49.64576 58.38406 -1.92777 0
-49.59576 58.28407 -1.92777 0
-49.54576 58.33406 -1.87777 0
-49.59576 58.38406 -1.97777 0
-49.54576 58.43407 -1.87777 0
-49.64576 58.48407 -2.22777 0
-49.69576 58.58406 -2.22777 0
-49.69576 58.63406 -2.22777 0
-49.54576 58.48407 -2.07777 0
-49.54576 58.53407 -2.07777 0
-49.59576 58.63406 -2.07777 0
-49.69576 58.48407 -1.97777 0
-49.69576 58.48407 -1.92777 0
-49.69576 58.63406 -1.97777 0
-49.64576 58.63406 -1.97777 0
-49.54576 58.48407 -1.87777 0
-49.59576 58.63406 -1.87777 0
-49.54576 58.58406 -1.87777 0
-49.44576 58.28407 -2.07777 0
-49.49576 58.38406 -2.07777 0
-49.44576 58.38406 -2.07777 0
-49.44576 58.43407 -2.12777 0
-49.49576 58.48407 -2.12777 0
-49.49576 58.58406 -2.12777 0
-49.94576 58.98407 -2.27777 0
-49.74576 58.83406 -2.32777 0
-49.89576 58.93407 -2.27777 0
-49.84576 58.88406 -2.27777 0
-49.89576 59.03407 -2.27777 0
-49.74576 58.88406 -2.37777 0
-49.74576 58.93407 -2.32777 0
-49.79576 59.03407 -2.37777 0
-49.74576 59.03407 -2.37777 0
-49.79576 58.98407 -2.32777 0
-50.09576 58.83406 -2.07777 0
-50.04576 58.78407 -2.07777 0
-49.99576 58.73407 -2.07777 0
-49.94576 58.68407 -2.07777 0
-49.94576 58.73407 -2.12777 0
-49.99576 58.78407 -2.12777 0
-49.94576 58.83406 -2.12777 0
-50.09576 58.68407 -1.97777 0
-50.09576 58.83406 -2.02777 0
-49.99576 58.68407 -1.97777 0
-49.94576 58.73407 -1.87777 0
-49.94576 58.83406 -1.87777 0
-50.09576 58.88406 -2.12777 0
-50.04576 58.93407 -2.12777 0
-50.09576 59.03407 -2.17777 0
-49.99576 58.93407 -2.12777 0
-50.04576 59.03407 -1.87777 0
-49.94576 58.88406 -1.87777 0
-49.94576 58.93407 -1.87777 0
-49.99576 58.98407 -1.87777 0
-49.99576 59.03407 -1.87777 0
-49.94576 58.98407 -1.87777 0
-49.89576 58.73407 -2.12777 0
-49.89576 58.78407 -2.12777 0
-49.74576 58.68407 -2.22777 0
-49.79576 58.78407 -2.22777 0
-49.74576 58.78407 -2.22777 0
-49.89576 58.73407 -1.87777 0
-49.74576 58.68407 -1.97777 0
-49.74576 58.78407 -1.97777 0
-49.79576 58.93407 -2.22777 0
-49.84576 58.88406 -1.87777 0
-49.74576 58.88406 -2.02777 0
-50.04576 59.13406 -2.27777 0
-50.09576 59.18407 -2.27777 0
-49.94576 59.13406 -2.37777 0
-49.99576 59.08406 -2.27777 0
-49.94576 59.13406 -2.32777 0
-49.94576 59.13406 -2.27777 0
-49.89576 59.08406 -2.32777 0
-49.64576 58.73407 -2.32777 0
-49.69576 58.83406 -2.37777 0
-49.64576 58.78407 -2.37777 0
-49.64576 58.83406 -2.32777 0
-49.59576 58.68407 -2.37777 0
-49.59576 58.73407 -2.32777 0
-49.69576 58.93407 -2.32777 0
-49.14576 57.98407 -2.97777 0
-49.24576 58.08406 -2.97777 0
-49.04576 57.93407 -2.97777 0
-48.89576 57.88406 -2.97777 0
-49.29576 58.03407 -2.27777 0
-49.29576 58.08406 -2.27777 0
-49.74576 58.03407 -1.67777 0
-49.84576 57.88406 -1.52777 0
-49.84576 57.98407 -1.52777 0
-49.74576 57.88406 -1.62777 0
-49.74576 57.88406 -1.52777 0
-49.74576 57.98407 -1.62777 0
-49.74576 58.13406 -1.67777 0
-49.74576 58.18407 -1.67777 0
-49.84576 58.08406 -1.57777 0
-49.84576 58.18407 -1.57777 0
-49.84576 58.18407 -1.52777 0
-49.79576 58.18407 -1.57777 0
-50.09576 57.93407 -1.27777 0
-50.04576 57.98407 -1.37777 0
-50.09576 57.98407 -1.32777 0
-49.99576 57.93407 -1.37777 0
-49.94576 58.03407 -1.37777 0
-50.09576 57.88406 -1.12777 0
-50.09576 58.03407 -1.07777 0
-50.04576 57.98407 -1.12777 0
-49.99576 58.03407 -1.12777 0
-50.09576 58.13406 -1.37777 0
-50.04576 58.08406 -1.37777 0
-50.09576 58.08406 -1.32777 0
-50.09576 58.13406 -1.32777 0
-50.09576 58.23407 -1.37777 0
-50.09576 58.18407 -1.32777 0
-49.99576 58.08406 -1.42777 0
-49.99576 58.23407 -1.42777 0
-50.04576 58.13406 -1.17777 0
-50.04576 58.08406 -1.12777 0
-49.99576 58.23407 -1.17777 0
-49.84576 57.93407 -1.27777 0
-49.79576 57.88406 -1.27777 0
-49.74576 57.98407 -1.37777 0
-49.79576 58.03407 -1.32777 0
-49.74576 57.93407 -1.07777 0
-49.74576 57.98407 -1.07777 0
-49.79576 58.08406 -1.32777 0
-49.74576 58.18407 -1.32777 0
-49.99576 58.38406 -1.47777 0
-50.04576 58.53407 -1.47777 0
-50.09576 58.63406 -1.47777 0
-50.04576 58.63406 -1.47777 0
-49.99576 58.48407 -1.47777 0
-49.94576 58.58406 -1.57777 0
-49.84576 58.28407 -1.67777 0
-49.79576 58.33406 -1.67777 0
-49.74576 58.28407 -1.67777 0
-49.74576 58.33406 -1.67777 0
-49.79576 58.43407 -1.67777 0
-49.74576 58.43407 -1.67777 0
-49.84576 58.28407 -1.57777 0
-49.84576 58.33406 -1.57777 0
-49.84576 58.38406 -1.57777 0
-49.89576 58.53407 -1.77777 0
-49.84576 58.48407 -1.77777 0
-49.84576 58.53407 -1.67777 0
-49.89576 58.63406 -1.82777 0
-49.89576 58.63406 -1.72777 0
-49.89576 58.63406 -1.67777 0
-49.74576 58.53407 -1.82777 0
-49.74576 58.53407 -1.72777 0
-49.79576 58.58406 -1.72777 0
-49.89576 58.48407 -1.57777 0
-49.84576 58.53407 -1.57777 0
-49.89576 58.63406 -1.62777 0
-49.79576 58.48407 -1.62777 0
-50.09576 58.28407 -1.37777 0
-50.09576 58.33406 -1.37777 0
-50.09576 58.38406 -1.37777 0
-49.99576 58.38406 -1.42777 0
-50.04576 58.38406 -1.07777 0
-49.94576 58.33406 -1.07777 0
-49.99576 58.38406 -1.17777 0
-49.99576 58.43407 -1.12777 0
-49.94576 58.43407 -1.12777 0
-50.09576 58.53407 -1.17777 0
-50.09576 58.48407 -1.12777 0
-50.09576 58.53407 -1.12777 0
-50.04576 58.48407 -1.12777 0
-50.09576 58.63406 -1.22777 0
-49.99576 58.48407 -1.12777 0
-49.94576 58.58406 -1.22777 0
-49.89576 58.33406 -1.17777 0
-49.84576 58.38406 -1.17777 0
-49.84576 58.43407 -1.22777 0
-49.89576 58.38406 -1.12777 0
-49.79576 58.33406 -1.12777 0
-49.79576 58.38406 -1.12777 0
-49.69576 57.93407 -1.67777 0
-49.59576 57.93407 -1.72777 0
-49.59576 58.03407 -1.72777 0
-49.54576 58.08406 -1.82777 0
-49.54576 58.08406 -1.77777 0
-49.54576 58.13406 -1.82777 0
-49.59576 58.18407 -1.77777 0
-49.54576 58.23407 -1.82777 0
-49.69576 58.08406 -1.62777 0
-49.49576 57.88406 -1.82777 0
-49.44576 57.88406 -1.77777 0
-49.49576 57.98407 -1.82777 0
-49.69576 58.28407 -1.82777 0
-49.59576 58.33406 -1.77777 0
-49.59576 58.33406 -1.67777 0
-49.59576 58.43407 -1.77777 0
-49.64576 58.63406 -1.82777 0
-49.59576 58.53407 -1.82777 0
-49.59576 58.58406 -1.82777 0
-49.94576 58.23407 -0.8777703 0
-49.94576 58.18407 -0.8277704 0
-49.84576 57.88406 -1.02777 0
-50.04576 58.33406 -0.8777703 0
-49.99576 58.33406 -0.9277703 0
-49.99576 58.48407 -1.02777 0
-50.09576 58.73407 -1.67777 0
-49.94576 58.68407 -1.82777 0
-49.94576 58.73407 -1.82777 0
-49.94576 58.73407 -1.67777 0
-49.94576 58.78407 -1.82777 0
-49.94576 58.83406 -1.82777 0
-49.99576 58.83406 -1.67777 0
-50.09576 58.73407 -1.52777 0
-50.09576 58.83406 -1.47777 0
-49.99576 58.68407 -1.62777 0
-49.94576 58.73407 -1.62777 0
-49.99576 58.78407 -1.62777 0
-50.04576 58.98407 -1.67777 0
-49.99576 58.93407 -1.82777 0
-49.99576 58.88406 -1.67777 0
-49.99576 59.03407 -1.77777 0
-49.99576 58.98407 -1.67777 0
-50.04576 58.88406 -1.62777 0
-50.09576 58.98407 -1.62777 0
-50.09576 59.03407 -1.62777 0
-49.94576 58.88406 -1.62777 0
-49.89576 58.83406 -1.67777 0
-49.84576 58.83406 -1.72777 0
-49.79576 58.73407 -1.72777 0
-49.84576 58.68407 -1.62777 0
-49.89576 58.93407 -1.72777 0
-50.04576 58.68407 -1.37777 0
-50.04576 59.08406 -1.67777 0
-48.39576 47.43407 -2.47777 0
-48.29576 47.38406 -2.47777 0
-48.14576 47.33406 -2.47777 0
-47.94576 47.23407 -2.42777 0
-48.04576 47.28407 -2.47777 0
-47.79576 47.18407 -2.42777 0
-48.49576 47.48407 -2.47777 0
-47.49576 46.73407 -2.47777 0
-47.49576 46.83406 -2.47777 0
-47.34576 46.73407 -2.47777 0
-47.39576 46.83406 -2.47777 0
-47.44576 46.93407 -2.47777 0
-47.44576 47.03407 -2.47777 0
-47.39576 46.88406 -2.47777 0
-47.39576 46.93407 -2.47777 0
-47.34576 47.03407 -2.37777 0
-47.69576 47.13406 -2.42777 0
-47.59576 47.08406 -2.42777 0
-47.54576 47.43407 -2.47777 0
-47.44576 47.13406 -2.47777 0
-47.49576 47.18407 -2.47777 0
-47.44576 47.23407 -2.47777 0
-47.44576 47.08406 -2.42777 0
-47.49576 47.28407 -2.47777 0
-47.49576 47.33406 -2.47777 0
-47.19576 46.98407 -2.37777 0
-47.09576 46.93407 -2.37777 0
-46.94576 46.93407 -2.37777 0
-47.54576 47.53407 -2.52777 0
-47.54576 47.63406 -2.52777 0
-47.54576 47.73407 -2.52777 0
-47.54576 47.83406 -2.52777 0
-47.54576 47.88406 -2.52777 0
-47.54576 47.98407 -2.52777 0
-47.54576 48.03407 -2.52777 0
-47.54576 48.08406 -2.52777 0
-47.54576 48.13406 -2.52777 0
-47.54576 48.23407 -2.52777 0
-46.94576 47.98407 -2.47777 0
-46.94576 48.03407 -2.47777 0
-47.04576 48.13406 -2.47777 0
-47.09576 48.18407 -2.52777 0
-46.99576 48.08406 -2.47777 0
-48.24576 49.43407 -2.52777 0
-48.14576 49.38406 -2.52777 0
-48.49576 49.53407 -2.57777 0
-48.34576 49.48407 -2.57777 0
-47.99576 49.33406 -2.52777 0
-47.79576 49.23407 -2.52777 0
-47.89576 49.28407 -2.52777 0
-47.54576 48.28407 -2.52777 0
-47.54576 48.33406 -2.52777 0
-47.54576 48.38406 -2.52777 0
-47.54576 48.48407 -2.52777 0
-47.49576 48.53407 -2.52777 0
-47.49576 48.63406 -2.52777 0
-47.49576 48.73407 -2.52777 0
-47.44576 48.83406 -2.52777 0
-47.44576 48.93407 -2.52777 0
-47.34576 48.88406 -2.52777 0
-47.39576 48.98407 -2.57777 0
-47.39576 49.03407 -2.57777 0
-47.14576 48.38406 -2.52777 0
-47.29576 48.63406 -2.52777 0
-47.24576 48.58406 -2.52777 0
-47.19576 48.48407 -2.52777 0
-47.09576 48.28407 -2.52777 0
-47.29576 48.68407 -2.52777 0
-47.29576 48.78407 -2.52777 0
-47.19576 49.03407 -2.47777 0
-47.04576 48.98407 -2.47777 0
-46.94576 48.93407 -2.42777 0
-47.64576 49.18407 -2.47777 0
-47.54576 49.13406 -2.47777 0
-47.44576 49.23407 -2.57777 0
-47.39576 49.08406 -2.57777 0
-47.39576 49.13406 -2.57777 0
-47.39576 49.13406 -2.47777 0
-47.44576 49.28407 -2.57777 0
-47.49576 49.38406 -2.57777 0
-47.54576 49.78407 -2.57777 0
-47.49576 49.48407 -2.57777 0
-47.49576 49.58406 -2.57777 0
-47.49576 49.68407 -2.57777 0
-47.49576 49.83406 -2.57777 0
-47.29576 49.08406 -2.47777 0
-46.84576 46.88406 -2.37777 0
-46.74576 46.88406 -2.37777 0
-46.59576 46.83406 -2.32777 0
-46.54576 47.43407 -2.42777 0
-46.49576 46.78407 -2.32777 0
-46.34576 46.73407 -2.32777 0
-46.29576 46.68407 -2.52777 0
-46.29576 46.68407 -2.47777 0
-46.24576 46.68407 -2.52777 0
-46.29576 46.83406 -2.57777 0
-46.29576 46.78407 -2.52777 0
-46.29576 46.78407 -2.47777 0
-46.24576 46.78407 -2.52777 0
-46.29576 46.68407 -2.42777 0
-46.29576 46.78407 -2.42777 0
-46.29576 46.83406 -2.42777 0
-46.29576 46.88406 -2.57777 0
-46.24576 46.93407 -2.57777 0
-46.29576 46.88406 -2.52777 0
-46.29576 46.88406 -2.47777 0
-46.29576 46.98407 -2.57777 0
-46.29576 47.03407 -2.57777 0
-46.29576 46.98407 -2.47777 0
-46.29576 47.03407 -2.52777 0
-46.19576 46.88406 -2.52777 0
-46.14576 46.88406 -2.52777 0
-46.29576 46.93407 -2.42777 0
-46.29576 46.98407 -2.42777 0
-46.34576 47.23407 -2.42777 0
-46.44576 47.33406 -2.42777 0
-46.49576 47.38406 -2.42777 0
-46.39576 47.28407 -2.42777 0
-46.29576 47.13406 -2.57777 0
-46.29576 47.13406 -2.52777 0
-46.29576 47.13406 -2.47777 0
-46.29576 47.23407 -2.57777 0
-46.29576 47.23407 -2.47777 0
-46.29576 47.08406 -2.42777 0
-46.29576 47.18407 -2.42777 0
-46.29576 47.28407 -2.57777 0
-46.29576 47.28407 -2.52777 0
-46.29576 47.33406 -2.47777 0
-46.29576 47.38406 -2.57777 0
-46.29576 47.38406 -2.52777 0
-46.84576 47.83406 -2.47777 0
-46.74576 47.68407 -2.47777 0
-46.79576 47.78407 -2.47777 0
-46.69576 47.63406 -2.47777 0
-46.64576 47.53407 -2.42777 0
-46.59576 47.48407 -2.42777 0
-46.89576 47.88406 -2.47777 0
-46.34576 47.73407 -2.47777 0
-46.29576 47.48407 -2.57777 0
-46.29576 47.48407 -2.52777 0
-46.29576 47.48407 -2.47777 0
-46.29576 47.53407 -2.47777 0
-46.29576 47.63406 -2.57777 0
-46.29576 47.58406 -2.52777 0
-46.29576 47.63406 -2.52777 0
-46.29576 47.63406 -2.47777 0
-46.29576 47.73407 -2.57777 0
-46.29576 47.68407 -2.52777 0
-46.29576 47.83406 -2.57777 0
-46.29576 47.78407 -2.52777 0
-46.29576 47.83406 -2.47777 0
-46.34576 48.03407 -2.47777 0
-46.34576 48.13406 -2.47777 0
-46.34576 48.23407 -2.47777 0
-46.29576 47.93407 -2.57777 0
-46.24576 47.88406 -2.57777 0
-46.29576 47.88406 -2.52777 0
-46.29576 47.93407 -2.47777 0
-46.29576 48.03407 -2.57777 0
-46.29576 47.98407 -2.52777 0
-46.29576 48.03407 -2.52777 0
-46.14576 47.88406 -2.57777 0
-46.29576 48.08406 -2.57777 0
-46.29576 48.13406 -2.57777 0
-46.29576 48.08406 -2.52777 0
-46.29576 48.23407 -2.57777 0
-46.29576 48.18407 -2.52777 0
-46.09576 46.83406 -2.52777 0
-46.04576 46.78407 -2.52777 0
-45.94576 46.73407 -2.52777 0
-45.89576 46.68407 -2.52777 0
-45.74576 47.18407 -2.52777 0
-45.79576 47.33406 -2.52777 0
-45.74576 47.28407 -2.52777 0
-45.79576 47.38406 -2.52777 0
-45.54576 46.78407 -2.52777 0
-45.64576 46.98407 -2.52777 0
-45.59576 46.88406 -2.52777 0
-45.59576 46.93407 -2.52777 0
-45.49576 46.73407 -2.52777 0
-45.44576 46.68407 -2.47777 0
-45.69576 47.08406 -2.52777 0
-45.34576 47.28407 -2.52777 0
-45.34576 47.33406 -2.52777 0
-45.39576 47.38406 -2.52777 0
-46.04576 47.83406 -2.57777 0
-45.94576 47.78407 -2.57777 0
-45.84576 47.48407 -2.57777 0
-45.84576 47.58406 -2.57777 0
-45.84576 47.68407 -2.57777 0
-45.84576 47.73407 -2.57777 0
-45.89576 47.78407 -2.57777 0
-45.74576 47.68407 -2.57777 0
-45.89576 47.88406 -2.57777 0
-45.89576 47.98407 -2.57777 0
-45.89576 48.08406 -2.57777 0
-45.89576 48.18407 -2.57777 0
-45.89576 48.23407 -2.57777 0
-45.79576 48.13406 -2.57777 0
-45.74576 48.08406 -2.57777 0
-45.64576 47.63406 -2.52777 0
-45.54576 47.63406 -2.52777 0
-45.69576 47.68407 -2.52777 0
-45.49576 47.63406 -2.52777 0
-45.44576 47.58406 -2.52777 0
-45.44576 47.63406 -2.52777 0
-45.39576 47.48407 -2.52777 0
-45.39576 47.58406 -2.52777 0
-45.44576 47.68407 -2.52777 0
-45.44576 47.78407 -2.52777 0
-45.34576 47.73407 -2.52777 0
-45.39576 47.78407 -2.52777 0
-45.69576 48.03407 -2.57777 0
-45.59576 47.93407 -2.57777 0
-45.54576 47.88406 -2.57777 0
-45.49576 47.88406 -2.52777 0
-45.44576 47.88406 -2.52777 0
-45.44576 47.98407 -2.52777 0
-45.44576 48.08406 -2.57777 0
-45.44576 48.18407 -2.57777 0
-46.79576 48.93407 -2.42777 0
-46.59576 48.83406 -2.42777 0
-46.69576 48.88406 -2.42777 0
-46.34576 48.33406 -2.52777 0
-46.34576 48.43407 -2.57777 0
-46.34576 48.43407 -2.52777 0
-46.34576 48.48407 -2.57777 0
-46.34576 48.53407 -2.57777 0
-46.34576 48.48407 -2.52777 0
-46.34576 48.53407 -2.52777 0
-46.34576 48.58406 -2.57777 0
-46.34576 48.63406 -2.62777 0
-46.34576 48.63406 -2.57777 0
-46.34576 48.58406 -2.52777 0
-46.34576 48.63406 -2.52777 0
-46.29576 48.33406 -2.57777 0
-46.29576 48.28407 -2.52777 0
-46.29576 48.33406 -2.47777 0
-46.29576 48.38406 -2.57777 0
-46.29576 48.38406 -2.52777 0
-46.29576 48.43407 -2.47777 0
-46.14576 48.63406 -2.62777 0
-46.34576 48.73407 -2.62777 0
-46.34576 48.68407 -2.52777 0
-46.34576 48.73407 -2.52777 0
-46.34576 48.78407 -2.62777 0
-46.34576 48.78407 -2.57777 0
-46.34576 48.78407 -2.52777 0
-46.34576 48.83406 -2.52777 0
-46.44576 48.83406 -2.42777 0
-46.34576 48.73407 -2.42777 0
-46.34576 48.93407 -2.57777 0
-46.34576 48.88406 -2.52777 0
-46.34576 48.93407 -2.52777 0
-46.34576 49.03407 -2.57777 0
-46.34576 48.98407 -2.52777 0
-46.34576 49.03407 -2.52777 0
-46.29576 48.73407 -2.62777 0
-46.24576 48.83406 -2.62777 0
-46.19576 48.73407 -2.62777 0
-46.24576 48.88406 -2.62777 0
-46.29576 48.98407 -2.62777 0
-46.29576 49.03407 -2.62777 0
-46.19576 48.98407 -2.62777 0
-46.34576 49.73407 -2.67777 0
-46.79576 49.83406 -2.57777 0
-46.54576 49.53407 -2.52777 0
-46.59576 49.63406 -2.52777 0
-46.69576 49.73407 -2.52777 0
-46.34576 49.13406 -2.62777 0
-46.34576 49.08406 -2.52777 0
-46.34576 49.13406 -2.52777 0
-46.34576 49.18407 -2.57777 0
-46.34576 49.23407 -2.62777 0
-46.34576 49.18407 -2.52777 0
-46.34576 49.23407 -2.52777 0
-46.49576 49.43407 -2.52777 0
-46.34576 49.28407 -2.62777 0
-46.34576 49.28407 -2.57777 0
-46.34576 49.33406 -2.62777 0
-46.34576 49.28407 -2.52777 0
-46.34576 49.33406 -2.52777 0
-46.34576 49.38406 -2.62777 0
-46.34576 49.38406 -2.57777 0
-46.34576 49.43407 -2.62777 0
-46.39576 49.38406 -2.52777 0
-46.34576 49.38406 -2.52777 0
-46.29576 49.08406 -2.62777 0
-46.29576 49.13406 -2.62777 0
-46.49576 49.53407 -2.52777 0
-46.34576 49.48407 -2.62777 0
-46.34576 49.53407 -2.62777 0
-46.34576 49.53407 -2.57777 0
-46.34576 49.48407 -2.52777 0
-46.34576 49.58406 -2.62777 0
-46.34576 49.63406 -2.62777 0
-46.34576 49.63406 -2.57777 0
-46.34576 49.68407 -2.62777 0
-46.34576 49.68407 -2.57777 0
-46.34576 49.73407 -2.57777 0
-46.34576 49.78407 -2.62777 0
-46.34576 49.78407 -2.57777 0
-46.34576 49.83406 -2.57777 0
-46.14576 49.83406 -2.62777 0
-46.04576 48.43407 -2.62777 0
-45.94576 48.33406 -2.57777 0
-45.94576 48.38406 -2.57777 0
-46.09576 48.53407 -2.62777 0
-46.04576 48.48407 -2.62777 0
-46.09576 48.63406 -2.62777 0
-45.84576 48.28407 -2.57777 0
-45.84576 48.38406 -2.57777 0
-45.79576 48.48407 -2.57777 0
-45.79576 48.58406 -2.57777 0
-45.74576 48.63406 -2.57777 0
-45.99576 48.83406 -2.62777 0
-46.09576 48.88406 -2.62777 0
-46.04576 48.88406 -2.62777 0
-45.84576 48.73407 -2.62777 0
-45.89576 48.78407 -2.62777 0
-45.79576 48.68407 -2.62777 0
-45.69576 48.63406 -2.57777 0
-45.54576 48.53407 -2.57777 0
-45.59576 48.58406 -2.57777 0
-45.44576 48.28407 -2.57777 0
-45.39576 48.38406 -2.57777 0
-45.34576 48.38406 -2.57777 0
-45.49576 48.48407 -2.57777 0
-45.39576 48.48407 -2.57777 0
-45.39576 48.63406 -2.57777 0
-45.34576 48.58406 -2.57777 0
-45.54576 48.93407 -2.57777 0
-45.59576 49.03407 -2.57777 0
-45.44576 48.73407 -2.57777 0
-45.49576 48.83406 -2.57777 0
-45.44576 48.78407 -2.57777 0
-45.49576 48.88406 -2.57777 0
-45.74576 49.33406 -2.62777 0
-45.74576 49.43407 -2.62777 0
-46.04576 49.83406 -2.62777 0
-45.94576 49.78407 -2.62777 0
-45.79576 49.53407 -2.62777 0
-45.79576 49.63406 -2.62777 0
-45.84576 49.73407 -2.62777 0
-45.84576 49.83406 -2.62777 0
-45.79576 49.68407 -2.62777 0
-45.74576 49.68407 -2.62777 0
-45.64576 49.13406 -2.62777 0
-45.69576 49.23407 -2.62777 0
-45.69576 49.28407 -2.62777 0
-45.34576 49.43407 -2.57777 0
-45.64576 49.68407 -2.62777 0
-45.59576 49.68407 -2.57777 0
-45.49576 49.63406 -2.57777 0
-45.44576 49.63406 -2.57777 0
-45.34576 49.53407 -2.62777 0
-45.39576 49.63406 -2.62777 0
-45.34576 49.58406 -2.57777 0
-45.39576 49.73407 -2.62777 0
-45.39576 49.78407 -2.62777 0
-45.39576 49.83406 -2.62777 0
-45.34576 49.78407 -2.62777 0
-48.24576 51.43407 -2.62777 0
-48.09576 51.38406 -2.62777 0
-47.99576 51.33406 -2.62777 0
-47.74576 51.23407 -2.57777 0
-47.89576 51.28407 -2.62777 0
-47.54576 49.88406 -2.57777 0
-47.54576 49.98407 -2.62777 0
-47.49576 50.08406 -2.62777 0
-47.49576 50.18407 -2.62777 0
-47.49576 50.28407 -2.62777 0
-47.49576 50.38406 -2.62777 0
-47.49576 50.48407 -2.62777 0
-47.49576 50.58406 -2.62777 0
-46.94576 50.08406 -2.57777 0
-46.94576 50.13406 -2.57777 0
-46.99576 50.23407 -2.57777 0
-47.14576 50.43407 -2.62777 0
-47.14576 50.53407 -2.62777 0
-47.19576 50.63406 -2.62777 0
-47.04576 50.33406 -2.57777 0
-47.09576 50.38406 -2.62777 0
-47.39576 51.23407 -2.67777 0
-47.44576 51.43407 -2.67777 0
-47.39576 51.33406 -2.67777 0
-47.44576 50.68407 -2.62777 0
-47.44576 50.78407 -2.62777 0
-47.44576 50.88406 -2.62777 0
-47.34576 50.93407 -2.62777 0
-47.39576 50.98407 -2.62777 0
-47.39576 51.03407 -2.62777 0
-47.34576 51.03407 -2.62777 0
-47.64576 51.23407 -2.57777 0
-47.49576 51.18407 -2.57777 0
-47.39576 51.08406 -2.62777 0
-47.39576 51.13406 -2.57777 0
-47.34576 51.13406 -2.62777 0
-47.39576 51.18407 -2.62777 0
-47.24576 50.73407 -2.62777 0
-47.29576 50.83406 -2.62777 0
-47.19576 50.68407 -2.62777 0
-47.29576 50.93407 -2.62777 0
-47.14576 51.03407 -2.57777 0
-47.04576 50.98407 -2.52777 0
-47.29576 51.08406 -2.57777 0
-48.44576 51.53407 -2.62777 0
-48.34576 51.48407 -2.62777 0
-47.44576 51.53407 -2.67777 0
-47.44576 51.63406 -2.67777 0
-47.44576 51.73407 -2.67777 0
-47.44576 51.83406 -2.67777 0
-47.44576 51.88406 -2.67777 0
-47.49576 51.98407 -2.67777 0
-47.49576 52.03407 -2.67777 0
-47.49576 52.08406 -2.67777 0
-47.44576 52.13406 -2.67777 0
-47.49576 52.23407 -2.67777 0
-47.44576 52.18407 -2.67777 0
-46.94576 52.13406 -2.67777 0
-46.94576 52.23407 -2.67777 0
-47.44576 52.33406 -2.72777 0
-47.44576 52.33406 -2.67777 0
-47.49576 52.38406 -2.72777 0
-47.44576 52.48407 -2.72777 0
-47.44576 52.53407 -2.72777 0
-47.44576 52.58406 -2.72777 0
-47.44576 52.63406 -2.72777 0
-47.39576 52.73407 -2.72777 0
-47.39576 52.83406 -2.72777 0
-47.39576 52.93407 -2.72777 0
-47.34576 53.03407 -2.72777 0
-47.14576 52.63406 -2.67777 0
-47.04576 52.33406 -2.67777 0
-47.04576 52.43407 -2.67777 0
-46.99576 52.28407 -2.67777 0
-47.09576 52.48407 -2.67777 0
-47.09576 52.53407 -2.67777 0
-47.24576 52.83406 -2.72777 0
-47.19576 52.68407 -2.67777 0
-47.19576 52.73407 -2.67777 0
-47.24576 52.93407 -2.72777 0
-47.29576 53.03407 -2.72777 0
-47.24576 52.98407 -2.72777 0
-46.34576 49.88406 -2.67777 0
-46.34576 49.93407 -2.67777 0
-46.34576 50.03407 -2.67777 0
-46.34576 50.08406 -2.67777 0
-46.34576 50.18407 -2.67777 0
-46.34576 50.23407 -2.67777 0
-46.24576 49.93407 -2.67777 0
-46.34576 50.28407 -2.67777 0
-46.34576 50.33406 -2.67777 0
-46.34576 50.38406 -2.67777 0
-46.34576 50.43407 -2.67777 0
-46.34576 50.53407 -2.67777 0
-46.34576 50.58406 -2.67777 0
-46.34576 50.63406 -2.67777 0
-46.89576 50.03407 -2.57777 0
-46.84576 49.98407 -2.57777 0
-46.79576 49.93407 -2.57777 0
-46.34576 49.88406 -2.62777 0
-46.34576 49.88406 -2.57777 0
-46.34576 49.98407 -2.62777 0
-46.34576 49.98407 -2.57777 0
-46.34576 50.03407 -2.62777 0
-46.34576 50.08406 -2.62777 0
-46.34576 50.13406 -2.62777 0
-46.34576 50.13406 -2.57777 0
-46.34576 50.18407 -2.62777 0
-46.19576 49.88406 -2.62777 0
-46.34576 50.28407 -2.62777 0
-46.34576 50.28407 -2.57777 0
-46.34576 50.33406 -2.57777 0
-46.34576 50.38406 -2.57777 0
-46.34576 50.43407 -2.62777 0
-46.34576 50.43407 -2.57777 0
-46.34576 50.48407 -2.62777 0
-46.34576 50.48407 -2.57777 0
-46.34576 50.53407 -2.57777 0
-46.39576 50.48407 -2.47777 0
-46.34576 50.58406 -2.62777 0
-46.34576 50.58406 -2.57777 0
-46.34576 50.63406 -2.57777 0
-46.34576 50.68407 -2.67777 0
-46.34576 50.73407 -2.72777 0
-46.34576 50.83406 -2.72777 0
-46.34576 50.83406 -2.67777 0
-46.34576 50.93407 -2.67777 0
-46.14576 50.78407 -2.72777 0
-46.24576 50.98407 -2.72777 0
-46.19576 50.88406 -2.72777 0
-46.14576 51.03407 -2.72777 0
-46.34576 51.08406 -2.67777 0
-46.34576 51.18407 -2.72777 0
-46.34576 51.18407 -2.67777 0
-46.34576 51.23407 -2.72777 0
-46.39576 51.28407 -2.67777 0
-46.39576 51.33406 -2.72777 0
-46.34576 51.28407 -2.72777 0
-46.39576 51.43407 -2.67777 0
-46.34576 51.38406 -2.72777 0
-46.34576 51.43407 -2.72777 0
-46.29576 51.08406 -2.72777 0
-46.29576 51.13406 -2.72777 0
-46.24576 51.08406 -2.72777 0
-46.29576 51.18407 -2.72777 0
-46.89576 50.98407 -2.52777 0
-46.79576 50.93407 -2.52777 0
-46.54576 50.83406 -2.52777 0
-46.69576 50.88406 -2.52777 0
-46.44576 50.83406 -2.52777 0
-46.39576 50.73407 -2.57777 0
-46.34576 50.68407 -2.62777 0
-46.34576 50.68407 -2.57777 0
-46.34576 50.73407 -2.62777 0
-46.34576 50.78407 -2.62777 0
-46.34576 50.83406 -2.62777 0
-46.34576 50.83406 -2.57777 0
-46.34576 50.88406 -2.62777 0
-46.34576 50.93407 -2.57777 0
-46.34576 50.98407 -2.62777 0
-46.34576 51.03407 -2.57777 0
-46.34576 51.08406 -2.62777 0
-46.34576 51.13406 -2.57777 0
-46.39576 51.23407 -2.57777 0
-46.34576 51.18407 -2.62777 0
-46.39576 51.33406 -2.57777 0
-46.34576 51.28407 -2.62777 0
-46.39576 51.38406 -2.57777 0
-46.39576 51.43407 -2.57777 0
-46.34576 51.38406 -2.62777 0
-45.84576 50.03407 -2.67777 0
-45.84576 50.13406 -2.67777 0
-45.84576 50.23407 -2.67777 0
-45.79576 50.23407 -2.67777 0
-45.74576 50.18407 -2.67777 0
-45.94576 50.43407 -2.67777 0
-46.04576 50.58406 -2.67777 0
-45.99576 50.48407 -2.67777 0
-45.99576 50.53407 -2.67777 0
-45.84576 50.28407 -2.67777 0
-45.89576 50.38406 -2.67777 0
-45.79576 50.33406 -2.67777 0
-45.79576 50.43407 -2.67777 0
-45.79576 50.53407 -2.67777 0
-45.74576 50.63406 -2.67777 0
-45.69576 50.13406 -2.67777 0
-45.64576 50.63406 -2.67777 0
-45.59576 50.58406 -2.67777 0
-45.49576 50.53407 -2.67777 0
-45.84576 49.93407 -2.62777 0
-45.64576 50.03407 -2.62777 0
-45.59576 49.98407 -2.62777 0
-45.64576 50.08406 -2.62777 0
-45.49576 49.93407 -2.62777 0
-45.44576 49.88406 -2.62777 0
-45.44576 49.93407 -2.62777 0
-45.44576 50.03407 -2.62777 0
-45.44576 50.13406 -2.62777 0
-45.39576 50.23407 -2.62777 0
-45.39576 50.33406 -2.62777 0
-45.39576 50.38406 -2.62777 0
-45.39576 50.43407 -2.62777 0
-45.39576 50.48407 -2.62777 0
-45.34576 50.53407 -2.62777 0
-46.09576 50.68407 -2.72777 0
-46.04576 50.68407 -2.67777 0
-45.94576 50.83406 -2.67777 0
-46.09576 50.93407 -2.72777 0
-45.99576 50.88406 -2.67777 0
-45.84576 50.73407 -2.67777 0
-45.89576 50.78407 -2.67777 0
-45.79576 50.73407 -2.67777 0
-45.69576 50.68407 -2.67777 0
-45.54576 50.98407 -2.67777 0
-45.34576 50.68407 -2.67777 0
-45.39576 50.78407 -2.67777 0
-45.49576 50.93407 -2.67777 0
-45.44576 50.88406 -2.67777 0
-45.59576 51.13406 -2.67777 0
-45.54576 51.08406 -2.67777 0
-45.59576 51.18407 -2.67777 0
-45.69576 51.33406 -2.67777 0
-45.64576 51.28407 -2.67777 0
-45.69576 51.38406 -2.72777 0
-46.89576 52.08406 -2.67777 0
-46.39576 51.48407 -2.72777 0
-46.39576 51.53407 -2.72777 0
-46.39576 51.53407 -2.67777 0
-46.39576 51.63406 -2.72777 0
-46.39576 51.63406 -2.67777 0
-46.34576 51.58406 -2.72777 0
-46.39576 51.68407 -2.67777 0
-46.39576 51.73407 -2.72777 0
-46.39576 51.73407 -2.67777 0
-46.34576 51.68407 -2.72777 0
-46.39576 51.78407 -2.77777 0
-46.39576 51.78407 -2.67777 0
-46.39576 51.83406 -2.72777 0
-46.39576 51.83406 -2.67777 0
-46.34576 51.78407 -2.67777 0
-46.34576 51.88406 -2.77777 0
-46.39576 51.88406 -2.67777 0
-46.39576 51.93407 -2.72777 0
-46.39576 51.93407 -2.67777 0
-46.39576 51.98407 -2.77777 0
-46.39576 51.98407 -2.67777 0
-46.39576 52.03407 -2.72777 0
-46.39576 52.03407 -2.67777 0
-46.34576 52.03407 -2.72777 0
-46.39576 52.08406 -2.77777 0
-46.39576 52.08406 -2.72777 0
-46.39576 52.08406 -2.67777 0
-46.39576 52.13406 -2.72777 0
-46.39576 52.13406 -2.67777 0
-46.34576 52.18407 -2.77777 0
-46.39576 52.18407 -2.72777 0
-46.39576 52.18407 -2.67777 0
-46.39576 52.23407 -2.72777 0
-46.29576 51.98407 -2.72777 0
-46.19576 51.93407 -2.72777 0
-46.74576 51.83406 -2.62777 0
-46.59576 51.63406 -2.62777 0
-46.54576 51.58406 -2.62777 0
-46.64576 51.73407 -2.62777 0
-46.84576 52.03407 -2.62777 0
-46.79576 51.93407 -2.62777 0
-46.79576 51.98407 -2.62777 0
-46.44576 51.53407 -2.62777 0
-46.39576 51.48407 -2.62777 0
-46.39576 51.63406 -2.62777 0
-46.39576 51.68407 -2.62777 0
-46.39576 52.28407 -2.77777 0
-46.39576 52.28407 -2.72777 0
-46.39576 52.28407 -2.67777 0
-46.39576 52.33406 -2.72777 0
-46.39576 52.38406 -2.77777 0
-46.39576 52.38406 -2.67777 0
-46.39576 52.43407 -2.72777 0
-46.39576 52.43407 -2.67777 0
-46.39576 52.48407 -2.77777 0
-46.39576 52.48407 -2.67777 0
-46.39576 52.53407 -2.72777 0
-46.39576 52.53407 -2.67777 0
-46.39576 52.58406 -2.77777 0
-46.39576 52.58406 -2.72777 0
-46.39576 52.58406 -2.67777 0
-46.39576 52.63406 -2.72777 0
-46.39576 52.68407 -2.77777 0
-46.39576 52.68407 -2.67777 0
-46.39576 52.73407 -2.72777 0
-46.39576 52.73407 -2.67777 0
-46.34576 52.78407 -2.77777 0
-46.34576 52.83406 -2.82777 0
-46.39576 52.78407 -2.72777 0
-46.39576 52.83406 -2.72777 0
-46.39576 52.83406 -2.67777 0
-46.34576 52.88406 -2.82777 0
-46.39576 52.88406 -2.72777 0
-46.39576 52.93407 -2.72777 0
-46.39576 52.98407 -2.72777 0
-46.39576 52.98407 -2.67777 0
-46.39576 53.03407 -2.72777 0
-46.39576 53.03407 -2.67777 0
-46.19576 52.93407 -2.77777 0
-46.14576 52.88406 -2.77777 0
-46.19576 53.03407 -2.77777 0
-46.14576 53.03407 -2.77777 0
-46.44576 52.83406 -2.57777 0
-45.74576 51.48407 -2.72777 0
-45.74576 51.58406 -2.72777 0
-45.89576 51.83406 -2.67777 0
-45.79576 51.68407 -2.72777 0
-45.74576 51.68407 -2.72777 0
-45.79576 51.78407 -2.72777 0
-45.79576 51.78407 -2.67777 0
-46.09576 51.88406 -2.72777 0
-45.99576 51.88406 -2.72777 0
-45.79576 51.88406 -2.72777 0
-45.79576 51.98407 -2.72777 0
-45.79576 52.08406 -2.72777 0
-45.79576 52.18407 -2.72777 0
-45.69576 51.78407 -2.67777 0
-45.59576 51.73407 -2.67777 0
-45.54576 51.73407 -2.67777 0
-45.34576 51.58406 -2.67777 0
-45.49576 51.68407 -2.67777 0
-45.39576 51.68407 -2.67777 0
-45.34576 51.68407 -2.67777 0
-45.39576 51.78407 -2.72777 0
-45.34576 51.78407 -2.67777 0
-45.54576 51.98407 -2.72777 0
-45.54576 52.03407 -2.72777 0
-45.64576 52.13406 -2.72777 0
-45.69576 52.18407 -2.72777 0
-45.69576 52.23407 -2.72777 0
-45.44576 51.93407 -2.72777 0
-45.49576 51.98407 -2.72777 0
-45.39576 51.88406 -2.72777 0
-45.34576 51.88406 -2.72777 0
-45.34576 51.93407 -2.72777 0
-45.39576 51.98407 -2.72777 0
-45.39576 52.08406 -2.72777 0
-45.39576 52.18407 -2.72777 0
-45.94576 52.48407 -2.77777 0
-45.99576 52.63406 -2.77777 0
-45.89576 52.43407 -2.77777 0
-45.84576 52.38406 -2.77777 0
-45.79576 52.28407 -2.72777 0
-45.79576 52.33406 -2.72777 0
-45.74576 52.28407 -2.72777 0
-45.74576 52.38406 -2.72777 0
-45.74576 52.48407 -2.77777 0
-45.74576 52.53407 -2.77777 0
-45.74576 52.58406 -2.77777 0
-46.09576 52.73407 -2.77777 0
-46.04576 52.68407 -2.77777 0
-46.09576 52.83406 -2.77777 0
-45.94576 52.83406 -2.77777 0
-46.04576 52.93407 -2.77777 0
-45.99576 52.88406 -2.77777 0
-45.84576 52.83406 -2.77777 0
-45.74576 52.73407 -2.77777 0
-45.79576 52.78407 -2.77777 0
-45.59576 52.63406 -2.72777 0
-45.54576 52.58406 -2.72777 0
-45.39576 52.28407 -2.72777 0
-45.34576 52.38406 -2.72777 0
-45.44576 52.53407 -2.72777 0
-45.34576 52.48407 -2.72777 0
-45.69576 52.68407 -2.77777 0
-45.64576 52.68407 -2.72777 0
-45.39576 52.83406 -2.72777 0
-45.34576 52.78407 -2.72777 0
-45.44576 52.93407 -2.72777 0
-45.49576 52.98407 -2.77777 0
-45.39576 52.88406 -2.72777 0
-45.19576 46.98407 -2.47777 0
-45.14576 46.98407 -2.47777 0
-45.04576 46.78407 -2.47777 0
-45.09576 46.88406 -2.47777 0
-45.24576 47.08406 -2.52777 0
-45.29576 47.18407 -2.52777 0
-45.24576 47.18407 -2.52777 0
-45.09576 47.43407 -2.52777 0
-45.04576 47.38406 -2.52777 0
-45.29576 47.53407 -2.52777 0
-45.24576 47.63406 -2.52777 0
-45.14576 47.53407 -2.52777 0
-45.14576 47.58406 -2.52777 0
-45.14576 47.68407 -2.52777 0
-45.14576 47.73407 -2.52777 0
-45.14576 47.78407 -2.52777 0
-45.09576 47.48407 -2.52777 0
-45.09576 47.53407 -2.52777 0
-45.04576 47.48407 -2.52777 0
-45.04576 47.53407 -2.52777 0
-45.19576 47.88406 -2.52777 0
-45.19576 47.98407 -2.52777 0
-45.19576 48.08406 -2.52777 0
-45.14576 48.18407 -2.52777 0
-45.24576 48.38406 -2.57777 0
-45.14576 48.28407 -2.52777 0
-45.14576 48.33406 -2.52777 0
-45.19576 48.43407 -2.52777 0
-45.14576 48.38406 -2.52777 0
-45.29576 48.53407 -2.57777 0
-45.24576 48.48407 -2.57777 0
-45.09576 48.33406 -2.52777 0
-45.04576 48.28407 -2.52777 0
-45.09576 48.43407 -2.52777 0
-45.14576 49.03407 -2.57777 0
-45.04576 48.88406 -2.57777 0
-45.04576 48.93407 -2.57777 0
-45.09576 48.98407 -2.57777 0
-45.24576 49.23407 -2.57777 0
-45.19576 49.13406 -2.57777 0
-45.19576 49.18407 -2.57777 0
-45.29576 49.33406 -2.57777 0
-45.29576 49.43407 -2.57777 0
-45.04576 49.43407 -2.57777 0
-45.24576 49.53407 -2.57777 0
-45.14576 49.53407 -2.57777 0
-45.29576 49.73407 -2.62777 0
-45.19576 49.68407 -2.62777 0
-45.14576 49.83406 -2.62777 0
-45.04576 49.48407 -2.57777 0
-45.04576 49.53407 -2.57777 0
-45.09576 49.63406 -2.57777 0
-45.04576 49.58406 -2.57777 0
-45.09576 49.73407 -2.57777 0
-45.14576 49.93407 -2.62777 0
-45.14576 50.03407 -2.62777 0
-45.14576 50.13406 -2.62777 0
-45.14576 50.23407 -2.62777 0
-45.29576 50.43407 -2.62777 0
-45.19576 50.38406 -2.62777 0
-45.29576 50.63406 -2.62777 0
-45.24576 50.58406 -2.62777 0
-45.19576 50.53407 -2.62777 0
-45.14576 50.48407 -2.62777 0
-45.09576 50.33406 -2.62777 0
-45.09576 50.43407 -2.62777 0
-45.04576 50.38406 -2.62777 0
-45.04576 50.48407 -2.62777 0
-45.19576 51.23407 -2.67777 0
-45.14576 51.18407 -2.67777 0
-45.24576 51.38406 -2.67777 0
-45.24576 51.43407 -2.67777 0
-45.19576 51.28407 -2.67777 0
-45.09576 51.08406 -2.67777 0
-45.04576 50.98407 -2.62777 0
-45.04576 51.03407 -2.62777 0
-45.29576 51.48407 -2.67777 0
-45.29576 51.63406 -2.67777 0
-45.29576 51.83406 -2.67777 0
-45.24576 51.78407 -2.67777 0
-45.14576 51.68407 -2.67777 0
-45.09576 51.63406 -2.67777 0
-45.04576 51.63406 -2.67777 0
-45.09576 51.78407 -2.67777 0
-45.04576 51.78407 -2.67777 0
-45.09576 51.88406 -2.67777 0
-45.09576 51.93407 -2.67777 0
-45.09576 52.03407 -2.67777 0
-45.09576 52.13406 -2.67777 0
-45.09576 52.23407 -2.72777 0
-45.19576 51.63406 -2.62777 0
-45.09576 51.58406 -2.62777 0
-45.24576 52.43407 -2.72777 0
-45.14576 52.38406 -2.72777 0
-45.29576 52.58406 -2.72777 0
-45.14576 52.53407 -2.72777 0
-45.19576 52.58406 -2.72777 0
-45.09576 52.38406 -2.72777 0
-45.04576 52.38406 -2.67777 0
-45.04576 52.43407 -2.72777 0
-45.09576 52.48407 -2.72777 0
-45.04576 52.48407 -2.72777 0
-45.04576 52.53407 -2.72777 0
-45.29576 52.68407 -2.72777 0
-45.24576 52.68407 -2.72777 0
-48.04576 53.83406 -2.72777 0
-47.94576 53.78407 -2.72777 0
-48.49576 54.03407 -2.77777 0
-48.39576 53.98407 -2.72777 0
-48.29576 53.93407 -2.72777 0
-48.14576 53.88406 -2.72777 0
-47.34576 53.13406 -2.72777 0
-47.34576 53.23407 -2.72777 0
-47.39576 53.33406 -2.72777 0
-47.34576 53.28407 -2.72777 0
-47.59576 53.63406 -2.67777 0
-47.69576 53.68407 -2.67777 0
-47.49576 53.58406 -2.67777 0
-47.39576 53.48407 -2.72777 0
-47.39576 53.58406 -2.72777 0
-47.39576 53.58406 -2.67777 0
-47.39576 53.63406 -2.72777 0
-47.44576 53.73407 -2.77777 0
-47.44576 53.83406 -2.77777 0
-47.29576 53.13406 -2.72777 0
-47.24576 53.53407 -2.67777 0
-47.14576 53.48407 -2.67777 0
-47.04576 53.43407 -2.62777 0
-47.44576 53.98407 -2.77777 0
-47.44576 54.08406 -2.77777 0
-47.44576 54.13406 -2.77777 0
-47.44576 54.23407 -2.77777 0
-47.44576 54.38406 -2.77777 0
-47.39576 54.43407 -2.77777 0
-47.39576 54.53407 -2.77777 0
-47.39576 54.63406 -2.77777 0
-47.14576 54.63406 -2.77777 0
-46.94576 54.28407 -2.72777 0
-46.99576 54.38406 -2.77777 0
-47.09576 54.48407 -2.77777 0
-47.09576 54.58406 -2.77777 0
-48.04576 55.43407 -2.77777 0
-47.89576 55.38406 -2.77777 0
-47.79576 55.33406 -2.77777 0
-48.49576 55.63406 -2.82777 0
-48.39576 55.58406 -2.82777 0
-48.24576 55.53407 -2.82777 0
-48.14576 55.48407 -2.77777 0
-47.39576 54.73407 -2.77777 0
-47.34576 54.83406 -2.77777 0
-47.34576 54.93407 -2.77777 0
-47.34576 55.03407 -2.82777 0
-47.54576 55.23407 -2.77777 0
-47.69576 55.28407 -2.77777 0
-47.44576 55.18407 -2.72777 0
-47.34576 55.18407 -2.72777 0
-47.34576 55.28407 -2.82777 0
-47.39576 55.38406 -2.82777 0
-47.24576 54.83406 -2.77777 0
-47.14576 54.68407 -2.77777 0
-47.19576 54.78407 -2.77777 0
-47.24576 54.93407 -2.77777 0
-47.24576 54.98407 -2.77777 0
-46.94576 55.03407 -2.72777 0
-47.29576 55.08406 -2.82777 0
-47.29576 55.13406 -2.82777 0
-47.29576 55.18407 -2.82777 0
-47.29576 55.23407 -2.82777 0
-47.19576 55.13406 -2.72777 0
-47.34576 55.48407 -2.82777 0
-47.39576 55.58406 -2.82777 0
-47.39576 55.68407 -2.82777 0
-47.39576 55.73407 -2.82777 0
-47.39576 55.83406 -2.82777 0
-47.44576 55.98407 -2.87777 0
-47.39576 55.88406 -2.82777 0
-47.44576 56.08406 -2.87777 0
-47.44576 56.18407 -2.87777 0
-46.54576 53.63406 -2.67777 0
-46.64576 53.78407 -2.72777 0
-46.59576 53.68407 -2.67777 0
-46.39576 53.08406 -2.72777 0
-46.39576 53.13406 -2.72777 0
-46.34576 53.23407 -2.82777 0
-46.39576 53.18407 -2.67777 0
-46.39576 53.23407 -2.72777 0
-46.39576 53.23407 -2.67777 0
-46.39576 53.28407 -2.82777 0
-46.39576 53.33406 -2.72777 0
-46.39576 53.38406 -2.82777 0
-46.39576 53.43407 -2.82777 0
-46.34576 53.38406 -2.82777 0
-46.39576 53.38406 -2.67777 0
-46.39576 53.43407 -2.72777 0
-46.24576 53.13406 -2.82777 0
-46.29576 53.18407 -2.82777 0
-46.29576 53.23407 -2.82777 0
-46.19576 53.08406 -2.77777 0
-46.29576 53.33406 -2.82777 0
-46.44576 53.53407 -2.67777 0
-46.49576 53.58406 -2.67777 0
-46.39576 53.53407 -2.82777 0
-46.34576 53.48407 -2.82777 0
-46.34576 53.53407 -2.82777 0
-46.39576 53.48407 -2.72777 0
-46.39576 53.48407 -2.67777 0
-46.39576 53.53407 -2.72777 0
-46.39576 53.63406 -2.82777 0
-46.39576 53.63406 -2.72777 0
-46.44576 53.73407 -2.72777 0
-46.39576 53.73407 -2.82777 0
-46.39576 53.73407 -2.72777 0
-46.39576 53.83406 -2.82777 0
-46.39576 53.83406 -2.72777 0
-46.89576 53.43407 -2.62777 0
-46.79576 53.38406 -2.62777 0
-46.69576 53.33406 -2.62777 0
-46.54576 53.28407 -2.62777 0
-46.44576 53.28407 -2.62777 0
-46.84576 54.03407 -2.72777 0
-46.79576 53.98407 -2.72777 0
-46.89576 54.08406 -2.72777 0
-46.89576 54.18407 -2.72777 0
-46.69576 53.88406 -2.72777 0
-46.44576 54.03407 -2.87777 0
-46.39576 53.93407 -2.87777 0
-46.39576 53.93407 -2.82777 0
-46.39576 53.93407 -2.72777 0
-46.39576 54.03407 -2.82777 0
-46.39576 54.03407 -2.77777 0
-46.34576 54.03407 -2.82777 0
-46.39576 54.13406 -2.87777 0
-46.39576 54.23407 -2.87777 0
-46.44576 54.08406 -2.72777 0
-46.44576 54.18407 -2.82777 0
-46.44576 54.23407 -2.82777 0
-46.44576 54.23407 -2.77777 0
-46.44576 54.23407 -2.72777 0
-46.39576 54.08406 -2.82777 0
-46.39576 54.13406 -2.82777 0
-46.39576 54.13406 -2.77777 0
-46.39576 54.23407 -2.77777 0
-46.24576 54.03407 -2.82777 0
-46.14576 53.98407 -2.82777 0
-46.39576 54.33406 -2.87777 0
-46.39576 54.43407 -2.87777 0
-46.44576 54.28407 -2.77777 0
-46.44576 54.33406 -2.82777 0
-46.44576 54.38406 -2.77777 0
-46.44576 54.43407 -2.82777 0
-46.39576 54.33406 -2.77777 0
-46.39576 54.43407 -2.77777 0
-46.39576 54.53407 -2.87777 0
-46.34576 54.63406 -2.87777 0
-46.44576 54.48407 -2.82777 0
-46.44576 54.48407 -2.77777 0
-46.44576 54.53407 -2.82777 0
-46.44576 54.53407 -2.77777 0
-46.44576 54.48407 -2.67777 0
-46.44576 54.58406 -2.77777 0
-46.44576 54.63406 -2.82777 0
-46.44576 54.63406 -2.77777 0
-45.74576 53.68407 -2.77777 0
-45.74576 53.83406 -2.82777 0
-45.74576 53.83406 -2.77777 0
-45.54576 53.08406 -2.77777 0
-45.54576 53.13406 -2.77777 0
-45.59576 53.18407 -2.77777 0
-45.64576 53.28407 -2.77777 0
-45.64576 53.38406 -2.77777 0
-45.64576 53.43407 -2.77777 0
-45.69576 53.48407 -2.77777 0
-45.69576 53.58406 -2.77777 0
-45.64576 53.78407 -2.77777 0
-45.59576 53.78407 -2.77777 0
-45.49576 53.73407 -2.77777 0
-45.44576 53.73407 -2.77777 0
-45.34576 53.73407 -2.72777 0
-46.04576 53.93407 -2.77777 0
-45.94576 53.93407 -2.77777 0
-45.84576 53.88406 -2.77777 0
-45.74576 53.88406 -2.82777 0
-45.74576 53.98407 -2.82777 0
-45.74576 54.08406 -2.82777 0
-45.74576 54.18407 -2.82777 0
-45.99576 54.63406 -2.87777 0
-45.94576 54.58406 -2.82777 0
-45.84576 54.43407 -2.82777 0
-45.79576 54.33406 -2.82777 0
-45.74576 54.28407 -2.82777 0
-45.79576 54.38406 -2.82777 0
-45.74576 54.38406 -2.82777 0
-45.89576 54.53407 -2.82777 0
-45.74576 54.48407 -2.82777 0
-45.69576 54.23407 -2.82777 0
-45.59576 54.13406 -2.82777 0
-45.49576 54.03407 -2.77777 0
-45.44576 53.98407 -2.77777 0
-45.39576 53.93407 -2.77777 0
-45.34576 53.88406 -2.77777 0
-45.34576 53.98407 -2.77777 0
-45.34576 54.08406 -2.77777 0
-45.34576 54.18407 -2.77777 0
-45.69576 54.58406 -2.82777 0
-45.34576 54.28407 -2.82777 0
-45.34576 54.38406 -2.82777 0
