# .PCD v0.7 - Point Cloud Data file format
VERSION 0.7
FIELDS x y z intensity
SIZE 4 4 4 4
TYPE F F F F
COUNT 1 1 1 1
WIDTH 1549
HEIGHT 1
VIEWPOINT 0 0 0 1 0 0 0
POINTS 1549
DATA ascii
-51.04576 10.78407 -0.6277703 0
-51.04576 10.83406 -0.5777703 0
-51.04576 10.68406 -0.4277703 0
-51.04576 10.73407 -0.3777703 0
-51.09576 10.78407 -0.2777703 0
-51.04576 10.78407 -0.3277703 0
-51.04576 10.93406 -0.6277703 0
-51.04576 10.93406 -0.4777703 0
-51.04576 11.03407 -0.5777703 0
-51.04576 10.88406 -0.3777703 0
-51.04576 10.88406 -0.2777703 0
-51.04576 10.93406 -0.3277703 0
-51.04576 10.93406 -0.2777703 0
-51.04576 10.98407 -0.3777703 0
-51.04576 11.03407 -0.3277703 0
-51.24576 11.23407 -1.02777 0
-51.19576 11.18406 -0.9777703 0
-51.14576 11.18406 -0.9277703 0
-51.24576 11.23407 -0.6777703 0
-51.19576 11.18406 -0.8277704 0
-51.19576 11.18406 -0.7277703 0
-51.14576 11.18406 -0.6777703 0
-51.29576 11.28407 -1.02777 0
-51.24576 11.28407 -0.9277703 0
-51.24576 11.28407 -0.7777703 0
-51.29576 11.28407 -0.7277703 0
-51.04576 11.08406 -1.02777 0
-51.04576 11.18406 -1.02777 0
-51.04576 11.18406 -0.9777703 0
-50.99576 11.18406 -0.9277703 0
-51.04576 11.08406 -0.7777703 0
-51.04576 11.08406 -0.6777703 0
-51.04576 11.13406 -0.7277703 0
-51.04576 11.18406 -0.8277704 0
-51.04576 11.23407 -0.7777703 0
-51.09576 11.18406 -0.6777703 0
-50.99576 11.08406 -0.6777703 0
-51.19576 11.13406 -0.5777703 0
-51.19576 11.23407 -0.5777703 0
-51.19576 11.23407 -0.4777703 0
-51.29576 11.23407 -0.2777703 0
-51.19576 11.18406 -0.3777703 0
-51.19576 11.23407 -0.3277703 0
-51.29576 11.28407 -0.4777703 0
-51.29576 11.28407 -0.3777703 0
-51.24576 11.28407 -0.3777703 0
-51.04576 11.08406 -0.5777703 0
-51.04576 11.13406 -0.4777703 0
-51.04576 11.23407 -0.5777703 0
-51.04576 11.08406 -0.3777703 0
-51.04576 11.13406 -0.3777703 0
-51.09576 11.08406 -0.2777703 0
-51.04576 11.23407 -0.4277703 0
-51.09576 11.18406 -0.2777703 0
-51.04576 11.18406 -0.3277703 0
-48.59576 9.284065 -1.62777 0
-48.59576 11.18406 -1.62777 0
-51.34576 11.48407 -1.82777 0
-51.34576 11.53407 -1.82777 0
-51.64576 11.63406 -1.07777 0
-51.24576 11.58406 -1.82777 0
-51.19576 11.48407 -1.82777 0
-51.19576 11.53407 -1.82777 0
-51.54576 11.68406 -1.02777 0
-51.64576 11.83406 -0.3777703 0
-51.64576 11.93406 -0.3277703 0
-51.59576 11.98407 -0.3777703 0
-51.54576 12.03407 -0.3777703 0
-51.54576 12.13406 -0.4277703 0
-51.59576 12.18406 -0.2777703 0
-51.49576 12.13406 -0.3777703 0
-51.49576 12.13406 -0.3277703 0
-51.49576 12.23407 -0.4277703 0
-51.24576 12.13406 -0.7777703 0
-51.24576 12.23407 -0.7777703 0
-51.29576 12.18406 -0.7277703 0
-51.34576 12.28407 -0.6777703 0
-51.64576 12.58406 -0.3777703 0
-51.39576 12.28407 -0.4277703 0
-51.39576 12.33406 -0.4277703 0
-51.39576 12.33406 -0.3777703 0
-51.34576 12.43406 -0.4277703 0
-51.39576 12.53407 -0.3777703 0
-51.34576 12.48407 -0.4277703 0
-51.39576 12.53407 -0.3277703 0
-51.59576 12.68406 -0.4277703 0
-51.54576 12.78407 -0.3777703 0
-51.49576 12.83406 -0.4277703 0
-51.49576 12.93406 -0.4277703 0
-51.44576 12.93406 -0.4277703 0
-51.24576 12.28407 -0.7777703 0
-51.24576 12.33406 -0.7777703 0
-51.24576 12.28407 -0.7277703 0
-51.24576 12.38406 -0.7777703 0
-51.24576 12.43406 -0.7277703 0
-51.24576 12.48407 -0.7777703 0
-51.24576 12.53407 -0.7777703 0
-51.29576 12.48407 -0.6777703 0
-51.19576 12.48407 -0.7777703 0
-51.19576 12.63406 -0.7777703 0
-51.14576 12.58406 -0.7777703 0
-51.14576 12.63406 -0.7277703 0
-50.99576 12.63406 -0.8777703 0
-51.29576 12.63406 -0.3777703 0
-51.19576 12.63406 -0.3777703 0
-51.14576 12.63406 -0.4277703 0
-51.14576 12.73407 -0.7777703 0
-51.19576 12.68406 -0.7277703 0
-51.14576 12.83406 -0.7777703 0
-51.09576 12.73407 -0.7777703 0
-51.09576 12.78407 -0.7777703 0
-51.04576 12.83406 -0.7777703 0
-51.04576 12.93406 -0.7777703 0
-51.09576 12.93406 -0.7277703 0
-50.99576 12.98407 -0.7777703 0
-51.24576 12.83406 -0.6277703 0
-51.19576 12.73407 -0.4277703 0
-50.99576 12.78407 -0.4777703 0
-51.09576 12.83406 -0.4277703 0
-51.09576 13.03407 -0.2777703 0
-50.94576 13.03407 -0.3277703 0
-50.79576 12.68406 -1.12777 0
-50.79576 12.78407 -1.12777 0
-51.44576 13.08406 -0.4277703 0
-51.34576 13.33406 -0.2777703 0
-51.39576 13.38406 -0.2777703 0
-51.69576 13.83406 -0.7777703 0
-51.54576 13.83406 -0.7777703 0
-51.34576 13.83406 -0.8777703 0
-51.49576 13.73407 -0.7777703 0
-51.44576 13.73407 -0.7777703 0
-51.49576 13.78407 -0.8277704 0
-51.39576 13.68406 -0.7777703 0
-51.39576 13.73407 -0.7777703 0
-51.34576 13.73407 -0.8277704 0
-51.54576 13.58406 -0.3277703 0
-51.59576 13.83406 -0.4777703 0
-51.54576 13.78407 -0.4777703 0
-51.69576 13.73407 -0.3277703 0
-51.64576 13.68406 -0.3277703 0
-51.54576 13.73407 -0.4277703 0
-51.59576 13.78407 -0.4277703 0
-51.39576 13.63406 -0.4777703 0
-51.49576 13.48407 -0.2777703 0
-51.49576 13.63406 -0.4277703 0
-51.49576 13.63406 -0.3777703 0
-51.39576 13.53407 -0.4277703 0
-51.39576 13.53407 -0.3777703 0
-51.34576 13.48407 -0.4277703 0
-51.49576 13.73407 -0.4777703 0
-51.44576 13.68406 -0.4777703 0
-51.39576 13.83406 -0.5777703 0
-51.04576 13.13406 -0.7277703 0
-51.09576 13.18406 -0.6777703 0
-50.99576 13.08406 -0.7777703 0
-50.94576 13.18406 -0.8277704 0
-50.94576 13.18406 -0.7777703 0
-51.04576 13.28407 -0.7777703 0
-51.04576 13.43406 -0.7777703 0
-51.04576 13.43406 -0.6777703 0
-50.99576 13.28407 -0.8277704 0
-50.99576 13.33406 -0.7777703 0
-50.99576 13.38406 -0.8277704 0
-50.99576 13.43406 -0.7777703 0
-50.94576 13.43406 -0.7277703 0
-51.24576 13.23407 -0.2777703 0
-51.14576 13.13406 -0.2777703 0
-51.19576 13.43406 -0.4777703 0
-51.24576 13.38406 -0.3777703 0
-51.29576 13.43406 -0.3277703 0
-51.19576 13.33406 -0.3777703 0
-51.19576 13.28407 -0.3277703 0
-51.09576 13.23407 -0.3777703 0
-51.04576 13.18406 -0.3777703 0
-51.04576 13.18406 -0.3277703 0
-50.94576 13.08406 -0.3777703 0
-51.04576 13.28407 -0.4777703 0
-51.09576 13.38406 -0.4777703 0
-51.04576 13.38406 -0.5277703 0
-50.99576 13.28407 -0.4777703 0
-51.24576 13.53407 -0.6777703 0
-51.29576 13.63406 -0.7777703 0
-51.24576 13.63406 -0.7277703 0
-51.14576 13.48407 -0.6777703 0
-51.19576 13.63406 -0.7777703 0
-51.14576 13.58406 -0.7777703 0
-51.19576 13.78407 -0.8777703 0
-51.29576 13.73407 -0.7777703 0
-51.14576 13.68406 -0.8277704 0
-51.14576 13.83406 -0.7277703 0
-51.04576 13.53407 -0.7777703 0
-51.09576 13.53407 -0.7277703 0
-51.09576 13.58406 -0.7777703 0
-50.94576 13.53407 -0.8277704 0
-50.99576 13.58406 -0.8277704 0
-50.94576 13.63406 -0.8277704 0
-51.09576 13.68406 -0.8777703 0
-51.29576 13.53407 -0.4777703 0
-51.19576 13.48407 -0.4777703 0
-51.19576 13.63406 -0.5277703 0
-51.29576 13.68406 -0.5277703 0
-51.09576 13.48407 -0.5277703 0
-51.54576 14.18406 -1.12777 0
-51.54576 14.23407 -1.12777 0
-51.44576 14.13406 -1.12777 0
-51.49576 14.18406 -1.12777 0
-51.44576 14.18406 -1.12777 0
-51.34576 14.08406 -1.12777 0
-51.34576 14.08406 -1.07777 0
-51.34576 14.13406 -1.12777 0
-51.64576 14.28407 -1.17777 0
-51.69576 14.33406 -1.12777 0
-51.64576 14.28407 -1.12777 0
-51.24576 14.03407 -1.12777 0
-51.24576 14.03407 -1.07777 0
-51.59576 13.98407 -0.7277703 0
-51.69576 14.13406 -0.7777703 0
-51.64576 14.13406 -0.8277704 0
-51.59576 14.08406 -0.8277704 0
-51.59576 14.08406 -0.7777703 0
-51.39576 13.98407 -0.9777703 0
-51.44576 14.03407 -0.7777703 0
-51.49576 13.98407 -0.7277703 0
-51.34576 13.93406 -0.7277703 0
-51.39576 14.03407 -0.8277704 0
-51.34576 13.98407 -0.7777703 0
-51.34576 14.03407 -0.8277704 0
-51.49576 14.08406 -0.8277704 0
-51.64576 13.88406 -0.4777703 0
-51.69576 13.98407 -0.4777703 0
-51.69576 13.88406 -0.4277703 0
-51.49576 13.88406 -0.5777703 0
-51.29576 13.93406 -0.9777703 0
-51.14576 13.88406 -0.9777703 0
-51.24576 13.88406 -0.7277703 0
-48.54576 12.68406 -1.67777 0
-48.59576 14.58406 -1.67777 0
-50.94576 14.88406 -1.77777 0
-50.94576 14.88406 -1.47777 0
-50.99576 14.88406 -1.17777 0
-50.99576 14.88406 -0.8777703 0
-51.04576 14.88406 -0.5777703 0
-48.14576 9.034065 -1.62777 0
-47.99576 8.984065 -1.62777 0
-47.89576 8.934065 -1.57777 0
-47.79576 8.884065 -1.57777 0
-48.49576 9.184065 -1.62777 0
-48.34576 9.134065 -1.62777 0
-48.24576 9.084064 -1.62777 0
-47.54576 8.834064 -1.57777 0
-47.64576 8.884065 -1.57777 0
-47.44576 8.784065 -1.57777 0
-47.09576 8.634065 -1.52777 0
-46.94576 8.634065 -1.52777 0
-47.29576 8.734065 -1.57777 0
-47.19576 8.684065 -1.57777 0
-48.29576 11.03407 -1.62777 0
-48.14576 11.03407 -1.62777 0
-48.49576 11.18406 -1.62777 0
-48.39576 11.08406 -1.62777 0
-48.04576 10.98407 -1.62777 0
-47.94576 10.93406 -1.62777 0
-47.84576 10.88406 -1.57777 0
-47.59576 10.83406 -1.57777 0
-47.69576 10.88406 -1.57777 0
-47.49576 10.78407 -1.57777 0
-47.34576 10.78407 -1.57777 0
-47.24576 10.73407 -1.57777 0
-47.14576 10.68406 -1.57777 0
-46.99576 10.68406 -1.52777 0
-46.59576 8.484065 -1.52777 0
-46.34576 8.434065 -1.52777 0
-46.49576 8.484065 -1.52777 0
-45.59576 8.934065 -1.62777 0
-45.59576 9.034065 -1.62777 0
-45.59576 9.084064 -1.62777 0
-45.59576 9.134065 -1.62777 0
-45.59576 9.184065 -1.62777 0
-45.59576 9.234065 -1.62777 0
-45.54576 9.234065 -1.52777 0
-45.59576 9.334064 -1.62777 0
-45.59576 9.434065 -1.62777 0
-45.64576 9.534065 -1.62777 0
-45.64576 9.634065 -1.62777 0
-45.59576 9.484065 -1.62777 0
-45.59576 9.534065 -1.62777 0
-45.54576 9.534065 -1.52777 0
-45.59576 9.634065 -1.62777 0
-45.59576 9.734065 -1.62777 0
-45.59576 9.784065 -1.62777 0
-46.89576 10.63406 -1.52777 0
-46.79576 10.58406 -1.52777 0
-46.64576 10.58406 -1.52777 0
-46.54576 10.53407 -1.52777 0
-46.39576 10.53407 -1.52777 0
-46.29576 10.48407 -1.52777 0
-46.19576 10.48407 -1.47777 0
-46.04576 10.48407 -1.47777 0
-45.84576 10.38406 -1.47777 0
-45.54576 10.03407 -1.67777 0
-45.64576 9.884065 -1.62777 0
-45.64576 10.03407 -1.62777 0
-45.59576 10.03407 -1.62777 0
-45.59576 10.08406 -1.67777 0
-45.59576 10.13406 -1.67777 0
-45.64576 10.13406 -1.62777 0
-45.59576 10.08406 -1.62777 0
-45.59576 10.13406 -1.62777 0
-45.59576 10.23407 -1.62777 0
-45.44576 9.984065 -1.67777 0
-45.39576 9.934065 -1.67777 0
-45.34576 9.934065 -1.62777 0
-45.64576 10.28407 -1.67777 0
-45.64576 10.28407 -1.62777 0
-45.64576 10.33406 -1.62777 0
-45.69576 10.43406 -1.47777 0
-45.64576 10.48407 -1.62777 0
-45.64576 10.58406 -1.62777 0
-45.64576 10.63406 -1.62777 0
-45.59576 10.88406 -1.52777 0
-45.64576 11.18406 -1.52777 0
-45.64576 11.28407 -1.62777 0
-45.64576 11.38406 -1.62777 0
-45.64576 11.43406 -1.47777 0
-45.39576 11.43406 -1.47777 0
-48.44576 12.63406 -1.62777 0
-48.34576 12.58406 -1.62777 0
-48.19576 12.53407 -1.62777 0
-48.09576 12.48407 -1.62777 0
-47.94576 12.48407 -1.62777 0
-47.84576 12.43406 -1.62777 0
-47.24576 12.23407 -1.57777 0
-47.09576 12.18406 -1.57777 0
-46.99576 12.18406 -1.57777 0
-47.69576 12.38406 -1.62777 0
-47.59576 12.33406 -1.57777 0
-47.49576 12.28407 -1.57777 0
-47.34576 12.28407 -1.57777 0
-48.44576 14.53407 -1.67777 0
-48.34576 14.48407 -1.67777 0
-48.24576 14.43406 -1.62777 0
-48.09576 14.43406 -1.62777 0
-47.99576 14.38406 -1.62777 0
-47.84576 14.33406 -1.62777 0
-47.74576 14.28407 -1.62777 0
-47.49576 14.23407 -1.62777 0
-47.39576 14.18406 -1.57777 0
-47.59576 14.28407 -1.62777 0
-47.24576 14.13406 -1.57777 0
-47.14576 14.13406 -1.57777 0
-46.99576 14.08406 -1.57777 0
-46.84576 12.13406 -1.57777 0
-46.74576 12.13406 -1.52777 0
-46.64576 12.08406 -1.52777 0
-46.39576 12.03407 -1.52777 0
-46.49576 12.08406 -1.52777 0
-46.24576 12.03407 -1.52777 0
-46.14576 11.98407 -1.52777 0
-45.99576 11.98407 -1.52777 0
-45.89576 11.98407 -1.47777 0
-45.74576 12.18406 -1.17777 0
-45.74576 12.18406 -1.07777 0
-45.54576 11.63406 -1.67777 0
-45.64576 11.48407 -1.62777 0
-45.64576 11.53407 -1.62777 0
-45.64576 11.58406 -1.62777 0
-45.64576 11.63406 -1.62777 0
-45.64576 11.68406 -1.67777 0
-45.64576 11.68406 -1.62777 0
-45.64576 11.73407 -1.62777 0
-45.64576 11.78407 -1.62777 0
-45.49576 11.58406 -1.67777 0
-45.39576 11.58406 -1.67777 0
-45.44576 11.58406 -1.47777 0
-45.39576 11.53407 -1.57777 0
-45.34576 11.53407 -1.62777 0
-45.34576 11.53407 -1.47777 0
-45.34576 11.58406 -1.57777 0
-45.39576 11.58406 -1.47777 0
-45.44576 11.58406 -1.42777 0
-45.44576 11.68406 -1.12777 0
-45.39576 11.78407 -1.17777 0
-45.64576 11.88406 -1.67777 0
-45.64576 11.88406 -1.62777 0
-45.64576 11.88406 -1.57777 0
-45.64576 11.98407 -1.62777 0
-45.64576 11.98407 -1.57777 0
-45.64576 12.03407 -1.57777 0
-45.69576 12.13406 -1.47777 0
-45.64576 12.18406 -1.62777 0
-45.64576 12.23407 -1.62777 0
-45.64576 12.23407 -1.57777 0
-45.69576 12.18406 -1.47777 0
-45.64576 12.18406 -1.47777 0
-45.59576 12.08406 -1.57777 0
-45.59576 12.13406 -1.57777 0
-45.59576 12.18406 -1.62777 0
-45.59576 12.18406 -1.57777 0
-45.59576 12.23407 -1.57777 0
-45.59576 12.18406 -1.47777 0
-45.69576 12.18406 -1.42777 0
-45.64576 12.18406 -1.42777 0
-45.64576 12.18406 -1.27777 0
-45.59576 12.13406 -1.42777 0
-45.59576 12.13406 -1.27777 0
-45.59576 12.18406 -1.42777 0
-45.59576 12.18406 -1.27777 0
-45.64576 12.13406 -1.07777 0
-45.69576 12.18406 -1.22777 0
-45.69576 12.23407 -1.22777 0
-45.64576 12.18406 -1.22777 0
-45.64576 12.18406 -1.17777 0
-45.69576 12.23407 -1.07777 0
-45.64576 12.18406 -1.12777 0
-45.64576 12.18406 -1.07777 0
-45.64576 12.23407 -1.12777 0
-45.59576 12.13406 -1.12777 0
-45.59576 12.18406 -1.22777 0
-45.59576 12.18406 -1.07777 0
-45.74576 12.18406 -0.9277703 0
-45.74576 12.18406 -0.8777703 0
-45.74576 12.18406 -0.6777703 0
-45.74576 12.23407 -0.6777703 0
-45.74576 12.18406 -0.6277703 0
-45.74576 12.18406 -0.5277703 0
-45.74576 12.23407 -0.5277703 0
-45.79576 12.23407 -0.3777703 0
-45.79576 12.18406 -0.2777703 0
-45.74576 12.23407 -0.3277703 0
-45.39576 11.68406 -1.02777 0
-45.39576 11.68406 -0.9777703 0
-45.39576 11.68406 -0.8777703 0
-45.34576 11.73407 -0.8777703 0
-45.64576 12.13406 -0.9277703 0
-45.69576 12.18406 -0.9777703 0
-45.64576 12.18406 -0.9777703 0
-45.64576 12.18406 -0.9277703 0
-45.64576 12.18406 -0.8777703 0
-45.64576 12.23407 -0.9277703 0
-45.59576 12.13406 -0.9277703 0
-45.64576 12.08406 -0.7777703 0
-45.64576 12.13406 -0.7777703 0
-45.69576 12.18406 -0.7777703 0
-45.69576 12.23407 -0.8277704 0
-45.64576 12.18406 -0.7777703 0
-45.69576 12.18406 -0.6777703 0
-45.64576 12.18406 -0.6777703 0
-45.64576 12.08406 -0.6277703 0
-45.64576 12.13406 -0.6277703 0
-45.69576 12.23407 -0.6277703 0
-45.69576 12.23407 -0.5777703 0
-45.64576 12.18406 -0.6277703 0
-45.69576 12.18406 -0.5277703 0
-45.69576 12.23407 -0.4777703 0
-45.64576 12.18406 -0.5277703 0
-45.69576 12.08406 -0.4277703 0
-45.64576 12.13406 -0.4277703 0
-45.69576 12.08406 -0.2777703 0
-45.64576 12.13406 -0.2777703 0
-45.69576 12.18406 -0.3777703 0
-45.64576 12.23407 -0.4277703 0
-45.69576 12.18406 -0.2777703 0
-45.69576 12.23407 -0.3277703 0
-45.64576 12.18406 -0.3277703 0
-45.64576 12.18406 -0.2777703 0
-45.64576 12.28407 -1.57777 0
-45.64576 12.33406 -1.62777 0
-45.64576 12.33406 -1.57777 0
-45.64576 12.38406 -1.57777 0
-45.64576 12.43406 -1.62777 0
-45.64576 12.43406 -1.57777 0
-45.69576 12.53407 -1.57777 0
-45.64576 12.48407 -1.57777 0
-45.64576 12.58406 -1.62777 0
-45.64576 12.58406 -1.57777 0
-45.64576 12.63406 -1.57777 0
-45.69576 12.68406 -1.62777 0
-45.69576 12.73407 -1.57777 0
-45.64576 12.68406 -1.57777 0
-45.64576 12.73407 -1.57777 0
-45.69576 12.78407 -1.57777 0
-45.69576 12.83406 -1.62777 0
-45.69576 12.83406 -1.57777 0
-45.69576 12.88406 -1.57777 0
-45.69576 12.93406 -1.62777 0
-45.69576 12.93406 -1.57777 0
-45.69576 12.98407 -1.57777 0
-45.69576 13.03407 -1.62777 0
-45.69576 13.03407 -1.57777 0
-45.64576 13.03407 -1.57777 0
-45.49576 12.73407 -1.52777 0
-45.34576 12.88406 -1.47777 0
-46.74576 14.03407 -1.57777 0
-46.89576 14.08406 -1.57777 0
-46.64576 14.03407 -1.52777 0
-46.49576 13.98407 -1.52777 0
-46.39576 13.98407 -1.52777 0
-46.24576 13.93406 -1.52777 0
-46.14576 13.93406 -1.52777 0
-45.69576 13.13406 -1.62777 0
-45.69576 13.13406 -1.57777 0
-45.69576 13.18406 -1.57777 0
-45.69576 13.23407 -1.62777 0
-45.64576 13.33406 -1.67777 0
-45.59576 13.28407 -1.67777 0
-45.69576 13.28407 -1.57777 0
-45.69576 13.33406 -1.62777 0
-45.69576 13.33406 -1.57777 0
-45.69576 13.38406 -1.57777 0
-45.69576 13.43406 -1.62777 0
-45.44576 13.23407 -1.67777 0
-45.39576 13.23407 -1.67777 0
-45.49576 13.28407 -1.67777 0
-45.34576 13.33406 -1.67777 0
-45.69576 13.48407 -1.67777 0
-45.69576 13.48407 -1.57777 0
-45.69576 13.48407 -1.47777 0
-45.69576 13.58406 -1.62777 0
-45.69576 13.58406 -1.57777 0
-45.69576 13.68406 -1.67777 0
-45.69576 13.83406 -1.67777 0
-45.54576 13.78407 -1.67777 0
-45.69576 13.73407 -1.57777 0
-45.69576 13.78407 -1.57777 0
-45.69576 13.83406 -1.57777 0
-45.34576 13.48407 -1.67777 0
-45.39576 13.58406 -1.67777 0
-45.44576 13.68406 -1.67777 0
-45.99576 13.93406 -1.52777 0
-45.84576 13.93406 -1.52777 0
-45.74576 13.93406 -1.57777 0
-45.74576 13.88406 -1.47777 0
-45.74576 14.43406 -1.57777 0
-45.74576 14.53407 -1.57777 0
-45.79576 14.63406 -1.57777 0
-45.64576 13.93406 -1.67777 0
-45.69576 13.98407 -1.67777 0
-45.64576 14.03407 -1.72777 0
-45.59576 13.88406 -1.67777 0
-45.69576 13.88406 -1.57777 0
-45.69576 13.93406 -1.57777 0
-45.69576 13.98407 -1.57777 0
-45.69576 14.03407 -1.57777 0
-45.69576 14.13406 -1.72777 0
-45.69576 14.18406 -1.67777 0
-45.69576 14.23407 -1.72777 0
-45.69576 14.08406 -1.57777 0
-45.69576 14.13406 -1.57777 0
-45.69576 14.23407 -1.57777 0
-45.64576 14.23407 -1.57777 0
-45.69576 14.28407 -1.67777 0
-45.69576 14.33406 -1.67777 0
-45.69576 14.43406 -1.67777 0
-45.69576 14.28407 -1.57777 0
-45.69576 14.33406 -1.57777 0
-45.69576 14.38406 -1.57777 0
-45.69576 14.43406 -1.57777 0
-45.69576 14.48407 -1.67777 0
-45.69576 14.58406 -1.67777 0
-45.69576 14.48407 -1.62777 0
-45.69576 14.48407 -1.57777 0
-45.69576 14.58406 -1.57777 0
-45.69576 14.63406 -1.62777 0
-45.49576 14.33406 -1.57777 0
-45.24576 8.434065 -1.67777 0
-45.14576 8.384065 -1.67777 0
-45.09576 8.384065 -1.67777 0
-45.04576 8.334064 -1.62777 0
-45.09576 8.584064 -1.57777 0
-45.29576 8.984065 -1.57777 0
-45.19576 8.984065 -1.57777 0
-45.09576 8.684065 -1.57777 0
-45.09576 8.734065 -1.62777 0
-45.09576 8.784065 -1.57777 0
-45.09576 8.834064 -1.62777 0
-45.09576 8.884065 -1.57777 0
-45.09576 8.934065 -1.62777 0
-45.09576 8.934065 -1.57777 0
-45.09576 8.984065 -1.57777 0
-45.09576 9.034065 -1.57777 0
-45.14576 9.034065 -0.9277703 0
-45.19576 9.384065 -1.47777 0
-45.09576 9.084064 -1.57777 0
-45.19576 9.834064 -1.62777 0
-45.04576 9.484065 -1.47777 0
-45.04576 9.734065 -1.47777 0
-45.04576 9.784065 -1.62777 0
-45.09576 9.184065 -0.3777703 0
-45.24576 9.884065 -1.62777 0
-45.14576 11.13406 -1.57777 0
-45.14576 11.18406 -1.57777 0
-45.14576 11.23407 -1.57777 0
-45.14576 11.28407 -1.57777 0
-45.14576 11.33406 -1.57777 0
-45.14576 11.38406 -1.57777 0
-45.14576 11.43406 -1.57777 0
-45.09576 11.43406 -1.62777 0
-45.14576 11.28407 -1.42777 0
-45.14576 10.73407 -0.2777703 0
-45.14576 10.83406 -0.3777703 0
-45.19576 10.78407 -0.2777703 0
-45.24576 11.03407 -0.5277703 0
-45.09576 10.73407 -0.3277703 0
-45.04576 10.83406 -0.3777703 0
-45.14576 11.08406 -0.5277703 0
-45.19576 11.23407 -0.6277703 0
-45.19576 11.43406 -0.5777703 0
-45.04576 11.13406 -0.5277703 0
-45.09576 11.08406 -0.4277703 0
-45.09576 11.33406 -0.6277703 0
-45.09576 11.43406 -0.5777703 0
-45.29576 11.53407 -1.57777 0
-45.24576 11.48407 -1.62777 0
-45.29576 11.53407 -1.47777 0
-45.24576 11.58406 -1.57777 0
-45.19576 11.53407 -1.57777 0
-45.14576 11.48407 -1.57777 0
-45.14576 11.53407 -1.57777 0
-45.14576 11.53407 -1.47777 0
-45.14576 11.58406 -1.47777 0
-45.29576 11.58406 -1.42777 0
-45.19576 11.58406 -1.42777 0
-45.29576 11.88406 -1.37777 0
-45.24576 11.93406 -1.42777 0
-45.14576 12.03407 -1.37777 0
-45.29576 11.93406 -1.12777 0
-45.24576 11.98407 -1.22777 0
-45.24576 11.98407 -1.17777 0
-45.14576 12.03407 -1.22777 0
-45.14576 12.03407 -1.17777 0
-45.19576 11.98407 -1.12777 0
-45.19576 11.98407 -1.07777 0
-45.09576 12.03407 -1.42777 0
-45.09576 12.03407 -1.37777 0
-45.04576 12.03407 -1.37777 0
-45.09576 12.03407 -1.22777 0
-45.09576 12.03407 -1.17777 0
-45.04576 12.03407 -1.22777 0
-45.04576 12.08406 -1.12777 0
-45.04576 12.08406 -1.07777 0
-45.24576 11.63406 -0.7277703 0
-45.29576 11.83406 -0.9777703 0
-45.24576 11.83406 -0.8777703 0
-45.24576 11.78407 -0.7777703 0
-45.09576 11.68406 -0.7277703 0
-45.04576 11.68406 -0.7277703 0
-45.09576 11.83406 -0.7277703 0
-45.24576 11.88406 -0.9777703 0
-45.24576 11.93406 -1.02777 0
-45.24576 11.88406 -0.9277703 0
-45.14576 11.93406 -0.9777703 0
-45.19576 11.88406 -0.8777703 0
-45.14576 11.88406 -0.8777703 0
-45.19576 11.98407 -1.02777 0
-45.14576 11.98407 -0.9777703 0
-45.14576 12.03407 -1.02777 0
-45.04576 11.93406 -0.9277703 0
-45.04576 11.93406 -0.8777703 0
-45.09576 11.98407 -1.02777 0
-45.04576 11.98407 -0.9777703 0
-45.04576 12.03407 -1.02777 0
-45.04576 11.88406 -0.7777703 0
-45.14576 12.63406 -1.67777 0
-45.04576 12.33406 -1.67777 0
-45.09576 12.43406 -1.67777 0
-45.09576 12.53407 -1.67777 0
-45.19576 12.73407 -1.67777 0
-45.19576 12.83406 -1.67777 0
-45.24576 12.93406 -1.67777 0
-45.24576 12.98407 -1.67777 0
-45.14576 12.98407 -1.47777 0
-45.29576 13.13406 -1.67777 0
-45.29576 13.23407 -1.67777 0
-45.24576 13.18406 -1.67777 0
-45.14576 13.18406 -1.67777 0
-45.14576 13.23407 -1.67777 0
-45.29576 13.43406 -1.67777 0
-45.24576 13.38406 -1.67777 0
-45.19576 13.33406 -1.67777 0
-45.04576 13.13406 -1.67777 0
-45.09576 13.18406 -1.67777 0
-45.04576 13.13406 -1.62777 0
-45.24576 14.58406 -1.67777 0
-45.19576 14.53407 -1.67777 0
-45.04576 14.43406 -1.67777 0
-45.09576 14.48407 -1.67777 0
-45.84576 14.83407 -1.57777 0
-45.79576 14.68406 -1.57777 0
-45.79576 14.78407 -1.57777 0
-45.84576 14.93406 -1.57777 0
-45.69576 14.68406 -1.67777 0
-45.69576 14.73407 -1.67777 0
-45.69576 14.78407 -1.67777 0
-45.54576 14.83407 -1.67777 0
-45.69576 14.68406 -1.57777 0
-45.69576 14.73407 -1.62777 0
-45.69576 14.78407 -1.57777 0
-45.69576 14.83407 -1.57777 0
-45.69576 14.88406 -1.67777 0
-45.69576 14.98407 -1.72777 0
-45.69576 14.98407 -1.67777 0
-45.59576 14.88406 -1.67777 0
-45.69576 14.88406 -1.62777 0
-45.69576 14.88406 -1.57777 0
-45.69576 14.98407 -1.62777 0
-45.69576 14.98407 -1.57777 0
-45.44576 14.73407 -1.67777 0
-45.44576 14.78407 -1.67777 0
-45.34576 14.68406 -1.67777 0
-45.19576 14.98407 -1.67777 0
-45.04576 14.98407 -1.67777 0
-59.74576 4.534065 0.9722297 0
-59.79576 4.734065 1.02223 0
-59.39576 4.584065 0.2722297 0
-59.34576 4.834065 0.2722297 0
-59.34576 5.034065 0.2722297 0
-59.29576 4.784065 0.3222297 0
-59.14576 4.934065 0.2722297 0
-59.14576 4.984065 0.3222297 0
-59.64576 4.984065 0.9722297 0
-59.89576 5.384065 0.9722297 0
-59.84576 5.584065 0.9722297 0
-59.64576 5.184065 0.2722297 0
-59.54576 5.384065 0.2722297 0
-59.69576 5.584065 0.2722297 0
-59.14576 5.134065 0.2722297 0
-59.14576 5.334065 0.2722297 0
-59.14576 5.384065 0.3222297 0
-59.09576 5.184065 0.3222297 0
-59.29576 5.634065 0.3222297 0
-59.19576 5.534065 0.2722297 0
-59.29576 5.834065 0.3222297 0
-59.59576 5.184065 0.9722297 0
-54.29576 -12.06594 -0.1777703 0
-54.34576 -12.01594 0.5222297 0
-54.34576 -12.01594 1.17223 0
-53.94576 -12.01594 -0.1777703 0
-53.99576 -12.01594 0.4722297 0
-53.59576 -12.01594 -0.1777703 0
-53.59576 -12.01594 0.4722297 0
-53.99576 -12.01594 1.17223 0
-53.69576 -12.01594 1.12223 0
-53.34576 -11.96594 1.12223 0
-54.04576 -12.01594 1.87223 0
-53.69576 -12.01594 1.82223 0
-53.34576 -11.96594 1.77223 0
-54.09576 -12.01594 2.52223 0
-53.74576 -12.01594 2.52223 0
-53.39576 -11.96594 2.47223 0
-53.24576 -11.96594 -0.1777703 0
-52.94576 -11.96594 -0.07777032 0
-53.29576 -11.96594 0.4722297 0
-52.99576 -11.96594 0.4222297 0
-52.89576 -11.96594 -0.1777703 0
-52.64576 -11.96594 -0.1777703 0
-52.59576 -11.91594 -0.07777032 0
-52.64576 -11.91594 0.4222297 0
-52.94576 -11.96594 0.6222297 0
-52.99576 -11.96594 1.07223 0
-52.99576 -11.96594 1.32223 0
-52.64576 -11.96594 0.6222297 0
-52.69576 -11.96594 1.27223 0
-52.69576 -11.91594 1.07223 0
-52.29576 -11.91594 -0.2277703 0
-52.29576 -11.91594 -0.07777032 0
-52.29576 -11.86594 0.4222297 0
-52.04576 -11.96594 -0.2277703 0
-52.04576 -11.91594 -0.07777032 0
-51.79576 -11.91594 -0.07777032 0
-52.04576 -11.91594 0.4222297 0
-51.74576 -11.86594 0.3722297 0
-52.34576 -11.91594 0.5722297 0
-52.39576 -11.91594 1.07223 0
-52.39576 -11.91594 1.27223 0
-52.04576 -11.91594 0.5722297 0
-51.74576 -11.86594 0.5722297 0
-52.09576 -11.91594 1.02223 0
-52.09576 -11.91594 1.22223 0
-51.74576 -11.86594 1.02223 0
-51.79576 -11.86594 1.22223 0
-53.04576 -11.96594 1.77223 0
-52.69576 -11.96594 1.72223 0
-52.74576 -11.96594 1.97223 0
-53.09576 -11.96594 2.42223 0
-52.74576 -11.91594 2.37223 0
-52.79576 -11.96594 2.67223 0
-52.44576 -11.96594 1.67223 0
-52.24576 -12.01594 1.67223 0
-52.44576 -11.91594 1.92223 0
-52.24576 -12.01594 1.92223 0
-51.89576 -11.96594 1.67223 0
-51.94576 -12.01594 1.92223 0
-52.49576 -11.96594 2.32223 0
-52.29576 -12.01594 2.32223 0
-52.44576 -11.91594 2.62223 0
-52.24576 -11.96594 2.62223 0
-51.94576 -12.01594 2.27223 0
-51.94576 -11.91594 2.57223 0
-51.89576 -11.91594 2.92223 0
-53.79576 -12.01594 3.17223 0
-53.44576 -12.01594 3.12223 0
-53.09576 -11.96594 3.07223 0
-52.79576 -11.91594 3.02223 0
-52.49576 -11.91594 2.97223 0
-52.49576 -11.91594 3.32223 0
-52.24576 -11.96594 2.97223 0
-52.24576 -11.96594 3.32223 0
-51.99576 -11.91594 3.27223 0
-51.69576 -11.86594 -0.2277703 0
-51.49576 -11.91594 -0.2277703 0
-51.49576 -11.91594 -0.07777032 0
-51.49576 -11.91594 0.3722297 0
-51.19576 -11.86594 -0.07777032 0
-51.09576 -11.81594 -0.2277703 0
-50.94576 -11.81594 -0.07777032 0
-50.94576 -11.86594 0.07222969 0
-51.14576 -11.81594 0.3722297 0
-50.94576 -11.81594 0.5222297 0
-51.44576 -11.81594 0.5722297 0
-51.54576 -11.86594 1.22223 0
-51.49576 -11.86594 0.9722297 0
-51.19576 -11.81594 0.5722297 0
-50.99576 -11.86594 0.7222297 0
-51.19576 -11.86594 0.9722297 0
-51.24576 -11.86594 1.22223 0
-50.94576 -11.81594 0.9722297 0
-50.99576 -11.81594 1.17223 0
-50.89576 -11.81594 -0.2277703 0
-50.64576 -11.81594 -0.07777032 0
-50.59576 -11.81594 -0.2277703 0
-50.69576 -11.81594 0.07222969 0
-50.89576 -11.81594 0.3722297 0
-50.59576 -11.81594 0.2222297 0
-50.64576 -11.81594 0.3722297 0
-50.69576 -11.81594 0.5222297 0
-50.34576 -11.81594 -0.2277703 0
-50.39576 -11.81594 -0.07777032 0
-50.44576 -11.81594 0.07222969 0
-50.14576 -11.76594 -0.07777032 0
-50.19576 -11.81594 0.07222969 0
-50.34576 -11.81594 0.2222297 0
-50.39576 -11.81594 0.3222297 0
-50.44576 -11.81594 0.5222297 0
-50.14576 -11.81594 0.3222297 0
-50.19576 -11.76594 0.5222297 0
-50.74576 -11.81594 0.7222297 0
-50.64576 -11.81594 0.8222297 0
-50.69576 -11.81594 0.9222297 0
-50.74576 -11.81594 1.17223 0
-50.44576 -11.81594 0.7222297 0
-50.34576 -11.76594 0.7722297 0
-50.39576 -11.81594 0.9222297 0
-50.19576 -11.81594 0.7222297 0
-50.14576 -11.76594 0.9222297 0
-50.49576 -11.81594 1.17223 0
-50.24576 -11.81594 1.12223 0
-51.59576 -11.96594 1.62223 0
-51.69576 -11.96594 1.92223 0
-51.39576 -11.96594 1.87223 0
-51.19576 -11.81594 1.57223 0
-51.04576 -11.86594 1.42223 0
-51.04576 -11.86594 1.82223 0
-51.69576 -11.96594 2.27223 0
-51.34576 -11.86594 2.52223 0
-51.64576 -11.91594 2.57223 0
-51.64576 -11.91594 2.87223 0
-51.24576 -11.81594 2.17223 0
-51.04576 -11.86594 2.47223 0
-51.29576 -11.81594 2.82223 0
-50.74576 -11.81594 1.42223 0
-50.74576 -11.81594 1.82223 0
-50.79576 -11.81594 2.12223 0
-50.54576 -11.81594 2.07223 0
-50.49576 -11.81594 1.42223 0
-50.49576 -11.81594 1.77223 0
-50.49576 -11.81594 2.12223 0
-50.24576 -11.76594 1.77223 0
-50.29576 -11.81594 2.07223 0
-50.24576 -11.76594 2.07223 0
-50.79576 -11.81594 2.47223 0
-50.54576 -11.81594 2.42223 0
-50.59576 -11.81594 2.77223 0
-50.29576 -11.76594 2.42223 0
-50.09576 -11.76594 -0.2277703 0
-49.84576 -11.76594 -0.2277703 0
-49.89576 -11.76594 -0.07777032 0
-49.89576 -11.76594 0.07222969 0
-50.04576 -11.76594 0.2222297 0
-49.94576 -11.76594 0.5222297 0
-49.89576 -11.76594 0.3222297 0
-49.79576 -11.76594 0.2222297 0
-49.64576 -11.76594 -0.07777032 0
-49.59576 -11.76594 -0.2277703 0
-49.64576 -11.76594 0.07222969 0
-49.39576 -11.76594 0.07222969 0
-49.64576 -11.76594 0.3222297 0
-49.69576 -11.76594 0.5222297 0
-49.39576 -11.76594 0.3222297 0
-49.94576 -11.76594 0.7222297 0
-50.04576 -11.76594 0.7722297 0
-49.79576 -11.76594 0.7222297 0
-49.89576 -11.76594 0.8722297 0
-49.94576 -11.76594 1.12223 0
-49.69576 -11.76594 0.7222297 0
-49.54576 -11.76594 0.7222297 0
-49.69576 -11.76594 0.8722297 0
-49.44576 -11.76594 0.7222297 0
-49.44576 -11.76594 0.8722297 0
-49.69576 -11.76594 1.12223 0
-49.49576 -11.76594 1.12223 0
-49.39576 -11.71594 -0.2277703 0
-49.39576 -11.71594 -0.07777032 0
-49.49576 -11.71594 0.1722297 0
-49.44576 -11.71594 0.5222297 0
-49.14576 -11.71594 -0.2277703 0
-49.19576 -11.71594 -0.07777032 0
-49.19576 -11.71594 0.07222969 0
-48.94576 -11.71594 -0.07777032 0
-48.94576 -11.71594 0.07222969 0
-49.24576 -11.71594 0.1722297 0
-49.19576 -11.71594 0.3222297 0
-49.24576 -11.71594 0.5222297 0
-48.99576 -11.71594 0.1722297 0
-48.94576 -11.71594 0.3222297 0
-48.99576 -11.71594 0.4722297 0
-48.89576 -11.71594 -0.2277703 0
-48.74576 -11.71594 -0.07777032 0
-48.69576 -11.71594 -0.2277703 0
-48.69576 -11.71594 0.07222969 0
-48.74576 -11.71594 0.1722297 0
-48.74576 -11.71594 0.2722297 0
-48.74576 -11.71594 0.4722297 0
-48.54576 -11.66594 0.1722297 0
-48.54576 -11.66594 0.4722297 0
-49.29576 -11.71594 0.7222297 0
-49.19576 -11.71594 0.7222297 0
-49.19576 -11.71594 0.8722297 0
-49.04576 -11.71594 0.6722297 0
-48.99576 -11.71594 0.7222297 0
-48.99576 -11.71594 0.8222297 0
-49.24576 -11.71594 1.12223 0
-48.99576 -11.71594 1.07223 0
-48.79576 -11.71594 0.6722297 0
-48.74576 -11.71594 0.7222297 0
-48.74576 -11.71594 0.8222297 0
-48.54576 -11.66594 0.6722297 0
-48.54576 -11.66594 0.8222297 0
-48.79576 -11.71594 1.07223 0
-48.54576 -11.66594 1.07223 0
-49.99576 -11.76594 2.07223 0
-49.74576 -11.76594 2.02223 0
-49.49576 -11.71594 2.57223 0
-49.29576 -11.76594 2.52223 0
-49.24576 -11.71594 1.97223 0
-48.79576 -11.71594 1.92223 0
-48.74576 -11.36594 1.87223 0
-48.59576 -11.66594 1.92223 0
-48.54576 -11.66594 1.97223 0
-49.04576 -11.71594 2.52223 0
-48.84576 -11.71594 2.47223 0
-48.64576 -11.71594 2.22223 0
-48.59576 -11.66594 2.47223 0
-51.69576 -11.91594 3.22223 0
-51.39576 -11.91594 3.22223 0
-51.09576 -11.86594 3.17223 0
-50.84576 -11.81594 3.12223 0
-50.59576 -11.81594 3.07223 0
-50.29576 -11.76594 3.07223 0
-50.34576 -11.81594 3.47223 0
-50.09576 -11.76594 3.02223 0
-49.84576 -11.76594 3.02223 0
-50.09576 -11.76594 3.47223 0
-49.84576 -11.76594 3.42223 0
-49.59576 -11.76594 3.42223 0
-49.34576 -11.71594 3.37223 0
-49.09576 -11.71594 3.37223 0
-48.84576 -11.66594 3.32223 0
-48.64576 -11.71594 3.32223 0
-48.74576 -10.61594 1.02223 0
-48.64576 -10.76593 1.07223 0
-48.54576 -10.86594 1.07223 0
-48.84576 -10.51593 1.02223 0
-48.74576 -9.915936 1.12223 0
-48.74576 -9.815935 1.12223 0
-48.59576 -10.01593 1.12223 0
-48.54576 -9.815935 1.07223 0
-48.84576 -10.71594 2.27223 0
-48.84576 -10.51593 2.22223 0
-48.84576 -10.26593 2.22223 0
-48.74576 -9.815935 2.27223 0
-48.54576 -9.815935 2.27223 0
-48.44576 -11.66594 -0.2277703 0
-48.49576 -11.66594 -0.07777032 0
-48.49576 -11.71594 0.07222969 0
-48.29576 -11.66594 -0.07777032 0
-48.24576 -11.66594 0.07222969 0
-48.14576 -11.51594 -0.2277703 0
-48.14576 -11.51594 0.1222297 0
-48.49576 -11.66594 0.2722297 0
-48.24576 -11.66594 0.2222297 0
-48.29576 -11.66594 0.4722297 0
-48.19576 -11.51594 0.2722297 0
-48.04576 -11.61594 -0.07777032 0
-47.99576 -11.61594 -0.2277703 0
-47.99576 -11.61594 0.07222969 0
-47.99576 -11.56594 0.1222297 0
-47.84576 -11.61594 -0.07777032 0
-47.79576 -11.56594 -0.2277703 0
-47.74576 -11.56594 0.07222969 0
-48.04576 -11.56594 0.2722297 0
-47.94576 -11.56594 0.2222297 0
-48.04576 -11.61594 0.4722297 0
-47.84576 -11.56594 0.2722297 0
-47.84576 -11.56594 0.4722297 0
-48.49576 -11.71594 0.6722297 0
-48.49576 -11.66594 0.9222297 0
-48.29576 -11.66594 0.6722297 0
-48.29576 -11.66594 0.8222297 0
-48.24576 -11.66594 0.9222297 0
-48.19576 -11.51594 0.6222297 0
-48.34576 -11.66594 1.07223 0
-48.14576 -11.66594 1.07223 0
-48.44576 -10.96594 1.07223 0
-48.34576 -11.06594 1.07223 0
-48.24576 -11.16594 1.07223 0
-48.14576 -11.26594 1.07223 0
-48.04576 -11.61594 0.6222297 0
-47.99576 -11.61594 0.6722297 0
-48.09576 -11.66594 0.8222297 0
-48.04576 -11.66594 0.9222297 0
-47.79576 -11.61594 0.6722297 0
-47.79576 -11.66594 0.9222297 0
-47.79576 -11.51594 0.7722297 0
-48.04576 -11.41594 1.07223 0
-47.94576 -11.51594 1.07223 0
-47.89576 -11.66594 1.07223 0
-47.59576 -11.56594 -0.2277703 0
-47.59576 -11.56594 -0.07777032 0
-47.54576 -11.56594 0.07222969 0
-47.39576 -11.56594 -0.2277703 0
-47.39576 -11.56594 -0.07777032 0
-47.34576 -11.56594 0.07222969 0
-47.69576 -11.56594 0.2222297 0
-47.64576 -11.56594 0.2722297 0
-47.64576 -11.56594 0.4722297 0
-47.49576 -11.56594 0.2222297 0
-47.44576 -11.56594 0.2722297 0
-47.44576 -11.56594 0.4722297 0
-47.19576 -11.51594 -0.07777032 0
-47.04576 -11.61594 -0.07777032 0
-46.94576 -11.66594 0.07222969 0
-47.04576 -11.46594 0.07222969 0
-47.24576 -11.56594 0.2722297 0
-47.24576 -11.51594 0.4722297 0
-47.04576 -11.61594 0.2722297 0
-47.09576 -11.61594 0.4722297 0
-47.54576 -11.56594 0.6722297 0
-47.54576 -11.61594 0.9222297 0
-47.59576 -11.51594 0.7722297 0
-47.34576 -11.56594 0.6722297 0
-47.34576 -11.61594 0.9222297 0
-47.39576 -11.51594 0.7722297 0
-47.69576 -11.61594 1.02223 0
-47.49576 -11.61594 1.02223 0
-46.99576 -11.66594 0.6722297 0
-47.09576 -11.56594 0.9222297 0
-47.09576 -11.46594 0.6722297 0
-47.29576 -11.61594 1.02223 0
-47.09576 -11.61594 1.02223 0
-47.09576 -11.01594 1.17223 0
-48.24576 -11.51594 2.12223 0
-48.09576 -11.61594 1.97223 0
-48.39576 -11.66594 2.22223 0
-48.14576 -11.61594 2.22223 0
-48.14576 -11.61594 2.37223 0
-48.19576 -11.61594 2.82223 0
-48.09576 -11.61594 2.32223 0
-47.94576 -11.56594 2.17223 0
-47.84576 -11.56594 2.32223 0
-47.74576 -11.56594 2.17223 0
-47.99576 -11.56594 2.77223 0
-47.74576 -11.56594 2.77223 0
-47.64576 -11.56594 1.92223 0
-47.54576 -11.56594 2.17223 0
-47.59576 -11.56594 2.32223 0
-47.34576 -11.56594 2.17223 0
-47.34576 -11.56594 2.27223 0
-47.69576 -11.56594 2.57223 0
-47.54576 -11.56594 2.77223 0
-47.34576 -11.56594 2.72223 0
-47.14576 -11.61594 2.32223 0
-46.84576 -11.66594 0.2722297 0
-46.84576 -11.56594 0.9222297 0
-46.89576 -10.96594 1.22223 0
-46.74576 -11.01594 1.22223 0
-48.39576 -11.66594 3.27223 0
-48.14576 -11.61594 3.27223 0
-47.94576 -11.56594 3.22223 0
-47.89576 -11.56594 3.02223 0
-47.64576 -11.56594 3.02223 0
-47.69576 -11.56594 3.22223 0
-47.39576 -11.56594 2.97223 0
-47.49576 -11.56594 3.22223 0
-47.69576 -11.56594 3.72223 0
-47.44576 -11.56594 3.72223 0
-47.19576 -11.61594 3.02223 0
-47.14576 -11.71594 3.22223 0
-47.24576 -11.46594 3.17223 0
-46.99576 -11.66594 3.02223 0
-47.24576 -11.61594 3.72223 0
-47.04576 -11.66594 3.72223 0
-48.29576 -10.16594 1.12223 0
-48.14576 -10.26593 1.12223 0
-47.99576 -10.36594 1.12223 0
-48.09576 -10.21594 1.12223 0
-47.99576 -10.31594 1.12223 0
-47.89576 -10.41594 1.12223 0
-47.79576 -10.51593 1.12223 0
-47.84576 -10.46594 1.17223 0
-48.44576 -10.11594 1.12223 0
-48.34576 -10.01593 1.12223 0
-48.44576 -9.915936 1.07223 0
-48.24576 -10.11594 1.12223 0
-48.04576 -9.865935 1.32223 0
-47.69576 -10.61594 1.12223 0
-47.54576 -10.66594 1.12223 0
-47.69576 -10.56594 1.17223 0
-47.44576 -10.76593 1.17223 0
-47.34576 -10.86594 1.17223 0
-47.49576 -10.61594 1.17223 0
-47.34576 -10.71594 1.17223 0
-47.19576 -10.91594 1.17223 0
-47.19576 -10.81594 1.17223 0
-47.04576 -10.86594 1.22223 0
-47.64576 -9.765935 1.32223 0
-47.49576 -9.715936 1.27223 0
-47.44576 -9.715936 1.27223 0
-47.34576 -9.715936 1.32223 0
-47.29576 -9.715936 1.22223 0
-47.29576 -9.715936 1.27223 0
-47.14576 -9.715936 1.32223 0
-47.09576 -9.715936 1.22223 0
-47.09576 -9.715936 1.27223 0
-48.44576 -9.815935 1.37223 0
-48.44576 -9.815935 1.87223 0
-48.09576 -9.865935 1.82223 0
-48.34576 -9.815935 2.27223 0
-48.09576 -9.815935 2.22223 0
-47.89576 -9.765935 2.37223 0
-47.44576 -10.31594 2.37223 0
-47.24576 -10.31594 2.37223 0
-46.99576 -10.31594 2.37223 0
-47.59576 -9.765935 1.37223 0
-47.64576 -9.765935 1.62223 0
-47.69576 -9.765935 1.82223 0
-47.24576 -9.715936 1.62223 0
-46.94576 -9.715936 1.62223 0
-47.69576 -9.765935 2.22223 0
-47.69576 -9.715936 2.37223 0
-47.49576 -9.715936 2.32223 0
-47.34576 -9.715936 2.32223 0
-47.19576 -9.765935 2.32223 0
-47.29576 -9.715936 2.17223 0
-46.44576 -10.21594 0.3222297 0
-46.19576 -10.21594 0.3222297 0
-46.44576 -10.21594 1.02223 0
-46.24576 -10.21594 1.02223 0
-46.64576 -9.815935 1.17223 0
-46.54576 -9.865935 1.17223 0
-46.89576 -9.715936 1.17223 0
-46.89576 -9.715936 1.27223 0
-46.89576 -9.665936 1.32223 0
-46.69576 -9.715936 1.17223 0
-46.69576 -9.665936 1.27223 0
-46.69576 -9.665936 1.32223 0
-46.54576 -9.665936 1.22223 0
-46.44576 -9.965936 1.17223 0
-46.49576 -9.665936 1.32223 0
-46.34576 -9.665936 1.22223 0
-46.24576 -9.715936 1.22223 0
-46.29576 -9.665936 1.32223 0
-45.99576 -10.21594 0.3222297 0
-45.79576 -10.21594 0.3222297 0
-45.54576 -10.21594 0.3222297 0
-45.34576 -10.16594 0.3722297 0
-46.04576 -10.21594 1.02223 0
-45.79576 -10.21594 1.02223 0
-45.59576 -10.16594 1.02223 0
-45.39576 -10.16594 1.02223 0
-45.84576 -9.565935 -0.1277703 0
-45.79576 -9.565935 -0.07777032 0
-45.84576 -9.565935 0.02222969 0
-45.79576 -9.565935 0.1222297 0
-45.84576 -9.565935 0.2722297 0
-45.74576 -9.565935 0.2222297 0
-45.84576 -9.565935 0.4722297 0
-45.79576 -9.565935 0.4722297 0
-45.69576 -9.565935 -0.2277703 0
-45.64576 -9.565935 -0.1277703 0
-45.54576 -9.565935 -0.2277703 0
-45.59576 -9.565935 -0.07777032 0
-45.69576 -9.565935 0.02222969 0
-45.54576 -9.565935 0.02222969 0
-45.59576 -9.565935 0.1222297 0
-45.44576 -9.565935 -0.07777032 0
-45.39576 -9.565935 -0.2277703 0
-45.39576 -9.565935 0.1222297 0
-45.49576 -9.515935 -0.1277703 0
-45.34576 -9.515935 -0.1277703 0
-45.34576 -9.515935 0.02222969 0
-45.69576 -9.565935 0.2722297 0
-45.69576 -9.565935 0.4222297 0
-45.64576 -9.565935 0.4722297 0
-45.59576 -9.515935 0.2222297 0
-45.54576 -9.515935 0.2722297 0
-45.54576 -9.515935 0.4222297 0
-45.44576 -9.565935 0.2222297 0
-45.44576 -9.565935 0.4722297 0
-45.34576 -9.515935 0.2222297 0
-45.39576 -9.515935 0.4222297 0
-46.09576 -9.815935 1.22223 0
-45.89576 -9.565935 0.6722297 0
-45.84576 -9.565935 0.7222297 0
-45.79576 -9.565935 0.7222297 0
-45.89576 -9.565935 0.8722297 0
-45.74576 -9.565935 0.8722297 0
-46.09576 -9.665936 1.32223 0
-45.84576 -9.565935 0.9722297 0
-45.89576 -9.565935 1.07223 0
-45.74576 -9.565935 1.02223 0
-45.89576 -9.565935 1.27223 0
-45.84576 -9.565935 1.32223 0
-45.79576 -9.565935 1.17223 0
-45.74576 -9.565935 1.27223 0
-45.69576 -9.565935 0.6222297 0
-45.64576 -9.565935 0.7222297 0
-45.54576 -9.565935 0.8722297 0
-45.54576 -9.515935 0.6222297 0
-45.59576 -9.515935 0.7222297 0
-45.44576 -9.565935 0.7222297 0
-45.44576 -9.515935 0.7222297 0
-45.39576 -9.515935 0.6222297 0
-45.39576 -9.515935 0.8222297 0
-45.64576 -9.565935 0.9722297 0
-45.69576 -9.565935 1.32223 0
-45.59576 -9.565935 1.27223 0
-45.54576 -9.515935 1.02223 0
-45.64576 -9.515935 1.17223 0
-45.49576 -9.565935 1.17223 0
-45.49576 -9.515935 0.9722297 0
-45.39576 -9.515935 1.02223 0
-45.49576 -9.515935 1.32223 0
-45.44576 -9.515935 1.27223 0
-46.74576 -10.31594 1.67223 0
-46.49576 -10.21594 1.67223 0
-46.29576 -10.21594 1.67223 0
-46.79576 -10.31594 2.37223 0
-46.54576 -10.21594 2.37223 0
-46.34576 -10.21594 2.37223 0
-46.84576 -9.765935 1.42223 0
-46.89576 -9.765935 1.87223 0
-46.84576 -9.715936 1.57223 0
-46.44576 -9.665936 1.37223 0
-46.49576 -9.715936 1.57223 0
-46.49576 -9.715936 1.82223 0
-46.49576 -9.715936 2.12223 0
-46.14576 -9.665936 1.77223 0
-46.14576 -9.665936 1.92223 0
-46.14576 -9.665936 2.12223 0
-46.89576 -9.715936 2.17223 0
-46.04576 -10.21594 1.67223 0
-45.84576 -10.21594 1.67223 0
-45.64576 -10.21594 1.67223 0
-45.44576 -10.16594 1.67223 0
-46.09576 -10.21594 2.37223 0
-45.89576 -10.21594 2.37223 0
-45.69576 -10.16594 2.37223 0
-45.44576 -10.16594 2.37223 0
-46.09576 -9.665936 1.57223 0
-46.09576 -9.715936 1.72223 0
-45.94576 -9.565935 1.72223 0
-45.89576 -9.565935 1.47223 0
-45.89576 -9.565935 1.52223 0
-45.74576 -9.565935 1.42223 0
-45.84576 -9.565935 1.67223 0
-45.74576 -9.565935 1.72223 0
-45.89576 -9.565935 1.92223 0
-45.89576 -9.565935 2.07223 0
-45.74576 -9.565935 2.07223 0
-45.69576 -9.565935 1.52223 0
-45.54576 -9.565935 1.52223 0
-45.64576 -9.565935 1.67223 0
-45.59576 -9.515935 1.42223 0
-45.59576 -9.515935 1.67223 0
-45.44576 -9.565935 1.67223 0
-45.39576 -9.515935 1.37223 0
-45.34576 -9.515935 1.52223 0
-45.49576 -9.515935 1.67223 0
-45.34576 -9.515935 1.62223 0
-45.69576 -9.565935 1.92223 0
-45.69576 -9.565935 2.12223 0
-45.54576 -9.515935 2.07223 0
-45.49576 -9.515935 1.92223 0
-45.49576 -9.515935 2.12223 0
-45.34576 -9.515935 2.07223 0
-45.34576 -9.515935 2.12223 0
-46.09576 -9.715936 2.22223 0
-45.94576 -9.565935 2.52223 0
-45.84576 -9.565935 2.17223 0
-45.74576 -9.565935 2.52223 0
-45.94576 -9.565935 2.62223 0
-45.74576 -9.565935 2.62223 0
-45.54576 -9.515935 2.52223 0
-45.34576 -9.515935 2.52223 0
-45.59576 -9.565935 2.62223 0
-45.39576 -9.565935 2.62223 0
-46.59576 -10.21594 3.07223 0
-46.34576 -10.21594 3.07223 0
-46.14576 -10.21594 3.07223 0
-46.64576 -10.21594 3.77223 0
-46.39576 -10.21594 3.77223 0
-46.19576 -10.21594 3.77223 0
-45.94576 -10.21594 3.07223 0
-45.69576 -10.16594 3.07223 0
-45.49576 -10.21594 3.07223 0
-45.54576 -10.16594 3.72223 0
-45.34576 -10.16594 3.72223 0
-45.94576 -10.21594 3.77223 0
-45.74576 -10.16594 3.77223 0
-45.99576 -9.565935 3.17223 0
-45.79576 -9.565935 3.12223 0
-45.59576 -9.515935 3.12223 0
-45.39576 -9.515935 3.12223 0
-45.14576 -10.16594 0.3722297 0
-45.19576 -10.21594 1.02223 0
-45.24576 -9.515935 -0.2277703 0
-45.24576 -9.515935 -0.07777032 0
-45.19576 -9.515935 -0.1277703 0
-45.19576 -9.515935 0.02222969 0
-45.19576 -9.515935 0.1222297 0
-45.04576 -9.515935 -0.2277703 0
-45.04576 -9.515935 -0.1277703 0
-45.09576 -9.515935 -0.02777031 0
-45.04576 -9.515935 0.02222969 0
-45.04576 -9.515935 0.1222297 0
-45.24576 -9.515935 0.2222297 0
-45.19576 -9.515935 0.2222297 0
-45.24576 -9.515935 0.4222297 0
-45.29576 -9.515935 0.4722297 0
-45.09576 -9.515935 0.2222297 0
-45.04576 -9.515935 0.2222297 0
-45.09576 -9.515935 0.4222297 0
-45.09576 -9.515935 0.4722297 0
-45.29576 -9.515935 0.7222297 0
-45.24576 -9.515935 0.7222297 0
-45.19576 -9.515935 0.6222297 0
-45.14576 -9.515935 0.7222297 0
-45.24576 -9.515935 0.8222297 0
-45.04576 -9.515935 0.5722297 0
-45.04576 -9.515935 0.7222297 0
-45.09576 -9.515935 0.8222297 0
-45.29576 -9.515935 0.9722297 0
-45.24576 -9.515935 0.9722297 0
-45.14576 -9.515935 0.9722297 0
-45.29576 -9.515935 1.17223 0
-45.29576 -9.515935 1.27223 0
-45.29576 -9.515935 1.32223 0
-45.14576 -9.515935 1.17223 0
-45.14576 -9.515935 1.22223 0
-45.09576 -9.515935 0.9722297 0
-45.09576 -9.515935 1.32223 0
-45.19576 -10.16594 1.67223 0
-45.24576 -10.16594 2.37223 0
-45.04576 -10.16594 2.37223 0
-45.24576 -9.515935 1.37223 0
-45.14576 -9.515935 1.52223 0
-45.29576 -9.515935 1.67223 0
-45.14576 -9.515935 1.62223 0
-45.14576 -9.515935 1.67223 0
-45.29576 -9.515935 1.92223 0
-45.19576 -9.515935 2.02223 0
-45.19576 -9.515935 2.12223 0
-45.09576 -9.515935 1.87223 0
-45.04576 -9.515935 2.02223 0
-45.04576 -9.515935 2.07223 0
-45.14576 -9.515935 2.47223 0
-45.24576 -9.515935 2.57223 0
-45.04576 -9.515935 2.57223 0
-45.29576 -10.16594 3.02223 0
-45.09576 -10.16594 3.02223 0
-45.09576 -10.16594 3.72223 0
-45.19576 -9.515935 3.12223 0
-52.04576 0.9840648 -0.02777031 0
-52.04576 0.9840648 0.4722297 0
-52.09576 0.9840648 0.9722297 0
-51.74576 1.534065 -0.07777032 0
-51.74576 1.484065 0.2722297 0
-51.74576 1.534065 0.2722297 0
-51.74576 1.534065 0.3722297 0
-51.79576 1.534065 0.7222297 0
-51.74576 1.484065 0.7222297 0
-51.79576 1.534065 0.8222297 0
-51.79576 1.534065 1.17223 0
-51.74576 1.484065 1.17223 0
-51.79576 1.534065 1.27223 0
-51.69576 1.484065 -0.1777703 0
-51.69576 1.534065 -0.1777703 0
-51.04576 7.334065 0.07222969 0
-50.99576 7.384065 -0.02777031 0
-51.04576 7.384065 0.2222297 0
-51.04576 7.384065 0.3722297 0
-51.04576 7.334065 0.5722297 0
-51.04576 7.384065 0.6722297 0
-51.04576 7.384065 0.8222297 0
-51.24576 7.134065 1.12223 0
-51.09576 7.334065 1.02223 0
-51.09576 7.384065 1.07223 0
-51.09576 7.384065 1.27223 0
-50.99576 7.534065 -0.07777032 0
-51.04576 7.484065 0.07222969 0
-51.04576 7.584065 0.07222969 0
-50.99576 7.734065 -0.07777032 0
-51.04576 7.684065 0.07222969 0
-51.04576 7.784065 0.02222969 0
-51.04576 7.834065 0.07222969 0
-51.04576 7.534065 0.2222297 0
-51.04576 7.634065 0.2222297 0
-51.04576 7.484065 0.4222297 0
-51.04576 7.534065 0.3722297 0
-51.04576 7.584065 0.4222297 0
-51.04576 7.584065 0.5222297 0
-51.04576 7.684065 0.2222297 0
-51.04576 7.734065 0.3222297 0
-51.04576 7.834065 0.1722297 0
-51.04576 7.684065 0.4222297 0
-51.04576 7.834065 0.4222297 0
-51.04576 7.784065 0.5222297 0
-51.04576 8.034065 -0.1277703 0
-50.99576 7.884065 -0.07777032 0
-50.99576 7.984065 -0.1777703 0
-51.04576 7.934065 0.07222969 0
-51.04576 7.984065 0.02222969 0
-51.04576 8.034065 0.07222969 0
-50.99576 7.884065 0.02222969 0
-51.04576 8.234065 -0.1277703 0
-51.04576 8.184065 0.02222969 0
-51.04576 8.184065 0.07222969 0
-51.04576 8.184065 0.1222297 0
-51.04576 7.934065 0.1722297 0
-51.04576 7.884065 0.3222297 0
-51.04576 7.984065 0.1722297 0
-51.04576 7.984065 0.3222297 0
-51.04576 8.034065 0.3222297 0
-51.04576 7.934065 0.4222297 0
-51.09576 8.034065 0.4222297 0
-51.04576 7.984065 0.4722297 0
-51.04576 8.134065 0.1722297 0
-51.04576 8.234065 0.1722297 0
-51.04576 8.234065 0.2722297 0
-51.09576 8.184065 0.4222297 0
-51.04576 8.234065 0.4222297 0
-51.04576 7.534065 0.6222297 0
-51.04576 7.634065 0.7222297 0
-51.09576 7.484065 0.8222297 0
-51.04576 7.534065 0.8222297 0
-51.09576 7.584065 0.8222297 0
-51.04576 7.684065 0.6222297 0
-51.04576 7.834065 0.6222297 0
-51.09576 7.684065 0.8222297 0
-51.04576 7.734065 0.7722297 0
-51.09576 7.834065 0.8222297 0
-51.09576 7.534065 1.07223 0
-51.04576 7.584065 1.02223 0
-51.09576 7.484065 1.22223 0
-51.09576 7.534065 1.27223 0
-51.09576 7.584065 1.22223 0
-51.09576 7.684065 1.02223 0
-51.09576 7.784065 0.9722297 0
-51.09576 7.834065 1.02223 0
-51.09576 7.684065 1.22223 0
-51.09576 7.734065 1.22223 0
-51.09576 7.834065 1.22223 0
-51.04576 7.934065 0.6222297 0
-51.04576 7.934065 0.6722297 0
-51.04576 7.984065 0.5722297 0
-51.04576 8.034065 0.7222297 0
-51.09576 7.934065 0.8222297 0
-51.04576 7.884065 0.7722297 0
-51.09576 8.034065 0.8222297 0
-51.09576 7.984065 0.9222297 0
-51.04576 8.034065 0.8722297 0
-51.04576 8.134065 0.5722297 0
-51.04576 8.184065 0.6222297 0
-51.04576 8.234065 0.7222297 0
-51.09576 8.184065 0.8222297 0
-51.04576 8.234065 0.9222297 0
-51.09576 7.984065 1.02223 0
-51.09576 7.884065 1.17223 0
-51.09576 7.934065 1.17223 0
-51.09576 7.934065 1.22223 0
-51.09576 8.034065 1.22223 0
-51.09576 8.134065 0.9722297 0
-51.09576 8.184065 1.12223 0
-51.09576 8.234065 1.12223 0
-51.09576 8.084064 1.17223 0
-51.09576 8.184065 1.22223 0
-51.09576 7.534065 1.47223 0
-51.09576 7.584065 1.47223 0
-51.09576 7.634065 1.52223 0
-50.94576 7.534065 1.47223 0
-50.94576 7.584065 1.52223 0
-51.09576 7.534065 1.72223 0
-50.99576 7.584065 1.62223 0
-51.09576 7.684065 1.47223 0
-51.09576 7.784065 1.42223 0
-51.09576 7.834065 1.42223 0
-51.09576 7.684065 1.72223 0
-51.09576 7.734065 1.67223 0
-51.14576 7.784065 1.92223 0
-51.14576 7.684065 2.07223 0
-51.04576 7.584065 1.92223 0
-50.99576 7.584065 1.77223 0
-51.09576 7.584065 1.97223 0
-50.99576 7.534065 1.97223 0
-50.99576 7.584065 2.07223 0
-51.14576 8.184065 1.62223 0
-51.14576 8.234065 1.57223 0
-51.09576 7.984065 1.42223 0
-51.09576 8.034065 1.42223 0
-51.09576 7.934065 1.57223 0
-51.09576 7.934065 1.62223 0
-51.09576 7.934065 1.67223 0
-51.09576 8.134065 1.42223 0
-51.09576 8.234065 1.37223 0
-51.09576 8.084064 1.62223 0
-51.14576 7.984065 1.87223 0
-51.14576 8.034065 1.97223 0
-51.14576 8.234065 1.82223 0
-51.14576 8.234065 2.12223 0
-51.09576 7.934065 1.82223 0
-51.14576 7.684065 2.27223 0
-51.04576 7.684065 2.27223 0
-50.94576 7.684065 2.22223 0
-50.99576 7.834065 2.47223 0
-51.14576 7.934065 2.22223 0
-51.14576 7.934065 2.47223 0
-51.14576 8.034065 2.57223 0
-51.14576 8.084064 2.92223 0
-51.04576 7.934065 2.57223 0
