# .PCD v0.7 - Point Cloud Data file format
VERSION 0.7
FIELDS x y z intensity
SIZE 4 4 4 4
TYPE F F F F
COUNT 1 1 1 1
WIDTH 1443
HEIGHT 1
VIEWPOINT 0 0 0 1 0 0 0
POINTS 1443
DATA ascii
20.504242 53.434067 -2.0777702 0
20.504242 53.284065 -2.0277703 0
20.504242 53.384064 -2.0277703 0
20.654242 53.334064 -1.9777703 0
20.354242 53.484066 -2.1777704 0
20.304241 53.584064 -2.1777704 0
20.304241 53.634064 -2.1777704 0
20.504242 53.484066 -2.0777702 0
20.504242 53.534065 -2.1277704 0
20.504242 53.534065 -2.0777702 0
20.504242 53.584064 -2.0777702 0
20.504242 53.634064 -2.0777702 0
20.504242 53.484066 -2.0277703 0
20.554241 53.484066 -1.9777703 0
20.504242 53.684067 -2.1777704 0
20.504242 53.734066 -2.1277704 0
20.504242 53.734066 -2.0777702 0
20.504242 53.834064 -2.1777704 0
20.504242 53.784065 -2.0777702 0
20.504242 53.834064 -2.1277704 0
20.804241 53.284065 -1.9777703 0
21.004242 53.234066 -1.9777703 0
20.904242 53.284065 -1.9777703 0
20.454241 54.234066 -2.2277703 0
20.504242 53.884064 -2.0777702 0
20.504242 53.934067 -2.1277704 0
20.504242 53.984066 -2.1777704 0
20.504242 53.984066 -2.1277704 0
20.504242 53.984066 -2.0777702 0
20.504242 54.134064 -2.2277703 0
20.504242 54.084064 -2.1277704 0
20.504242 54.134064 -2.1277704 0
20.504242 54.234066 -2.1777704 0
20.504242 54.234066 -2.1277704 0
20.354242 54.284065 -2.2277703 0
20.504242 54.334064 -2.1777704 0
20.504242 54.284065 -2.1277704 0
20.504242 54.334064 -2.1277704 0
20.504242 54.434067 -2.1777704 0
20.504242 54.434067 -2.1277704 0
20.504242 54.534065 -2.1777704 0
20.504242 54.534065 -2.1277704 0
20.504242 54.634064 -2.1777704 0
20.854242 54.534065 -2.0777702 0
20.804241 54.634064 -2.0777702 0
21.054241 54.284065 -2.0777702 0
21.004242 54.384064 -2.0777702 0
20.904242 54.534065 -2.0777702 0
20.954241 54.484066 -2.0777702 0
21.154242 53.184067 -1.9777703 0
21.254242 53.134064 -1.9777703 0
21.404242 53.134064 -1.9777703 0
21.454241 53.584064 -2.0277703 0
21.454241 53.634064 -2.0277703 0
21.354242 53.834064 -2.0777702 0
21.354242 53.784065 -2.0277703 0
21.404242 53.684067 -2.0277703 0
21.504242 53.084064 -1.9777703 0
21.604242 53.134064 -2.0277703 0
21.654242 53.084064 -2.0277703 0
21.604242 53.184067 -2.0277703 0
21.554241 53.284065 -2.0277703 0
21.554241 53.384064 -2.0277703 0
21.504242 53.484066 -2.0277703 0
21.254242 53.984066 -2.0777702 0
21.254242 54.034065 -2.0777702 0
21.154242 54.184067 -2.0777702 0
21.154242 54.234066 -2.0777702 0
21.204241 54.134064 -2.0777702 0
21.254242 54.134064 -2.0777702 0
21.254242 54.234066 -2.0777702 0
21.304241 53.934067 -2.0777702 0
21.204241 54.334064 -2.0777702 0
21.204241 54.434067 -2.0777702 0
21.204241 54.534065 -2.0777702 0
21.204241 54.634064 -2.0777702 0
20.504242 54.734066 -2.2277703 0
20.504242 54.734066 -2.1777704 0
20.504242 54.784065 -2.1777704 0
20.504242 54.834064 -2.2277703 0
20.604242 54.834064 -2.0777702 0
20.654242 54.784065 -2.0777702 0
20.504242 54.884064 -2.2277703 0
20.504242 54.884064 -2.1777704 0
20.504242 54.934067 -2.2277703 0
20.554241 54.934067 -2.0777702 0
20.504242 54.984066 -2.1777704 0
20.504242 55.034065 -2.2277703 0
20.504242 55.034065 -2.1277704 0
20.354242 55.234066 -2.2777703 0
20.454241 55.184067 -2.2777703 0
20.304241 55.284065 -2.2777703 0
20.504242 55.134064 -2.2777703 0
20.454241 55.134064 -2.1777704 0
20.454241 55.234066 -2.1277704 0
20.454241 55.284065 -2.2277703 0
20.454241 55.384064 -2.1277704 0
20.354242 55.434067 -1.9777703 0
20.404242 55.434067 -1.9777703 0
20.504242 55.084064 -2.1777704 0
20.504242 55.134064 -2.2277703 0
20.504242 55.134064 -2.1277704 0
20.504242 55.184067 -2.2277703 0
20.504242 55.184067 -2.1277704 0
20.504242 55.284065 -2.2277703 0
20.504242 55.334064 -2.1277704 0
20.504242 55.384064 -2.2277703 0
20.604242 55.384064 -2.0777702 0
20.754242 54.734066 -2.0777702 0
20.704241 55.384064 -2.0777702 0
20.804241 55.334064 -2.0777702 0
21.054241 55.234066 -2.1277704 0
20.954241 55.284065 -2.0777702 0
21.004242 55.334064 -2.1277704 0
21.004242 55.384064 -2.1277704 0
20.454241 55.834064 -2.2777703 0
20.504242 55.684067 -2.2777703 0
20.304241 55.484066 -2.0777702 0
20.304241 55.534065 -2.0777702 0
20.354242 55.534065 -2.1277704 0
20.354242 55.534065 -2.0777702 0
20.354242 55.584064 -2.2277703 0
20.354242 55.584064 -2.1277704 0
20.354242 55.584064 -2.0777702 0
20.354242 55.634064 -2.1277704 0
20.454241 55.484066 -2.2277703 0
20.454241 55.584064 -2.2277703 0
20.454241 55.634064 -2.2277703 0
20.454241 55.634064 -2.1777704 0
20.354242 55.484066 -2.0277703 0
20.304241 55.684067 -2.2277703 0
20.354242 55.684067 -2.1777704 0
20.504242 55.534065 -2.2277703 0
20.504242 55.534065 -2.1277704 0
20.504242 55.634064 -2.1277704 0
20.554241 55.684067 -2.1777704 0
20.554241 55.784065 -2.1277704 0
20.454241 56.234066 -2.2777703 0
20.854242 55.684067 -2.1277704 0
20.954241 55.484066 -2.1277704 0
20.904242 55.584064 -2.1277704 0
21.154242 54.834064 -2.1277704 0
21.204241 54.734066 -2.0777702 0
21.154242 54.934067 -2.1277704 0
21.104242 55.034065 -2.1277704 0
21.104242 55.134064 -2.1277704 0
21.204241 55.234066 -2.0777702 0
21.104242 55.284065 -2.0777702 0
21.304241 55.184067 -2.0777702 0
21.454241 55.134064 -2.0777702 0
21.804241 55.034065 -2.0777702 0
21.554241 55.134064 -2.0777702 0
21.704241 55.084064 -2.0777702 0
20.304241 55.184067 -1.6777704 0
20.304241 55.284065 -1.2777703 0
20.304241 55.334064 -1.1277703 0
19.054241 56.334064 -2.3277702 0
19.004242 56.384064 -2.3277702 0
18.954241 56.584064 -2.3277702 0
19.004242 56.484066 -2.3277702 0
18.754242 56.734066 -2.3277702 0
18.804241 56.734066 -2.3277702 0
18.854242 56.884064 -2.3277702 0
18.804241 56.984066 -2.3277702 0
18.804241 57.034065 -2.3277702 0
18.904242 56.734066 -2.3277702 0
18.954241 56.684067 -2.3277702 0
18.904242 56.784065 -2.3277702 0
19.004242 56.684067 -2.3277702 0
19.204241 56.634064 -2.3277702 0
19.304241 56.634064 -2.3277702 0
19.404242 56.634064 -2.3277702 0
19.104242 56.684067 -2.3277702 0
18.754242 57.084064 -2.3277702 0
18.704241 57.184067 -2.3277702 0
18.754242 57.834064 -2.3777704 0
18.854242 57.784065 -2.3777704 0
18.904242 57.734066 -2.3777704 0
18.954241 57.734066 -2.3777704 0
19.054241 57.784065 -2.3777704 0
19.454241 57.184067 -2.3777704 0
19.354242 57.334064 -2.3777704 0
19.304241 57.434067 -2.3777704 0
19.404242 57.284065 -2.3777704 0
19.254242 57.534065 -2.3777704 0
19.204241 57.634064 -2.3777704 0
19.154242 57.684067 -2.3777704 0
19.304241 57.484066 -2.3777704 0
19.654242 56.384064 -2.3277702 0
19.504242 56.584064 -2.3277702 0
19.654242 56.534065 -2.3277702 0
19.604242 56.584064 -2.3277702 0
19.654242 56.584064 -2.3277702 0
19.704241 56.284065 -2.3277702 0
19.704241 56.534065 -2.3277702 0
19.804241 56.534065 -2.3277702 0
19.604242 56.684067 -2.3277702 0
19.604242 56.784065 -2.3277702 0
19.554241 56.884064 -2.3277702 0
19.504242 56.984066 -2.3277702 0
19.954241 56.434067 -2.3277702 0
20.004242 56.434067 -2.3277702 0
19.904242 56.484066 -2.3277702 0
20.104242 56.384064 -2.3277702 0
20.204241 56.384064 -2.3277702 0
20.004242 57.034065 -2.3277702 0
20.054241 57.034065 -2.3277702 0
20.254242 56.834064 -2.3277702 0
20.154242 56.934067 -2.3277702 0
19.504242 57.084064 -2.3777704 0
20.004242 57.084064 -2.3777704 0
18.704241 56.434067 -0.92777032 0
18.754242 56.384064 -0.92777032 0
18.854242 56.384064 -0.92777032 0
18.704241 56.634064 -0.72777033 0
18.804241 56.534065 -0.82777035 0
18.804241 56.634064 -0.72777033 0
18.854242 56.584064 -0.72777033 0
18.954241 56.334064 -0.92777032 0
19.054241 56.334064 -0.92777032 0
18.954241 56.484066 -0.82777035 0
18.954241 56.584064 -0.72777033 0
19.054241 56.484066 -0.82777035 0
19.054241 56.584064 -0.72777033 0
18.704241 56.784065 -0.67777032 0
18.854242 56.734066 -0.67777032 0
18.954241 56.684067 -0.67777032 0
19.054241 56.684067 -0.67777032 0
18.804241 56.834064 -0.6277703 0
18.704241 56.884064 -0.6277703 0
18.754242 56.934067 -0.57777029 0
18.854242 56.884064 -0.57777029 0
18.904242 56.834064 -0.6277703 0
18.954241 56.784065 -0.6277703 0
19.004242 56.784065 -0.6277703 0
19.054241 56.834064 -0.57777029 0
18.954241 56.884064 -0.57777029 0
19.154242 56.334064 -0.92777032 0
19.204241 56.284065 -0.92777032 0
19.204241 56.484066 -0.82777035 0
19.304241 56.284065 -0.92777032 0
19.404242 56.284065 -0.92777032 0
19.354242 56.434067 -0.82777035 0
19.304241 56.584064 -0.72777033 0
19.354242 56.584064 -0.72777033 0
19.454241 56.484066 -0.82777035 0
19.404242 56.584064 -0.72777033 0
19.104242 56.684067 -0.67777032 0
19.204241 56.684067 -0.67777032 0
19.354242 56.684067 -0.67777032 0
19.154242 56.734066 -0.6277703 0
19.154242 56.784065 -0.6277703 0
19.204241 56.834064 -0.57777029 0
19.254242 56.784065 -0.6277703 0
19.304241 56.734066 -0.6277703 0
19.304241 56.834064 -0.57777029 0
19.354242 56.784065 -0.6277703 0
19.404242 56.684067 -0.6277703 0
19.454241 56.734066 -0.6277703 0
19.404242 56.834064 -0.57777029 0
19.504242 56.334064 -0.92777032 0
19.604242 56.334064 -0.92777032 0
19.504242 56.634064 -0.67777032 0
19.604242 56.484066 -0.82777035 0
19.704241 56.334064 -0.92777032 0
19.804241 56.384064 -0.8777703 0
19.754242 56.484066 -0.82777035 0
19.554241 56.684067 -0.67777032 0
19.604242 56.684067 -0.67777032 0
19.704241 56.734066 -0.67777032 0
19.554241 56.734066 -0.6277703 0
19.504242 56.784065 -0.6277703 0
19.654242 56.734066 -0.6277703 0
19.604242 56.784065 -0.6277703 0
19.504242 56.884064 -0.57777029 0
19.604242 56.934067 -0.52777034 0
19.754242 56.734066 -0.6277703 0
19.754242 56.834064 -0.6277703 0
19.804241 56.784065 -0.6277703 0
19.854242 56.834064 -0.6277703 0
19.704241 56.934067 -0.52777034 0
19.854242 56.884064 -0.6277703 0
19.854242 56.984066 -0.52777034 0
19.904242 56.434067 -0.8777703 0
20.004242 56.534065 -0.8777703 0
19.904242 56.534065 -0.82777035 0
20.054241 56.634064 -0.82777035 0
20.154242 56.584064 -0.8777703 0
20.204241 56.784065 -0.8777703 0
19.904242 56.834064 -0.6277703 0
19.954241 56.834064 -0.6277703 0
19.904242 56.884064 -0.6277703 0
20.004242 56.884064 -0.57777029 0
20.004242 56.934067 -0.57777029 0
20.154242 57.084064 -0.6277703 0
18.854242 58.034065 -2.3777704 0
18.754242 58.134064 -2.3777704 0
18.704241 58.184067 -2.4277704 0
18.804241 58.084064 -2.3777704 0
18.954241 57.934067 -2.3777704 0
18.904242 57.984066 -2.3777704 0
19.004242 57.884064 -2.3777704 0
19.054241 58.384064 -2.4277704 0
19.054241 58.484066 -2.4277704 0
19.004242 58.584064 -2.4277704 0
19.104242 58.084064 -2.4277704 0
19.104242 58.134064 -2.4277704 0
19.104242 58.184067 -2.4277704 0
19.104242 58.284065 -2.4277704 0
19.454241 58.634064 -2.4277704 0
18.954241 58.784065 -2.4277704 0
18.954241 58.834064 -2.4277704 0
19.004242 58.684067 -2.4277704 0
18.904242 58.984066 -2.4777703 0
18.954241 58.884064 -2.4277704 0
18.854242 59.084064 -2.4777703 0
18.854242 59.134064 -2.4777703 0
18.804241 59.434067 -2.4777703 0
18.954241 59.434067 -2.4777703 0
19.054241 59.384064 -2.4777703 0
19.254242 58.684067 -2.4277704 0
19.404242 58.684067 -2.4277704 0
19.454241 59.034065 -2.4777703 0
19.254242 59.234066 -2.4777703 0
19.104242 59.334064 -2.4777703 0
19.154242 59.284065 -2.4777703 0
19.354242 59.134064 -2.4777703 0
19.304241 59.184067 -2.4777703 0
19.554241 58.634064 -2.4277704 0
19.654242 58.584064 -2.4277704 0
19.754242 58.534065 -2.4277704 0
19.854242 58.534065 -2.4277704 0
19.854242 58.634064 -2.4277704 0
20.154242 58.234066 -2.4277704 0
20.254242 58.134064 -2.4277704 0
20.204241 58.184067 -2.4277704 0
20.054241 58.434067 -2.4277704 0
19.954241 58.484066 -2.4277704 0
19.904242 58.584064 -2.4277704 0
20.004242 58.484066 -2.4277704 0
20.104242 58.334064 -2.4277704 0
20.104242 58.434067 -2.4277704 0
20.154242 58.434067 -2.4277704 0
20.254242 58.284065 -2.4277704 0
20.254242 58.384064 -2.4277704 0
20.204241 58.634064 -2.4777703 0
20.254242 58.484066 -2.4277704 0
20.254242 58.534065 -2.4277704 0
20.204241 58.584064 -2.4277704 0
19.554241 58.984066 -2.4777703 0
19.604242 58.884064 -2.4277704 0
19.704241 58.784065 -2.4277704 0
19.704241 58.834064 -2.4277704 0
19.804241 58.734066 -2.4277704 0
19.804241 59.334064 -2.0777702 0
19.854242 59.334064 -2.0777702 0
20.004242 58.934067 -2.3277702 0
20.054241 58.884064 -2.3277702 0
20.004242 59.034065 -2.3277702 0
20.054241 59.034065 -2.3277702 0
20.204241 58.684067 -2.4777703 0
20.204241 58.784065 -2.4777703 0
20.154242 58.884064 -2.4777703 0
20.104242 59.034065 -2.4777703 0
20.154242 58.984066 -2.4777703 0
20.104242 58.984066 -2.3277702 0
20.104242 59.034065 -2.2777703 0
20.204241 58.984066 -2.3277702 0
20.204241 59.034065 -2.2777703 0
20.254242 58.984066 -2.3277702 0
20.004242 58.834064 -2.1777704 0
20.054241 58.834064 -2.1777704 0
20.004242 58.934067 -2.1777704 0
20.054241 58.934067 -2.1777704 0
20.004242 59.034065 -2.1777704 0
20.054241 59.034065 -2.2277703 0
20.054241 59.034065 -2.1777704 0
20.154242 58.884064 -2.1777704 0
20.204241 59.034065 -2.2277703 0
20.254242 59.034065 -2.2277703 0
20.004242 59.134064 -2.4777703 0
20.054241 59.134064 -2.4777703 0
20.004242 59.234066 -2.4777703 0
20.004242 59.134064 -2.3277702 0
20.004242 59.234066 -2.3777704 0
20.004242 59.184067 -2.3277702 0
19.954241 59.284065 -2.4777703 0
19.954241 59.434067 -2.5277703 0
19.954241 59.434067 -2.4777703 0
20.004242 59.334064 -2.4777703 0
20.004242 59.284065 -2.3777704 0
20.004242 59.334064 -2.3777704 0
20.004242 59.284065 -2.3277702 0
20.004242 59.334064 -2.3277702 0
20.054241 59.284065 -2.2777703 0
20.004242 59.434067 -2.3777704 0
20.104242 59.084064 -2.2777703 0
20.204241 59.084064 -2.2777703 0
20.204241 59.184067 -2.3277702 0
20.104242 59.334064 -2.3277702 0
20.154242 59.284065 -2.3277702 0
20.004242 59.134064 -2.1777704 0
20.054241 59.134064 -2.1777704 0
20.004242 59.184067 -2.1777704 0
20.004242 59.234066 -2.1777704 0
20.054241 59.184067 -2.1777704 0
19.954241 59.384064 -2.0777702 0
20.004242 59.284065 -2.2277703 0
20.004242 59.284065 -2.1777704 0
20.004242 59.334064 -2.2277703 0
20.054241 59.334064 -2.2277703 0
20.004242 59.434067 -2.2277703 0
20.054241 59.384064 -2.2277703 0
20.054241 59.434067 -2.0777702 0
20.454241 56.334064 -2.3277702 0
20.454241 56.334064 -2.2777703 0
20.454241 56.384064 -2.3277702 0
20.454241 56.434067 -2.2777703 0
20.454241 56.484066 -2.3277702 0
20.454241 56.534065 -2.3277702 0
20.454241 56.584064 -2.3277702 0
20.454241 56.634064 -2.3277702 0
20.454241 56.484066 -2.1777704 0
20.454241 56.634064 -2.1777704 0
20.654242 56.634064 -2.1777704 0
20.304241 56.784065 -2.3277702 0
20.404242 56.684067 -2.3277702 0
20.454241 56.734066 -2.3277702 0
20.454241 56.834064 -2.3277702 0
20.454241 56.884064 -2.2777703 0
20.454241 56.984066 -2.3277702 0
20.454241 57.034065 -2.2777703 0
20.454241 56.734066 -2.2277703 0
20.454241 56.834064 -2.2277703 0
20.454241 56.884064 -2.2277703 0
20.454241 57.034065 -2.2277703 0
20.654242 56.734066 -2.1777704 0
20.654242 56.784065 -2.2277703 0
20.604242 56.884064 -2.2277703 0
20.604242 56.934067 -2.2277703 0
20.604242 56.984066 -2.2277703 0
20.604242 57.034065 -2.2277703 0
20.704241 56.284065 -2.1777704 0
20.704241 56.384064 -2.1777704 0
20.704241 56.534065 -2.1777704 0
20.454241 57.084064 -2.3277702 0
20.454241 57.134064 -2.3277702 0
20.454241 57.234066 -2.3777704 0
20.454241 57.184067 -2.3277702 0
20.454241 57.234066 -2.3277702 0
20.454241 57.334064 -2.2777703 0
20.454241 57.384064 -2.3777704 0
20.454241 57.434067 -2.3777704 0
20.454241 57.384064 -2.3277702 0
20.454241 57.434067 -2.2777703 0
20.454241 57.134064 -2.2277703 0
20.454241 57.234066 -2.2277703 0
20.454241 57.384064 -2.2277703 0
20.554241 57.084064 -2.2277703 0
20.554241 57.184067 -2.2277703 0
20.504242 57.284065 -2.2277703 0
20.454241 57.484066 -2.3777704 0
20.454241 57.534065 -2.3277702 0
20.454241 57.584064 -2.3777704 0
20.454241 57.684067 -2.3777704 0
20.454241 57.684067 -2.2777703 0
20.454241 57.784065 -2.4277704 0
20.454241 57.834064 -2.3777704 0
20.454241 57.784065 -2.2777703 0
20.454241 57.484066 -2.2277703 0
20.454241 57.584064 -2.2277703 0
21.004242 57.284065 -2.1777704 0
21.854242 57.034065 -2.1777704 0
21.104242 57.234066 -2.1777704 0
21.254242 57.234066 -2.1777704 0
21.354242 57.184067 -2.1777704 0
21.454241 57.134064 -2.1777704 0
21.604242 57.134064 -2.1777704 0
21.704241 57.084064 -2.1777704 0
20.354242 57.984066 -2.4277704 0
20.404242 57.884064 -2.4277704 0
20.454241 57.884064 -2.2777703 0
20.454241 58.034065 -2.3777704 0
20.454241 57.984066 -2.2777703 0
20.304241 58.084064 -2.4277704 0
20.304241 58.234066 -2.4277704 0
20.404242 58.084064 -2.2777703 0
20.454241 58.184067 -2.4277704 0
20.404242 58.234066 -2.3277702 0
20.454241 58.234066 -2.2777703 0
20.354242 58.384064 -2.4277704 0
20.354242 58.434067 -2.3277702 0
20.404242 58.334064 -2.4277704 0
20.404242 58.334064 -2.3277702 0
20.454241 58.334064 -2.2777703 0
20.404242 58.434067 -2.3277702 0
20.354242 58.484066 -2.3277702 0
20.354242 58.584064 -2.3277702 0
20.404242 58.584064 -2.3277702 0
20.404242 58.634064 -2.3277702 0
20.354242 58.434067 -2.1777704 0
20.354242 58.484066 -2.1777704 0
20.354242 58.534065 -2.1777704 0
20.354242 58.584064 -2.1777704 0
20.354242 58.634064 -2.1777704 0
20.454241 58.484066 -2.1777704 0
20.404242 58.634064 -2.2277703 0
20.454241 58.584064 -2.2277703 0
20.454241 58.584064 -2.1777704 0
20.404242 58.684067 -2.3277702 0
20.404242 58.734066 -2.3277702 0
20.404242 58.834064 -2.3277702 0
20.304241 58.884064 -2.3277702 0
20.304241 59.034065 -2.2777703 0
20.404242 58.884064 -2.3277702 0
20.404242 58.934067 -2.3277702 0
20.404242 59.034065 -2.3777704 0
20.304241 58.834064 -2.1777704 0
20.304241 58.884064 -2.1777704 0
20.354242 59.084064 -2.2777703 0
20.354242 59.184067 -2.3277702 0
20.454241 59.084064 -2.3277702 0
20.404242 59.184067 -2.3277702 0
20.354242 59.284065 -2.3777704 0
20.404242 59.384064 -2.3777704 0
20.504242 59.234066 -2.3277702 0
20.804241 59.434067 -2.3277702 0
20.904242 59.384064 -2.3277702 0
21.754242 59.134064 -2.3277702 0
21.954243 45.034065 -1.7777703 0
21.904242 45.084064 -1.7777703 0
22.504242 46.584064 -1.8277704 0
22.604242 46.484066 -1.8277704 0
23.454243 45.334064 -1.7777703 0
23.404242 45.434067 -1.7777703 0
23.254242 45.634064 -1.7777703 0
23.204243 45.734066 -1.7777703 0
23.304241 45.534065 -1.7777703 0
23.304241 45.584064 -1.7777703 0
23.004242 45.984066 -1.8277704 0
22.904242 46.134064 -1.8277704 0
22.954243 46.084064 -1.8277704 0
22.704243 46.384064 -1.8277704 0
22.804241 46.284065 -1.8277704 0
23.104242 45.884064 -1.8277704 0
23.604242 45.034065 -1.7777703 0
24.354242 45.034065 -1.7777703 0
24.304241 46.384064 -1.8777703 0
24.354242 46.484066 -1.8777703 0
24.454243 46.484066 -1.8777703 0
24.404242 46.584064 -1.8777703 0
24.404242 46.634064 -1.8777703 0
24.454243 46.584064 -1.8777703 0
24.454243 46.634064 -1.8777703 0
23.554241 45.084064 -1.7777703 0
23.554241 45.134064 -1.7777703 0
23.504242 45.234066 -1.7777703 0
24.254242 45.334064 -1.7777703 0
24.254242 45.434067 -1.7777703 0
24.204243 45.534065 -1.8277704 0
24.254242 45.484066 -1.8277704 0
24.204243 45.634064 -1.8277704 0
24.154242 45.784065 -1.8277704 0
24.154242 45.834064 -1.8277704 0
24.204243 45.684067 -1.8277704 0
24.054241 46.134064 -1.8277704 0
24.054241 46.234066 -1.8277704 0
24.104242 45.934067 -1.8277704 0
24.104242 46.034065 -1.8277704 0
24.254242 46.084064 -1.8277704 0
24.254242 46.134064 -1.8277704 0
24.254242 46.234066 -1.8277704 0
23.954243 46.434067 -1.8277704 0
24.004242 46.334064 -1.8277704 0
23.904242 46.534065 -1.8277704 0
23.904242 46.584064 -1.8277704 0
24.304241 45.134064 -1.7777703 0
24.304241 45.234066 -1.7777703 0
24.404242 45.134064 -1.7777703 0
24.404242 45.284065 -1.7777703 0
24.404242 45.384064 -1.7777703 0
24.454243 45.484066 -1.8277704 0
24.454243 45.534065 -1.8277704 0
24.454243 45.684067 -1.8277704 0
24.454243 45.784065 -1.8277704 0
24.454243 45.834064 -1.8277704 0
24.454243 45.934067 -1.8277704 0
24.454243 46.084064 -1.8277704 0
24.454243 46.184067 -1.8277704 0
24.304241 46.284065 -1.8277704 0
24.454243 46.284065 -1.8277704 0
24.454243 46.334064 -1.8277704 0
21.904242 47.184067 -1.8777703 0
22.554241 47.584064 -1.8777703 0
23.454243 47.434067 -1.8777703 0
22.704243 47.584064 -1.8777703 0
22.804241 47.584064 -1.8777703 0
22.904242 47.584064 -1.8777703 0
23.054241 47.634064 -1.8777703 0
23.154242 47.584064 -1.8777703 0
23.304241 47.584064 -1.8777703 0
23.404242 47.484066 -1.8777703 0
23.404242 47.584064 -1.8777703 0
22.054241 47.034065 -1.8277704 0
22.254242 46.834064 -1.8277704 0
22.104242 46.984066 -1.8277704 0
22.204243 46.884064 -1.8277704 0
22.204243 46.934067 -1.8277704 0
21.954243 47.134064 -1.8277704 0
22.004242 47.084064 -1.8277704 0
22.354242 46.784065 -1.8277704 0
22.404242 46.684067 -1.8277704 0
21.954243 47.584064 -1.8277704 0
21.954243 47.584064 -1.7777703 0
22.054241 47.584064 -1.8277704 0
21.904242 47.734066 -1.6777704 0
21.954243 47.734066 -1.7277703 0
22.054241 47.734066 -1.6777704 0
22.004242 47.784065 -1.7277703 0
22.104242 47.584064 -1.7777703 0
22.154242 47.584064 -1.8277704 0
22.254242 47.584064 -1.8277704 0
22.254242 47.584064 -1.7777703 0
22.104242 47.734066 -1.7277703 0
22.154242 47.784065 -1.7277703 0
22.204243 47.734066 -1.6777704 0
22.154242 48.234066 -1.7277703 0
22.354242 47.584064 -1.8277704 0
22.454243 47.584064 -1.8277704 0
22.454243 47.584064 -1.7777703 0
22.304241 47.784065 -1.7277703 0
22.354242 47.784065 -1.7277703 0
22.454243 47.784065 -1.7277703 0
22.654242 47.584064 -1.8277704 0
22.504242 47.734066 -1.7277703 0
22.554241 47.784065 -1.7277703 0
22.604242 47.734066 -1.7277703 0
22.654242 47.734066 -1.7277703 0
22.804241 47.584064 -1.8277704 0
22.754242 47.784065 -1.7277703 0
22.804241 47.734066 -1.7277703 0
22.804241 47.784065 -1.7277703 0
23.054241 47.584064 -1.8277704 0
22.954243 47.784065 -1.7277703 0
23.004242 47.784065 -1.7277703 0
23.254242 47.584064 -1.8277704 0
23.104242 47.734066 -1.7277703 0
23.154242 47.784065 -1.7277703 0
23.254242 47.734066 -1.7277703 0
23.354242 47.784065 -1.7277703 0
23.454243 47.734066 -1.7277703 0
23.204243 48.234066 -1.7277703 0
23.304241 48.184067 -1.7277703 0
23.404242 48.134064 -1.7277703 0
21.954243 48.284065 -1.7277703 0
21.904242 48.834064 -1.7777703 0
22.054241 48.834064 -1.7777703 0
22.154242 48.784065 -1.7777703 0
22.254242 48.684067 -1.7777703 0
22.404242 48.284065 -1.7777703 0
22.404242 48.634064 -1.7777703 0
22.604242 48.284065 -1.7777703 0
22.504242 48.584064 -1.7777703 0
22.604242 48.534065 -1.7777703 0
22.804241 48.284065 -1.7777703 0
22.854242 48.434067 -1.7777703 0
22.754242 48.484066 -1.7777703 0
22.954243 48.384064 -1.7277703 0
23.054241 48.334064 -1.7277703 0
23.254242 48.284065 -1.7777703 0
23.854242 46.684067 -1.8777703 0
23.854242 46.734066 -1.8777703 0
23.804241 46.784065 -1.8777703 0
23.754242 46.884064 -1.8777703 0
23.754242 46.934067 -1.8777703 0
23.704243 46.984066 -1.8777703 0
23.654242 47.134064 -1.8777703 0
23.604242 47.234066 -1.8777703 0
23.554241 47.334064 -1.8777703 0
23.504242 47.384064 -1.8777703 0
23.704243 47.084064 -1.8777703 0
23.504242 47.584064 -1.8777703 0
23.754242 47.584064 -1.8777703 0
24.054241 47.584064 -1.8777703 0
24.254242 47.584064 -1.9277704 0
24.404242 46.684067 -1.8777703 0
24.404242 46.734066 -1.8777703 0
24.404242 46.784065 -1.8777703 0
24.404242 46.884064 -1.8777703 0
24.454243 46.884064 -1.8777703 0
24.404242 46.984066 -1.8777703 0
24.454243 46.984066 -1.8777703 0
24.354242 47.084064 -1.8777703 0
24.354242 47.134064 -1.8777703 0
24.354242 47.234066 -1.8777703 0
24.454243 47.084064 -1.8777703 0
24.454243 47.134064 -1.8777703 0
24.304241 47.284065 -1.8777703 0
24.304241 47.384064 -1.8777703 0
24.304241 47.484066 -1.8777703 0
23.504242 47.784065 -1.7277703 0
23.604242 47.784065 -1.7277703 0
23.754242 47.734066 -1.7277703 0
23.704243 47.784065 -1.7277703 0
23.754242 47.784065 -1.7277703 0
23.854242 47.784065 -1.7277703 0
23.604242 47.984066 -1.7277703 0
23.504242 48.084064 -1.7277703 0
23.754242 47.934067 -1.7277703 0
23.854242 47.884064 -1.7277703 0
23.954243 47.784065 -1.7277703 0
24.054241 47.734066 -1.7277703 0
24.054241 47.784065 -1.7277703 0
24.104242 47.784065 -1.7277703 0
24.154242 47.784065 -1.7277703 0
24.204243 47.684067 -1.7277703 0
24.254242 47.734066 -1.7277703 0
24.254242 47.784065 -1.7277703 0
24.354242 47.684067 -1.7277703 0
24.354242 47.784065 -1.7777703 0
24.454243 47.784065 -1.7277703 0
24.504242 47.684067 -1.7277703 0
24.554241 47.784065 -1.7777703 0
24.654242 47.684067 -1.7277703 0
24.604242 47.784065 -1.7277703 0
24.754242 47.784065 -1.7777703 0
24.804241 47.684067 -1.7277703 0
24.804241 47.784065 -1.7777703 0
24.804241 47.784065 -1.7277703 0
24.954243 47.784065 -1.7777703 0
25.004242 47.684067 -1.7277703 0
25.004242 47.784065 -1.7777703 0
25.004242 47.784065 -1.7277703 0
23.504242 48.284065 -1.7777703 0
23.704243 48.284065 -1.7777703 0
23.954243 49.834064 -1.8277704 0
24.054241 49.784065 -1.8277704 0
24.254242 49.634064 -1.8277704 0
24.154242 49.684067 -1.8277704 0
25.054241 49.034065 -1.8277704 0
24.554241 49.384064 -1.8277704 0
24.654242 49.334064 -1.8277704 0
24.354242 49.534065 -1.8277704 0
24.454243 49.484066 -1.8277704 0
24.754242 49.234066 -1.8277704 0
24.854242 49.184067 -1.8277704 0
24.954243 49.084064 -1.8277704 0
22.504242 50.634064 -1.8777703 0
22.604242 50.534065 -1.8777703 0
21.904242 50.834064 -1.8777703 0
22.004242 50.784065 -1.8777703 0
22.154242 50.734066 -1.8777703 0
22.254242 50.684067 -1.8777703 0
22.354242 50.684067 -1.8777703 0
22.804241 50.434067 -1.8777703 0
22.704243 50.534065 -1.8777703 0
22.954243 50.384064 -1.8777703 0
23.054241 50.334064 -1.8777703 0
23.304241 50.234066 -1.8777703 0
23.154242 50.284065 -1.8777703 0
23.404242 50.184067 -1.8277704 0
22.004242 52.884064 -1.9777703 0
22.104242 52.834064 -1.9777703 0
22.204243 52.784065 -1.9777703 0
22.554241 52.634064 -1.9777703 0
22.354242 52.784065 -1.9777703 0
22.454243 52.684067 -1.9777703 0
23.354242 52.234066 -1.9277704 0
23.454243 52.184067 -1.9277704 0
22.704243 52.634064 -1.9777703 0
22.804241 52.534065 -1.9777703 0
23.004242 52.434067 -1.9777703 0
22.904242 52.484066 -1.9777703 0
23.154242 52.384064 -1.9777703 0
23.254242 52.284065 -1.9777703 0
23.604242 50.034065 -1.8277704 0
23.504242 50.084064 -1.8277704 0
23.704243 49.934067 -1.8277704 0
23.854242 49.884064 -1.8277704 0
25.154242 47.684067 -1.7277703 0
25.154242 47.784065 -1.7277703 0
25.204243 47.834064 -1.7777703 0
25.354242 47.684067 -1.7777703 0
25.354242 47.784065 -1.7777703 0
25.404242 47.784065 -1.7777703 0
25.404242 47.834064 -1.7777703 0
25.504242 47.684067 -1.7777703 0
25.554241 47.784065 -1.7777703 0
25.604242 47.834064 -1.7777703 0
25.704243 47.684067 -1.7777703 0
25.704243 47.784065 -1.7777703 0
25.804241 47.784065 -1.7777703 0
25.854242 47.834064 -1.7777703 0
25.904242 47.734066 -1.7777703 0
26.054241 47.684067 -1.7777703 0
26.054241 47.784065 -1.7777703 0
26.104242 47.834064 -1.7777703 0
26.254242 47.684067 -1.7777703 0
26.254242 47.834064 -1.7777703 0
25.904242 48.234066 -1.7777703 0
26.004242 48.134064 -1.7777703 0
26.104242 48.034065 -1.7777703 0
26.154242 47.984066 -1.7777703 0
26.254242 47.884064 -1.7777703 0
26.304241 47.834064 -1.7777703 0
26.354242 47.784065 -1.7777703 0
26.454243 47.684067 -1.7777703 0
26.454243 47.834064 -1.7777703 0
26.604242 47.634064 -1.7777703 0
26.554241 47.784065 -1.7777703 0
26.554241 47.834064 -1.7777703 0
26.654242 47.684067 -1.7777703 0
26.404242 49.834064 -1.8777703 0
26.654242 49.534065 -1.8777703 0
26.604242 49.634064 -1.8777703 0
26.504242 49.734066 -1.8777703 0
25.254242 48.834064 -1.8277704 0
25.154242 48.934067 -1.8277704 0
25.354242 48.734066 -1.7777703 0
25.454243 48.684067 -1.7777703 0
25.554241 48.584064 -1.7777703 0
25.654242 48.484066 -1.7777703 0
25.704243 48.434067 -1.7777703 0
25.804241 48.334064 -1.7777703 0
26.804241 47.634064 -1.7777703 0
26.704243 47.834064 -1.7777703 0
26.754242 47.784065 -1.7777703 0
26.754242 47.834064 -1.7777703 0
26.854242 47.734066 -1.7777703 0
27.004242 47.634064 -1.7777703 0
26.904242 47.834064 -1.7777703 0
26.954243 47.834064 -1.7777703 0
27.054241 47.684067 -1.7777703 0
27.004242 47.834064 -1.8277704 0
27.204243 47.634064 -1.7777703 0
27.154242 47.784065 -1.7777703 0
27.154242 47.834064 -1.7777703 0
27.254242 47.684067 -1.7777703 0
27.254242 47.834064 -1.8277704 0
27.454243 47.634064 -1.7777703 0
27.354242 47.834064 -1.7777703 0
27.404242 47.834064 -1.7777703 0
27.654242 47.634064 -1.7777703 0
27.504242 47.684067 -1.7777703 0
27.504242 47.834064 -1.8277704 0
27.604242 47.784065 -1.7777703 0
27.604242 47.834064 -1.8277704 0
27.704243 47.684067 -1.8277704 0
27.754242 47.834064 -1.8277704 0
27.804241 47.834064 -1.8277704 0
27.854242 47.834064 -1.7777703 0
27.654242 48.184067 -1.7777703 0
27.854242 47.884064 -1.7777703 0
27.804241 47.984066 -1.7777703 0
27.704243 48.084064 -1.7777703 0
27.954243 47.634064 -1.7777703 0
27.904242 47.684067 -1.7777703 0
27.904242 47.734066 -1.7777703 0
27.954243 47.734066 -1.8277704 0
28.004242 47.834064 -1.8277704 0
28.054241 47.834064 -1.8277704 0
28.254242 47.634064 -1.7777703 0
28.154242 47.684067 -1.7777703 0
28.154242 47.734066 -1.8277704 0
28.254242 47.884064 -1.8277704 0
28.054241 49.834064 -1.8777703 0
28.254242 49.534065 -1.8777703 0
28.204243 49.634064 -1.8777703 0
28.154242 49.734066 -1.8777703 0
27.054241 49.034065 -1.8277704 0
27.354242 48.634064 -1.8277704 0
27.454243 48.534065 -1.8277704 0
27.204243 48.834064 -1.8277704 0
27.154242 48.934067 -1.8277704 0
27.304241 48.734066 -1.8277704 0
26.754242 49.434067 -1.8277704 0
26.854242 49.334064 -1.8277704 0
26.904242 49.234066 -1.8277704 0
27.004242 49.134064 -1.8277704 0
27.504242 48.384064 -1.8277704 0
27.604242 48.284065 -1.8277704 0
25.604242 50.634064 -1.8777703 0
25.804241 50.434067 -1.8777703 0
25.704243 50.534065 -1.8777703 0
26.254242 49.984066 -1.8777703 0
26.154242 50.084064 -1.8777703 0
26.104242 50.184067 -1.8777703 0
25.904242 50.384064 -1.8777703 0
26.004242 50.284065 -1.8777703 0
26.354242 49.934067 -1.8777703 0
27.654242 50.484066 -1.9277704 0
27.604242 50.634064 -1.9277704 0
27.754242 50.384064 -1.9277704 0
27.804241 50.284065 -1.9277704 0
28.004242 49.984066 -1.8777703 0
27.954243 50.084064 -1.8777703 0
27.904242 50.184067 -1.9277704 0
27.654242 51.984066 -0.27777031 0
22.854242 54.584064 -2.0777702 0
23.004242 54.584064 -2.0777702 0
23.204243 54.434067 -2.0777702 0
23.104242 54.484066 -2.0777702 0
23.304241 54.384064 -2.0777702 0
23.454243 54.334064 -2.0777702 0
21.904242 54.984066 -2.0777702 0
22.054241 54.934067 -2.0777702 0
22.154242 54.934067 -2.0777702 0
22.404242 54.834064 -2.0777702 0
22.304241 54.884064 -2.0777702 0
22.504242 54.784065 -2.0777702 0
22.654242 54.734066 -2.0777702 0
22.754242 54.684067 -2.0777702 0
21.954243 56.984066 -2.1777704 0
22.054241 56.934067 -2.1777704 0
22.204243 56.884064 -2.1777704 0
22.304241 56.834064 -2.1777704 0
22.404242 56.784065 -2.1777704 0
22.554241 56.734066 -2.1777704 0
22.654242 56.684067 -2.1777704 0
22.754242 56.634064 -2.1777704 0
22.904242 56.584064 -2.1777704 0
23.004242 56.534065 -2.1777704 0
23.204243 56.434067 -2.1777704 0
23.104242 56.484066 -2.1777704 0
23.354242 56.384064 -2.1777704 0
23.454243 56.334064 -2.1777704 0
22.004242 59.034065 -2.3277702 0
22.154242 58.984066 -2.3277702 0
22.254242 58.934067 -2.3277702 0
21.904242 59.084064 -2.3277702 0
22.354242 58.884064 -2.3277702 0
22.504242 58.834064 -2.3277702 0
22.604242 58.784065 -2.3277702 0
22.954243 58.634064 -2.2777703 0
23.054241 58.584064 -2.2777703 0
23.204243 58.534065 -2.2777703 0
23.404242 58.434067 -2.2777703 0
23.304241 58.484066 -2.2777703 0
22.704243 58.734066 -2.3277702 0
22.854242 58.684067 -2.3277702 0
26.654242 55.384064 -0.52777034 0
26.454243 55.484066 -0.52777034 0
26.304241 55.784065 -0.3777703 0
26.304241 55.834064 -0.3777703 0
26.404242 55.734066 -0.3777703 0
26.454243 55.734066 -0.3777703 0
26.404242 55.784065 -0.32777032 0
26.554241 55.484066 -0.47777033 0
26.554241 55.684067 -0.32777032 0
26.554241 55.734066 -0.32777032 0
26.604242 55.684067 -0.32777032 0
26.654242 55.684067 -0.32777032 0
26.554241 55.984066 -0.72777033 0
26.654242 56.184067 -0.67777032 0
27.254242 54.634064 -0.72777033 0
27.354242 54.634064 -0.6277703 0
27.454243 54.634064 -0.6277703 0
27.504242 54.584064 -0.6277703 0
27.554241 54.634064 -0.47777033 0
27.654242 54.484066 -0.6277703 0
27.604242 54.584064 -0.47777033 0
27.654242 54.584064 -0.47777033 0
27.654242 54.634064 -0.32777032 0
27.804241 54.484066 -0.47777033 0
27.804241 54.534065 -0.47777033 0
27.754242 54.634064 -0.32777032 0
27.754242 54.634064 -0.27777031 0
27.804241 54.584064 -0.32777032 0
27.804241 54.584064 -0.27777031 0
27.854242 54.584064 -0.27777031 0
28.104242 54.634064 -0.67777032 0
27.904242 54.434067 -0.47777033 0
27.954243 54.434067 -0.47777033 0
27.904242 54.534065 -0.32777032 0
27.954243 54.484066 -0.27777031 0
28.004242 54.484066 -0.27777031 0
26.954243 54.734066 -0.77777034 0
26.904242 54.834064 -0.82777035 0
26.904242 54.834064 -0.77777034 0
27.004242 54.734066 -0.77777034 0
27.004242 54.834064 -0.67777032 0
26.954243 54.884064 -0.67777032 0
26.954243 54.984066 -0.67777032 0
27.054241 54.934067 -0.52777034 0
27.004242 55.034065 -0.52777034 0
27.054241 54.984066 -0.47777033 0
27.054241 55.034065 -0.42777032 0
27.004242 55.084064 -0.67777032 0
26.704243 55.434067 -0.47777033 0
26.754242 55.434067 -0.47777033 0
26.804241 55.334064 -0.52777034 0
26.954243 55.134064 -0.52777034 0
26.904242 55.234066 -0.47777033 0
26.954243 55.184067 -0.47777033 0
26.954243 55.184067 -0.42777032 0
27.004242 55.084064 -0.42777032 0
27.004242 55.134064 -0.42777032 0
27.054241 55.184067 -0.32777032 0
27.054241 55.234066 -0.27777031 0
26.904242 55.334064 -0.47777033 0
26.954243 55.284065 -0.52777034 0
26.904242 55.384064 -0.47777033 0
26.954243 55.334064 -0.27777031 0
26.954243 55.434067 -0.32777032 0
27.004242 55.284065 -0.32777032 0
27.004242 55.334064 -0.32777032 0
27.004242 55.384064 -0.42777032 0
27.104242 54.684067 -0.77777034 0
27.104242 54.734066 -0.67777032 0
27.254242 54.684067 -0.67777032 0
27.304241 54.784065 -0.77777034 0
27.454243 54.734066 -0.77777034 0
27.154242 54.734066 -0.6277703 0
27.154242 54.834064 -0.52777034 0
27.154242 54.834064 -0.47777033 0
27.254242 54.734066 -0.52777034 0
27.154242 54.834064 -0.42777032 0
27.104242 54.934067 -0.42777032 0
27.104242 55.034065 -0.32777032 0
27.154242 55.034065 -0.27777031 0
27.204243 54.884064 -0.32777032 0
27.204243 54.934067 -0.32777032 0
27.204243 54.934067 -0.27777031 0
27.304241 54.684067 -0.6277703 0
27.304241 54.784065 -0.47777033 0
27.404242 54.684067 -0.47777033 0
27.454243 54.684067 -0.47777033 0
27.304241 54.784065 -0.3777703 0
27.354242 54.784065 -0.3777703 0
27.304241 54.834064 -0.32777032 0
27.304241 54.834064 -0.27777031 0
27.454243 54.684067 -0.3777703 0
27.404242 54.784065 -0.32777032 0
27.404242 54.784065 -0.27777031 0
27.454243 54.784065 -0.32777032 0
27.104242 55.084064 -0.32777032 0
27.104242 55.134064 -0.27777031 0
27.104242 55.334064 -0.42777032 0
26.704243 55.634064 -0.32777032 0
26.754242 55.634064 -0.32777032 0
26.804241 55.634064 -0.32777032 0
26.854242 55.584064 -0.32777032 0
26.954243 55.534065 -0.32777032 0
26.954243 55.584064 -0.27777031 0
27.004242 55.534065 -0.32777032 0
26.954243 55.784065 -0.52777034 0
26.854242 55.884064 -0.52777034 0
26.804241 55.984066 -0.52777034 0
26.804241 56.084064 -0.47777033 0
26.804241 56.184067 -0.52777034 0
26.854242 56.184067 -0.47777033 0
26.854242 56.184067 -0.42777032 0
26.904242 55.984066 -0.47777033 0
27.004242 55.884064 -0.47777033 0
27.054241 55.884064 -0.42777032 0
27.004242 55.984066 -0.42777032 0
26.904242 56.084064 -0.42777032 0
27.104242 55.784065 -0.42777032 0
27.154242 55.834064 -0.42777032 0
27.204243 55.734066 -0.42777032 0
27.554241 54.684067 -0.32777032 0
27.554241 54.734066 -0.32777032 0
27.604242 54.734066 -0.32777032 0
26.754242 56.434067 -0.67777032 0
26.904242 56.634064 -0.67777032 0
26.904242 56.284065 -0.47777033 0
27.004242 56.434067 -0.47777033 0
26.954243 56.334064 -0.42777032 0
27.054241 56.584064 -0.47777033 0
27.054241 56.484066 -0.42777032 0
26.804241 56.734066 -0.82777035 0
26.804241 56.784065 -0.82777035 0
26.854242 56.884064 -0.77777034 0
26.854242 56.934067 -0.82777035 0
27.104242 56.684067 -0.47777033 0
27.154242 56.684067 -0.42777032 0
27.204243 56.834064 -0.42777032 0
26.954243 57.084064 -0.82777035 0
27.004242 57.084064 -0.77777034 0
27.004242 57.184067 -0.82777035 0
27.054241 57.234066 -0.77777034 0
28.254242 57.634064 -0.27777031 0
28.154242 57.734066 -0.27777031 0
28.104242 57.834064 -0.27777031 0
28.204243 57.734066 -0.32777032 0
26.754242 59.034065 -2.4277704 0
26.754242 59.034065 -2.0277703 0
26.754242 59.134064 -2.4277704 0
26.754242 59.234066 -2.4277704 0
26.754242 59.284065 -2.3777704 0
26.754242 59.384064 -2.4277704 0
26.754242 59.384064 -2.3777704 0
26.854242 59.284065 -2.3777704 0
26.804241 59.434067 -2.4277704 0
26.904242 59.184067 -2.3777704 0
26.904242 59.284065 -2.3777704 0
26.904242 59.334064 -2.4277704 0
26.954243 59.334064 -2.4277704 0
27.054241 59.284065 -2.3777704 0
26.754242 59.134064 -2.0277703 0
26.754242 59.284065 -2.0777702 0
26.754242 59.384064 -2.0777702 0
26.754242 59.384064 -1.9777703 0
26.754242 59.384064 -1.9277704 0
26.854242 59.284065 -1.9777703 0
26.804241 59.434067 -1.9277704 0
26.804241 59.434067 -1.8777703 0
26.904242 59.334064 -1.9277704 0
27.054241 59.334064 -1.9777703 0
27.104242 59.334064 -2.4277704 0
27.104242 59.334064 -2.3777704 0
27.154242 59.334064 -2.4277704 0
27.254242 59.284065 -2.3777704 0
27.304241 59.184067 -2.3777704 0
27.304241 59.284065 -2.3777704 0
27.304241 59.334064 -2.4277704 0
27.404242 59.334064 -2.4277704 0
27.454243 59.284065 -2.3777704 0
27.104242 59.334064 -1.9277704 0
27.254242 59.334064 -1.9777703 0
27.304241 59.334064 -1.9277704 0
27.454243 59.334064 -1.9777703 0
27.504242 59.284065 -2.4277704 0
27.504242 59.334064 -2.4277704 0
27.604242 59.334064 -2.4277704 0
27.754242 59.184067 -2.3777704 0
27.854242 59.334064 -2.4777703 0
27.704243 59.284065 -2.3777704 0
27.704243 59.334064 -2.4277704 0
27.754242 59.284065 -2.4277704 0
27.854242 59.334064 -2.4277704 0
27.504242 59.334064 -1.9277704 0
27.554241 59.334064 -1.9277704 0
27.704243 59.334064 -1.9777703 0
27.704243 59.334064 -1.9277704 0
27.754242 59.334064 -1.9277704 0
27.904242 59.284065 -2.4277704 0
27.904242 59.284065 -2.3777704 0
27.954243 59.334064 -2.4277704 0
28.054241 59.334064 -2.4277704 0
28.104242 59.334064 -2.4777703 0
28.154242 59.284065 -2.4277704 0
28.154242 59.334064 -2.4277704 0
28.204243 59.334064 -2.4277704 0
27.904242 59.334064 -1.9777703 0
27.954243 59.334064 -1.9277704 0
28.154242 59.334064 -1.9777703 0
28.154242 59.334064 -1.9277704 0
28.204243 59.334064 -1.9277704 0
26.904242 59.334064 -1.8277704 0
26.954243 59.334064 -1.8277704 0
27.154242 59.334064 -1.8277704 0
27.104242 59.384064 -1.7777703 0
27.154242 59.384064 -1.8277704 0
27.404242 59.334064 -1.8277704 0
27.404242 59.384064 -1.8277704 0
27.604242 59.384064 -1.8277704 0
27.654242 59.384064 -1.8277704 0
27.804241 59.334064 -1.8277704 0
27.854242 59.384064 -1.8277704 0
28.054241 59.384064 -1.8277704 0
28.104242 59.384064 -1.8277704 0
28.304241 47.834064 -1.8277704 0
28.404242 47.684067 -1.8277704 0
28.404242 47.734066 -1.8277704 0
28.554241 47.634064 -1.7777703 0
28.604242 47.634064 -1.8277704 0
28.554241 47.834064 -1.8277704 0
28.654242 47.734066 -1.8277704 0
28.504242 47.884064 -1.8277704 0
28.854242 47.684067 -1.7777703 0
28.804241 47.834064 -1.8277704 0
28.904242 47.684067 -1.8277704 0
28.904242 47.734066 -1.8277704 0
28.954243 47.834064 -1.8277704 0
29.004242 47.734066 -1.7777703 0
29.054241 47.834064 -1.8277704 0
28.754242 47.884064 -1.8277704 0
28.854242 48.234066 -1.8277704 0
28.954243 47.984066 -1.8277704 0
28.904242 48.084064 -1.8277704 0
29.154242 47.634064 -1.7777703 0
29.154242 47.684067 -1.8277704 0
29.154242 47.734066 -1.8277704 0
29.404242 47.634064 -1.8277704 0
29.304241 47.834064 -1.8277704 0
29.454243 47.684067 -1.8277704 0
29.454243 47.734066 -1.8277704 0
29.454243 47.784065 -1.8277704 0
29.354242 47.884064 -1.8277704 0
29.454243 47.884064 -1.8277704 0
29.404242 48.034065 -1.8277704 0
29.404242 48.134064 -1.8277704 0
29.504242 47.684067 -1.8277704 0
29.554241 47.834064 -1.8277704 0
29.604242 47.734066 -1.8277704 0
29.654242 47.684067 -1.8277704 0
29.704243 47.734066 -1.8277704 0
29.754242 47.684067 -1.8277704 0
29.854242 47.684067 -1.8277704 0
29.854242 47.834064 -1.8277704 0
29.504242 48.034065 -1.8277704 0
29.604242 47.884064 -1.8277704 0
29.604242 47.984066 -1.8277704 0
29.504242 48.134064 -1.8277704 0
29.604242 48.134064 -1.8277704 0
28.554241 48.934067 -1.8777703 0
28.504242 49.034065 -1.8777703 0
28.454243 49.184067 -1.8777703 0
28.304241 49.384064 -1.8777703 0
28.404242 49.284065 -1.8777703 0
29.054241 49.484066 -1.8777703 0
29.004242 49.634064 -1.8777703 0
28.954243 49.734066 -1.8777703 0
29.204243 48.734066 -1.8777703 0
29.254242 48.784065 -1.8777703 0
29.254242 48.834064 -1.8777703 0
29.204243 48.884064 -1.8777703 0
29.254242 48.934067 -1.8777703 0
29.204243 49.034065 -1.8777703 0
29.504242 48.284065 -1.8777703 0
29.554241 48.384064 -1.8777703 0
29.604242 48.384064 -1.8777703 0
29.554241 48.534065 -1.8777703 0
29.554241 48.634064 -1.8777703 0
29.604242 48.534065 -1.8777703 0
29.604242 48.634064 -1.8777703 0
29.604242 48.784065 -1.8777703 0
29.604242 48.884064 -1.8777703 0
29.604242 48.934067 -1.8777703 0
29.604242 49.034065 -1.8777703 0
29.154242 49.134064 -1.8777703 0
29.154242 49.234066 -1.8777703 0
29.104242 49.384064 -1.8777703 0
29.304241 49.084064 -1.8777703 0
29.354242 49.184067 -1.8777703 0
29.354242 49.334064 -1.8777703 0
29.404242 49.434067 -1.9277704 0
29.454243 49.584064 -1.9277704 0
29.454243 49.684067 -1.9277704 0
29.554241 49.134064 -1.8777703 0
29.604242 49.184067 -1.8777703 0
29.554241 49.284065 -1.8777703 0
29.554241 49.384064 -1.9277704 0
29.654242 49.284065 -1.9277704 0
29.654242 49.434067 -1.9277704 0
29.504242 49.534065 -1.9277704 0
29.504242 49.634064 -1.9277704 0
29.654242 49.534065 -1.9277704 0
29.504242 49.784065 -1.9277704 0
29.504242 49.834064 -1.9277704 0
29.654242 49.684067 -1.9277704 0
29.654242 49.784065 -1.9277704 0
28.654242 48.684067 -1.8277704 0
28.604242 48.834064 -1.8277704 0
28.804241 48.334064 -1.8277704 0
28.754242 48.484066 -1.8277704 0
28.704243 48.584064 -1.8277704 0
29.354242 48.284065 -1.8277704 0
29.354242 48.384064 -1.8277704 0
29.304241 48.534065 -1.8277704 0
29.304241 48.634064 -1.8277704 0
29.604242 48.284065 -1.8277704 0
30.004242 47.734066 -1.8777703 0
30.154242 47.884064 -1.8777703 0
30.404242 47.834064 -1.8777703 0
30.654242 47.684067 -1.8777703 0
30.454243 47.884064 -1.8777703 0
30.704243 47.834064 -1.8777703 0
31.004242 47.684067 -1.8777703 0
31.004242 47.834064 -1.8777703 0
30.704243 47.884064 -1.8777703 0
31.004242 47.884064 -1.8777703 0
31.354242 47.684067 -1.8777703 0
31.304241 47.834064 -1.8777703 0
31.404242 47.684067 -1.8777703 0
30.054241 47.684067 -1.8277704 0
30.104242 47.834064 -1.8277704 0
30.204243 47.684067 -1.8277704 0
30.354242 47.684067 -1.8277704 0
30.554241 47.684067 -1.8277704 0
30.954243 47.684067 -1.8277704 0
28.654242 50.584064 -1.9277704 0
28.854242 50.084064 -1.9277704 0
28.804241 50.234066 -1.9277704 0
28.904242 49.884064 -1.9277704 0
28.904242 49.984066 -1.9277704 0
28.754242 50.334064 -1.9277704 0
28.704243 50.484066 -1.9277704 0
29.454243 49.934067 -1.9277704 0
29.454243 50.034065 -1.9277704 0
29.404242 50.184067 -1.9277704 0
29.404242 50.284065 -1.9277704 0
29.404242 50.434067 -1.9777703 0
29.354242 50.534065 -1.9777703 0
29.504242 49.934067 -1.9277704 0
29.654242 50.034065 -1.9277704 0
29.504242 50.084064 -1.9277704 0
29.554241 50.184067 -1.9277704 0
29.654242 50.184067 -1.9277704 0
29.704243 49.934067 -1.9277704 0
29.554241 50.334064 -1.9777703 0
29.654242 50.334064 -1.9777703 0
29.604242 50.434067 -1.9777703 0
29.654242 50.434067 -1.9777703 0
29.604242 50.584064 -1.9777703 0
29.654242 50.584064 -1.9777703 0
28.504242 52.934067 -0.27777031 0
31.604242 47.834064 -1.8777703 0
31.704243 47.684067 -1.8777703 0
31.804241 47.684067 -1.8777703 0
32.10424 47.684067 -1.8777703 0
32.154243 47.734066 -1.9277704 0
31.954243 47.884064 -1.8777703 0
32.254242 47.884064 -1.8777703 0
32.504242 47.684067 -1.8777703 0
32.554241 47.734066 -1.9277704 0
32.60424 47.884064 -1.9277704 0
32.904243 47.684067 -1.9277704 0
32.904243 47.734066 -1.9277704 0
32.954243 47.884064 -1.9277704 0
33.35424 47.684067 -1.9277704 0
33.304241 47.784065 -1.9277704 0
33.654243 47.784065 -1.9277704 0
33.754242 47.684067 -1.9277704 0
34.10424 47.784065 -1.9277704 0
34.254242 47.684067 -1.9277704 0
32.654243 51.734066 -2.1277704 0
32.60424 51.784065 -2.1277704 0
32.654243 51.784065 -2.1277704 0
32.85424 51.634064 -2.1277704 0
32.804241 51.684067 -2.1277704 0
32.904243 51.584064 -2.1277704 0
33.054241 51.484066 -2.1277704 0
32.704243 51.934067 -2.1277704 0
32.704243 51.984066 -2.1277704 0
32.254242 52.034065 -1.5777704 0
32.254242 51.984066 -1.5277703 0
32.204243 52.084064 -1.6277703 0
32.204243 52.134064 -1.6277703 0
32.204243 52.134064 -1.5777704 0
32.254242 52.084064 -1.5777704 0
32.204243 52.134064 -1.5277703 0
32.204243 52.134064 -1.4777703 0
32.204243 52.234066 -1.6277703 0
32.204243 52.234066 -1.5777704 0
32.254242 52.034065 -1.0777704 0
32.154243 52.184067 -1.0777704 0
32.204243 52.134064 -1.1277703 0
32.204243 52.134064 -1.0777704 0
32.254242 52.034065 -0.92777032 0
32.204243 52.084064 -0.97777033 0
32.204243 52.184067 -0.92777032 0
32.204243 52.184067 -0.8777703 0
32.204243 52.184067 -0.82777035 0
32.254242 52.284065 -1.6277703 0
32.254242 52.334064 -1.5777704 0
32.254242 52.434067 -1.6277703 0
32.204243 52.384064 -1.5277703 0
32.254242 52.434067 -1.5277703 0
32.254242 52.484066 -1.5777704 0
32.254242 52.484066 -1.4777703 0
32.204243 52.284065 -1.1277703 0
32.204243 52.334064 -1.0777704 0
32.204243 52.434067 -1.1277703 0
32.254242 52.534065 -1.0777704 0
32.254242 52.584064 -1.1277703 0
32.254242 52.634064 -1.1277703 0
32.204243 52.284065 -1.0277703 0
32.254242 52.434067 -0.92777032 0
32.254242 52.434067 -0.8777703 0
32.204243 52.484066 -1.0277703 0
32.554241 51.834064 -1.5277703 0
32.60424 51.834064 -1.5777704 0
32.654243 51.784065 -1.5777704 0
32.654243 51.784065 -1.5277703 0
32.554241 51.834064 -1.0777704 0
32.60424 51.834064 -1.0777704 0
32.35424 51.934067 -1.5777704 0
32.35424 51.984066 -1.5777704 0
32.35424 51.984066 -1.4777703 0
32.404243 51.934067 -1.5277703 0
32.554241 51.934067 -1.5777704 0
32.654243 51.984066 -1.5277703 0
32.654243 51.984066 -1.4777703 0
32.35424 51.984066 -1.0777704 0
32.85424 51.634064 -1.5777704 0
32.754242 51.734066 -1.5277703 0
32.704243 51.784065 -1.4777703 0
32.754242 51.784065 -1.4777703 0
32.804241 51.684067 -1.5777704 0
32.804241 51.684067 -1.5277703 0
32.904243 51.634064 -1.5777704 0
32.954243 51.634064 -1.5277703 0
33.004242 51.534065 -1.5777704 0
33.054241 51.534065 -1.5777704 0
33.054241 51.534065 -1.4777703 0
33.004242 51.584064 -1.4777703 0
32.904243 51.684067 -1.4777703 0
32.85424 51.634064 -1.0777704 0
32.804241 51.734066 -1.0777704 0
32.904243 51.684067 -1.4277704 0
32.704243 52.034065 -1.4777703 0
32.654243 51.784065 -1.0277703 0
32.654243 51.834064 -0.92777032 0
32.35424 51.984066 -0.97777033 0
32.35424 52.034065 -0.8777703 0
32.454243 51.934067 -1.0277703 0
32.454243 51.934067 -0.92777032 0
32.35424 52.034065 -0.77777034 0
32.554241 51.884064 -0.97777033 0
32.504242 51.884064 -0.8777703 0
32.554241 51.934067 -0.77777034 0
32.754242 51.734066 -0.97777033 0
32.85424 51.684067 -1.0277703 0
32.804241 51.684067 -0.92777032 0
32.704243 51.784065 -0.82777035 0
32.704243 51.784065 -0.77777034 0
32.85424 51.684067 -0.82777035 0
32.904243 51.634064 -0.97777033 0
33.054241 51.534065 -1.0277703 0
33.004242 51.584064 -1.0277703 0
33.004242 51.584064 -0.92777032 0
33.054241 51.584064 -0.82777035 0
32.904243 51.684067 -0.77777034 0
32.304241 52.534065 -1.6277703 0
32.304241 52.584064 -1.6277703 0
32.304241 52.634064 -1.5277703 0
32.304241 52.684067 -1.5777704 0
32.35424 52.734066 -1.6277703 0
32.404243 52.784065 -1.6277703 0
32.454243 52.884064 -1.6277703 0
32.504242 52.934067 -1.6277703 0
32.504242 52.934067 -1.5777704 0
32.504242 52.984066 -1.5777704 0
32.304241 52.734066 -1.1277703 0
32.304241 52.734066 -1.0777704 0
32.35424 52.784065 -1.1277703 0
32.404243 52.934067 -1.1277703 0
32.454243 52.934067 -1.0777704 0
32.454243 52.984066 -1.1277703 0
32.304241 52.684067 -1.0277703 0
32.304241 52.684067 -0.97777033 0
