# .PCD v0.7 - Point Cloud Data file format
VERSION 0.7
FIELDS x y z intensity
SIZE 4 4 4 4
TYPE F F F F
COUNT 1 1 1 1
WIDTH 1400
HEIGHT 1
VIEWPOINT 0 0 0 1 0 0 0
POINTS 1400
DATA ascii
-37.445759 -11.015936 1.6722298 0
-37.39576 -11.015936 1.6722298 0
-37.695759 -11.015936 1.8222297 0
-37.695759 -11.015936 2.0222297 0
-37.545757 -11.015936 2.0222297 0
-37.59576 -11.015936 2.1222298 0
-37.545757 -11.015936 2.0722296 0
-37.495758 -10.965936 1.8222297 0
-37.495758 -11.015936 2.1222298 0
-37.445759 -11.015936 2.0722296 0
-37.39576 -11.015936 2.0722296 0
-37.34576 -10.965936 2.1222298 0
-38.09576 -11.015936 2.4222298 0
-37.89576 -11.115935 2.4722297 0
-38.09576 -11.015936 2.5722296 0
-37.89576 -11.165936 2.6222298 0
-37.89576 -11.115935 2.6222298 0
-37.795757 -11.115935 2.6222298 0
-37.745758 -11.115935 2.6222298 0
-37.695759 -11.065935 2.4722297 0
-37.545757 -11.065935 2.4722297 0
-37.34576 -11.065935 2.4722297 0
-37.64576 -11.115935 2.6222298 0
-37.545757 -11.115935 2.6222298 0
-37.495758 -11.115935 2.6222298 0
-37.39576 -11.065935 2.6222298 0
-37.34576 -11.115935 2.6722298 0
-37.245758 -11.065935 -0.17777032 0
-37.245758 -11.065935 -0.077770315 0
-37.195759 -11.115935 -0.22777031 0
-37.195759 -11.115935 -0.17777032 0
-37.195759 -11.115935 -0.12777032 0
-37.295757 -11.115935 0.072229691 0
-37.295757 -11.065935 0.12222969 0
-37.195759 -11.065935 0.022229688 0
-37.195759 -11.115935 0.072229691 0
-37.195759 -11.115935 0.12222969 0
-37.09576 -11.065935 -0.17777032 0
-37.045757 -11.115935 -0.17777032 0
-37.09576 -11.115935 -0.077770315 0
-37.045757 -11.115935 -0.12777032 0
-36.995758 -11.065935 -0.17777032 0
-36.945759 -11.065935 -0.12777032 0
-36.945759 -11.065935 -0.077770315 0
-37.09576 -11.065935 0.12222969 0
-37.045757 -11.115935 0.072229691 0
-36.995758 -11.065935 0.072229691 0
-36.945759 -11.115935 0.072229691 0
-37.245758 -11.115935 0.17222969 0
-37.14576 -11.115935 0.17222969 0
-37.195759 -11.115935 0.2722297 0
-37.295757 -11.015936 0.42222971 0
-37.245758 -11.015936 0.52222967 0
-37.195759 -11.015936 0.42222971 0
-37.14576 -11.015936 0.42222971 0
-37.195759 -11.015936 0.47222969 0
-37.14576 -11.015936 0.52222967 0
-37.045757 -11.065935 0.17222969 0
-37.045757 -11.115935 0.2722297 0
-36.995758 -11.065935 0.17222969 0
-36.945759 -11.065935 0.22222969 0
-36.945759 -11.065935 0.2722297 0
-37.09576 -11.015936 0.42222971 0
-37.09576 -11.015936 0.47222969 0
-37.09576 -11.015936 0.52222967 0
-36.995758 -11.015936 0.47222969 0
-36.945759 -11.015936 0.47222969 0
-36.945759 -11.015936 0.52222967 0
-36.89576 -11.065935 -0.17777032 0
-36.84576 -11.065935 -0.12777032 0
-36.795757 -11.065935 -0.17777032 0
-36.745758 -11.065935 -0.17777032 0
-36.745758 -11.065935 -0.12777032 0
-36.745758 -11.065935 -0.077770315 0
-36.84576 -11.065935 0.072229691 0
-36.795757 -11.065935 0.072229691 0
-36.695759 -11.015936 -0.12777032 0
-36.545757 -10.965936 -0.12777032 0
-36.64576 -11.115935 0.072229691 0
-36.695759 -11.015936 0.12222969 0
-36.89576 -11.065935 0.17222969 0
-36.84576 -11.065935 0.22222969 0
-36.795757 -11.065935 0.17222969 0
-36.745758 -11.065935 0.22222969 0
-36.795757 -11.065935 0.2722297 0
-36.89576 -11.015936 0.47222969 0
-36.89576 -11.015936 0.52222967 0
-36.84576 -11.015936 0.47222969 0
-36.795757 -11.015936 0.47222969 0
-36.795757 -10.965936 0.52222967 0
-36.745758 -11.015936 0.47222969 0
-36.745758 -10.965936 0.47222969 0
-36.695759 -11.015936 0.17222969 0
-36.545757 -10.965936 0.17222969 0
-36.545757 -10.965936 0.22222969 0
-36.59576 -10.965936 0.52222967 0
-36.545757 -10.965936 0.47222969 0
-37.245758 -11.015936 0.6222297 0
-37.245758 -11.015936 0.72222972 0
-37.295757 -11.015936 0.77222967 0
-37.295757 -11.015936 0.82222968 0
-37.245758 -11.015936 0.8722297 0
-37.195759 -11.015936 0.77222967 0
-37.195759 -11.015936 0.82222968 0
-37.14576 -11.015936 0.77222967 0
-37.09576 -11.015936 0.72222972 0
-37.045757 -11.015936 0.67222971 0
-36.945759 -11.015936 0.72222972 0
-37.09576 -11.015936 0.82222968 0
-37.045757 -11.015936 0.77222967 0
-37.09576 -11.015936 0.8722297 0
-36.945759 -11.015936 0.77222967 0
-36.995758 -11.015936 0.8722297 0
-37.245758 -11.065935 1.0722297 0
-37.14576 -11.015936 0.97222972 0
-37.14576 -11.015936 1.0722297 0
-37.295757 -11.015936 1.1722296 0
-37.295757 -10.965936 1.2222297 0
-37.195759 -10.965936 1.1722296 0
-37.14576 -11.015936 1.2222297 0
-37.14576 -10.965936 1.2722297 0
-37.045757 -11.015936 1.0722297 0
-36.995758 -11.015936 0.97222972 0
-36.945759 -11.015936 1.0722297 0
-37.09576 -11.015936 1.1722296 0
-37.09576 -10.965936 1.2722297 0
-36.995758 -11.015936 1.2222297 0
-36.995758 -10.965936 1.1722296 0
-36.89576 -11.015936 0.67222971 0
-36.84576 -11.015936 0.77222967 0
-36.89576 -11.015936 0.8722297 0
-36.745758 -11.015936 0.77222967 0
-36.795757 -11.015936 0.8722297 0
-36.745758 -10.965936 0.8722297 0
-36.695759 -10.965936 0.67222971 0
-36.545757 -10.965936 0.77222967 0
-36.59576 -10.965936 0.8722297 0
-36.84576 -11.015936 1.0222297 0
-36.84576 -11.015936 1.0722297 0
-36.745758 -10.965936 1.0722297 0
-36.89576 -10.965936 1.1722296 0
-36.84576 -11.015936 1.2222297 0
-36.89576 -10.965936 1.2722297 0
-36.745758 -10.965936 1.2222297 0
-36.745758 -10.965936 1.2722297 0
-36.59576 -10.965936 1.0722297 0
-36.59576 -10.965936 1.1722296 0
-36.59576 -10.965936 1.2222297 0
-36.545757 -10.965936 1.2222297 0
-36.545757 -10.965936 1.2722297 0
-36.545757 -10.965936 1.3222297 0
-36.495758 -10.965936 -0.12777032 0
-36.34576 -10.965936 -0.17777032 0
-36.445759 -10.965936 -0.027770313 0
-36.495758 -10.965936 0.072229691 0
-36.495758 -10.965936 0.12222969 0
-36.34576 -10.965936 0.12222969 0
-36.445759 -10.965936 0.22222969 0
-36.495758 -10.965936 0.32222968 0
-36.495758 -10.965936 0.47222969 0
-36.495758 -10.965936 0.52222967 0
-36.245758 -10.965936 0.52222967 0
-36.495758 -10.965936 0.67222971 0
-36.39576 -10.965936 0.57222968 0
-36.445759 -10.965936 0.77222967 0
-36.495758 -10.965936 0.8722297 0
-36.495758 -10.965936 0.92222971 0
-36.39576 -10.965936 0.77222967 0
-36.39576 -10.965936 0.8722297 0
-36.39576 -10.965936 0.92222971 0
-36.295757 -10.965936 0.57222968 0
-36.495758 -10.965936 1.0222297 0
-36.495758 -10.965936 1.0722297 0
-36.39576 -10.965936 1.0722297 0
-36.495758 -10.965936 1.1722296 0
-36.495758 -10.965936 1.2222297 0
-36.39576 -10.965936 1.1722296 0
-36.39576 -10.965936 1.2222297 0
-37.245758 -11.015936 1.3722297 0
-37.245758 -11.015936 1.5222297 0
-37.14576 -11.015936 1.3722297 0
-37.195759 -10.965936 1.5222297 0
-37.14576 -11.015936 1.5222297 0
-37.295757 -10.965936 1.6722298 0
-37.14576 -11.015936 1.6722298 0
-37.14576 -10.965936 1.6722298 0
-37.045757 -11.015936 1.3722297 0
-37.045757 -10.965936 1.5222297 0
-36.945759 -10.965936 1.3722297 0
-36.945759 -10.965936 1.5222297 0
-37.045757 -10.965936 1.6722298 0
-36.945759 -10.965936 1.6722298 0
-37.295757 -10.965936 1.8722297 0
-37.14576 -10.965936 1.8722297 0
-37.295757 -11.015936 2.0722296 0
-37.245758 -10.965936 2.0722296 0
-37.195759 -11.015936 2.0722296 0
-36.945759 -10.965936 1.8722297 0
-37.09576 -10.965936 2.0722296 0
-37.045757 -10.965936 2.0722296 0
-36.945759 -10.965936 2.1222298 0
-36.89576 -10.965936 1.3722297 0
-36.84576 -10.965936 1.5222297 0
-36.795757 -10.965936 1.3722297 0
-36.795757 -10.965936 1.5222297 0
-36.745758 -10.965936 1.5222297 0
-36.89576 -10.965936 1.6722298 0
-36.795757 -10.965936 1.7222297 0
-36.745758 -10.965936 1.7222297 0
-36.64576 -10.965936 1.4222298 0
-36.64576 -10.965936 1.5222297 0
-36.545757 -10.965936 1.5222297 0
-36.695759 -10.965936 1.5722297 0
-36.64576 -10.965936 1.5722297 0
-36.695759 -10.965936 1.7222297 0
-36.545757 -10.965936 1.5722297 0
-36.59576 -10.965936 1.7222297 0
-36.545757 -10.965936 1.7222297 0
-36.745758 -10.965936 1.9222298 0
-36.89576 -10.965936 2.0722296 0
-36.84576 -10.965936 2.1222298 0
-36.745758 -10.965936 2.1222298 0
-36.59576 -10.965936 1.9222298 0
-36.695759 -10.965936 2.1222298 0
-36.59576 -10.965936 2.1222298 0
-37.195759 -10.965936 2.1722298 0
-37.14576 -11.065935 2.5222297 0
-37.045757 -10.965936 2.1722298 0
-36.995758 -11.015936 2.5222297 0
-37.245758 -11.115935 2.6722298 0
-37.195759 -11.115935 2.6722298 0
-37.09576 -11.065935 2.6722298 0
-37.045757 -11.065935 2.6722298 0
-36.89576 -10.965936 2.1722298 0
-36.745758 -10.965936 2.1722298 0
-36.64576 -10.965936 2.2222297 0
-36.59576 -10.965936 2.5222297 0
-36.89576 -11.065935 2.6722298 0
-36.89576 -11.065935 2.7222297 0
-36.795757 -11.115935 2.5722296 0
-36.64576 -10.965936 2.6722298 0
-36.495758 -10.965936 1.4222298 0
-36.39576 -10.965936 1.4222298 0
-36.445759 -10.965936 1.5722297 0
-36.34576 -10.965936 1.5722297 0
-36.295757 -10.965936 1.4222298 0
-36.295757 -10.965936 1.7722297 0
-36.445759 -10.965936 2.1722298 0
-36.34576 -10.965936 2.1722298 0
-36.495758 -10.965936 2.7222297 0
-38.84576 -11.065935 3.0222297 0
-38.89576 -11.065935 3.0722296 0
-38.745758 -11.065935 3.0722296 0
-38.695759 -11.065935 3.0222297 0
-38.59576 -11.065935 3.0722296 0
-38.89576 -11.065935 3.6722298 0
-38.695759 -11.065935 3.6722298 0
-38.545757 -11.065935 3.6722298 0
-38.495758 -11.065935 3.0222297 0
-38.445759 -11.065935 3.1222298 0
-38.245758 -11.065935 3.1222298 0
-38.295757 -11.015936 3.0222297 0
-38.14576 -11.015936 3.0222297 0
-38.34576 -11.015936 3.6722298 0
-38.14576 -10.965936 3.6722298 0
-38.09576 -11.015936 3.1222298 0
-37.945759 -11.115935 3.0722296 0
-37.945759 -11.115935 3.1722298 0
-37.745758 -11.115935 3.1222298 0
-37.745758 -11.115935 3.1722298 0
-37.995758 -11.065935 3.7222297 0
-37.795757 -11.065935 3.7222297 0
-37.545757 -11.115935 3.1222298 0
-37.59576 -11.115935 3.1722298 0
-37.39576 -11.115935 3.1222298 0
-37.445759 -11.065935 3.1722298 0
-37.59576 -11.015936 3.7222297 0
-37.445759 -11.015936 3.7722297 0
-37.195759 -11.065935 3.1222298 0
-37.295757 -11.115935 3.2222297 0
-37.09576 -11.115935 3.2222297 0
-36.995758 -11.065935 3.1722298 0
-36.945759 -11.065935 3.2222297 0
-36.795757 -11.115935 3.1722298 0
-36.64576 -10.965936 3.2222297 0
-37.245758 -11.015936 3.7722297 0
-37.045757 -11.015936 3.7722297 0
-36.695759 -10.965936 3.8222299 0
-42.045757 -10.365935 1.4722297 0
-41.84576 -10.415936 1.5222297 0
-41.64576 -10.415936 1.5222297 0
-41.495758 -10.415936 1.5222297 0
-42.09576 -9.4159355 1.4722297 0
-42.045757 -9.4159355 1.5222297 0
-41.995758 -9.4159355 1.4722297 0
-41.995758 -9.3659353 1.4722297 0
-41.89576 -9.4659357 1.4722297 0
-41.89576 -9.3659353 1.5222297 0
-41.84576 -9.3659353 1.4722297 0
-41.795757 -9.4659357 1.4722297 0
-41.795757 -9.3659353 1.5222297 0
-42.09576 -9.4659357 1.9722297 0
-41.695759 -9.5159349 1.4722297 0
-41.695759 -9.3659353 1.5222297 0
-41.64576 -9.3659353 1.5222297 0
-41.59576 -9.5159349 1.4722297 0
-41.545757 -9.4159355 1.5222297 0
-41.545757 -9.3659353 1.5222297 0
-41.495758 -9.5659351 1.4722297 0
-41.39576 -9.5659351 1.4722297 0
-41.39576 -9.3659353 1.5222297 0
-41.695759 -9.4159355 1.9722297 0
-41.295757 -10.465936 1.5222297 0
-41.14576 -10.465936 1.5222297 0
-40.945759 -10.515935 1.5722297 0
-40.795757 -10.515935 1.5722297 0
-40.59576 -10.515935 1.5722297 0
-41.295757 -9.6159353 1.4722297 0
-41.195759 -9.6159353 1.5222297 0
-41.245758 -9.4159355 1.5222297 0
-41.14576 -9.3659353 1.5222297 0
-41.09576 -9.6159353 1.5222297 0
-40.995758 -9.6659355 1.5222297 0
-41.09576 -9.4659357 1.5222297 0
-41.045757 -9.3659353 1.5222297 0
-40.945759 -9.4659357 1.5222297 0
-41.295757 -9.3659353 1.9722297 0
-40.945759 -9.3659353 1.9722297 0
-40.89576 -9.6659355 1.5222297 0
-40.795757 -9.6659355 1.5222297 0
-40.795757 -9.4659357 1.5222297 0
-40.695759 -9.7159357 1.5222297 0
-40.59576 -9.7159357 1.5222297 0
-40.64576 -9.4659357 1.5722297 0
-40.545757 -9.4659357 1.5722297 0
-41.295757 -9.3159351 1.5222297 0
-40.945759 -9.3159351 2.0222297 0
-40.89576 -9.3159351 1.5222297 0
-40.795757 -9.3159351 1.5222297 0
-40.64576 -9.3159351 1.5222297 0
-40.545757 -9.3159351 1.5722297 0
-40.545757 -9.3159351 1.9722297 0
-40.545757 -9.3159351 2.0222297 0
-40.545757 -9.3159351 2.5222297 0
-40.39576 -10.915936 1.9222298 0
-40.445759 -10.515935 1.5722297 0
-40.445759 -10.915936 2.3722298 0
-40.445759 -9.7659349 1.6722298 0
-40.445759 -9.7159357 1.5222297 0
-36.745758 -10.915936 -0.12777032 0
-36.64576 -10.915936 -0.17777032 0
-36.64576 -10.915936 -0.12777032 0
-36.59576 -10.915936 -0.17777032 0
-36.59576 -10.915936 -0.077770315 0
-36.545757 -10.915936 -0.12777032 0
-36.64576 -10.915936 0.12222969 0
-36.59576 -10.915936 0.072229691 0
-36.745758 -10.915936 0.22222969 0
-36.795757 -10.915936 0.52222967 0
-36.64576 -10.915936 0.22222969 0
-36.64576 -10.915936 0.2722297 0
-36.695759 -10.915936 0.52222967 0
-36.64576 -10.915936 0.47222969 0
-37.045757 -10.915936 1.2722297 0
-36.795757 -10.915936 0.82222968 0
-36.695759 -10.915936 0.77222967 0
-36.695759 -10.915936 0.82222968 0
-36.64576 -10.915936 0.77222967 0
-36.695759 -10.915936 0.8722297 0
-36.64576 -10.915936 0.8722297 0
-36.89576 -10.915936 1.2722297 0
-36.795757 -10.915936 1.1722296 0
-36.795757 -10.915936 1.2722297 0
-36.695759 -10.915936 1.0222297 0
-36.64576 -10.915936 1.0722297 0
-36.695759 -10.915936 1.1722296 0
-36.695759 -10.915936 1.2222297 0
-36.695759 -10.915936 1.2722297 0
-36.495758 -10.915936 -0.17777032 0
-36.445759 -10.915936 -0.12777032 0
-36.34576 -10.915936 -0.12777032 0
-36.34576 -10.915936 -0.077770315 0
-36.245758 -10.915936 -0.12777032 0
-36.195759 -10.915936 -0.12777032 0
-36.195759 -10.915936 -0.077770315 0
-36.14576 -10.915936 -0.12777032 0
-36.14576 -10.915936 -0.077770315 0
-36.295757 -10.915936 -0.027770313 0
-36.295757 -10.915936 0.072229691 0
-36.245758 -10.915936 0.12222969 0
-36.445759 -10.915936 0.17222969 0
-36.445759 -10.915936 0.22222969 0
-36.34576 -10.915936 0.17222969 0
-36.34576 -10.915936 0.22222969 0
-36.39576 -10.915936 0.32222968 0
-36.445759 -10.915936 0.47222969 0
-36.39576 -10.915936 0.52222967 0
-36.34576 -10.915936 0.47222969 0
-36.245758 -10.915936 0.17222969 0
-36.245758 -10.915936 0.22222969 0
-36.245758 -10.915936 0.32222968 0
-36.14576 -10.915936 0.17222969 0
-36.14576 -10.915936 0.22222969 0
-36.295757 -10.915936 0.47222969 0
-36.295757 -10.915936 0.52222967 0
-36.245758 -10.915936 0.47222969 0
-36.195759 -10.915936 0.47222969 0
-36.195759 -10.915936 0.52222967 0
-36.14576 -10.915936 0.52222967 0
-36.045757 -10.915936 -0.12777032 0
-36.045757 -10.915936 -0.077770315 0
-35.945759 -10.915936 -0.12777032 0
-35.945759 -10.915936 -0.077770315 0
-35.945759 -10.865935 -0.077770315 0
-36.09576 -10.915936 -0.027770313 0
-36.09576 -10.915936 0.12222969 0
-35.945759 -10.915936 -0.027770313 0
-35.995758 -10.915936 0.12222969 0
-35.84576 -10.915936 -0.22777031 0
-35.89576 -10.915936 -0.12777032 0
-35.84576 -10.915936 -0.12777032 0
-35.84576 -10.915936 -0.077770315 0
-35.795757 -10.915936 -0.077770315 0
-35.745758 -10.915936 -0.12777032 0
-35.745758 -10.915936 -0.077770315 0
-35.89576 -10.915936 0.12222969 0
-35.795757 -10.915936 -0.027770313 0
-35.745758 -10.865935 0.12222969 0
-36.09576 -10.915936 0.22222969 0
-36.045757 -10.915936 0.17222969 0
-36.09576 -10.915936 0.32222968 0
-36.045757 -10.915936 0.2722297 0
-35.995758 -10.915936 0.17222969 0
-35.995758 -10.915936 0.22222969 0
-35.945759 -10.915936 0.2722297 0
-35.945759 -10.915936 0.32222968 0
-36.09576 -10.915936 0.47222969 0
-36.09576 -10.915936 0.52222967 0
-35.995758 -10.915936 0.47222969 0
-35.995758 -10.915936 0.52222967 0
-35.89576 -10.915936 0.22222969 0
-35.84576 -10.915936 0.17222969 0
-35.795757 -10.915936 0.22222969 0
-35.745758 -10.915936 0.17222969 0
-35.795757 -10.915936 0.2722297 0
-35.89576 -10.915936 0.52222967 0
-35.84576 -10.915936 0.47222969 0
-35.795757 -10.915936 0.3722297 0
-35.795757 -10.915936 0.52222967 0
-35.795757 -10.865935 0.52222967 0
-36.495758 -10.915936 0.57222968 0
-36.34576 -10.915936 0.72222972 0
-36.495758 -10.915936 0.82222968 0
-36.39576 -10.915936 0.77222967 0
-36.39576 -10.915936 0.82222968 0
-36.195759 -10.915936 0.57222968 0
-36.14576 -10.915936 0.72222972 0
-36.295757 -10.915936 0.77222967 0
-36.295757 -10.915936 0.82222968 0
-36.245758 -10.915936 0.77222967 0
-36.295757 -10.915936 0.92222971 0
-36.195759 -10.915936 0.77222967 0
-36.195759 -10.915936 0.8722297 0
-36.195759 -10.915936 0.92222971 0
-36.14576 -10.915936 0.92222971 0
-36.34576 -10.915936 1.0222297 0
-36.445759 -10.915936 1.2722297 0
-36.445759 -10.915936 1.3222297 0
-36.34576 -10.915936 1.3222297 0
-36.295757 -10.915936 1.0722297 0
-36.195759 -10.915936 1.0722297 0
-36.295757 -10.915936 1.1722296 0
-36.295757 -10.915936 1.2222297 0
-36.295757 -10.915936 1.2722297 0
-36.295757 -10.915936 1.3222297 0
-36.195759 -10.915936 1.1722296 0
-36.195759 -10.915936 1.2722297 0
-36.195759 -10.915936 1.3222297 0
-36.14576 -10.915936 1.2722297 0
-36.14576 -10.915936 1.3222297 0
-36.045757 -10.915936 0.57222968 0
-35.945759 -10.915936 0.57222968 0
-35.945759 -10.915936 0.72222972 0
-36.09576 -10.915936 0.77222967 0
-36.09576 -10.915936 0.82222968 0
-36.09576 -10.915936 0.92222971 0
-35.995758 -10.915936 0.77222967 0
-35.945759 -10.915936 0.82222968 0
-35.995758 -10.915936 0.8722297 0
-35.995758 -10.915936 0.92222971 0
-35.89576 -10.915936 0.57222968 0
-35.795757 -10.915936 0.6222297 0
-35.745758 -10.915936 0.57222968 0
-35.745758 -10.915936 0.72222972 0
-35.89576 -10.915936 0.82222968 0
-35.84576 -10.915936 0.82222968 0
-35.89576 -10.915936 0.92222971 0
-35.795757 -10.915936 0.82222968 0
-35.745758 -10.915936 0.82222968 0
-35.795757 -10.915936 0.8722297 0
-36.045757 -10.915936 0.97222972 0
-36.09576 -10.915936 1.1222297 0
-36.045757 -10.915936 1.1222297 0
-35.995758 -10.915936 1.0722297 0
-36.09576 -10.915936 1.1722296 0
-36.045757 -10.915936 1.1722296 0
-36.09576 -10.915936 1.2722297 0
-35.945759 -10.915936 1.1722296 0
-35.995758 -10.915936 1.2722297 0
-35.995758 -10.915936 1.3222297 0
-35.89576 -10.915936 0.97222972 0
-35.89576 -10.915936 1.1222297 0
-35.84576 -10.865935 1.0722297 0
-35.795757 -10.915936 0.97222972 0
-35.745758 -10.915936 1.1222297 0
-35.84576 -10.915936 1.1722296 0
-35.84576 -10.915936 1.2722297 0
-35.84576 -10.915936 1.3222297 0
-35.745758 -10.915936 1.1722296 0
-36.59576 -10.915936 2.1222298 0
-36.795757 -10.915936 2.6722298 0
-36.745758 -10.915936 2.6722298 0
-36.59576 -10.915936 2.6722298 0
-36.445759 -10.915936 1.5222297 0
-36.34576 -10.915936 1.5222297 0
-36.445759 -10.915936 1.7222297 0
-36.39576 -10.915936 1.5722297 0
-36.245758 -10.915936 1.4222298 0
-36.245758 -10.915936 1.5222297 0
-36.14576 -10.915936 1.4222298 0
-36.14576 -10.915936 1.4722297 0
-36.245758 -10.915936 1.6222297 0
-36.295757 -10.915936 1.7222297 0
-36.195759 -10.915936 1.5722297 0
-36.14576 -10.915936 1.6222297 0
-36.39576 -10.915936 1.9222298 0
-36.39576 -10.915936 2.1222298 0
-36.195759 -10.915936 1.7722297 0
-36.14576 -10.915936 1.7722297 0
-36.195759 -10.915936 1.9222298 0
-36.045757 -10.915936 1.3722297 0
-36.045757 -10.915936 1.4222298 0
-36.045757 -10.915936 1.4722297 0
-35.945759 -10.915936 1.4722297 0
-36.045757 -10.915936 1.6222297 0
-35.945759 -10.915936 1.6222297 0
-35.89576 -10.915936 1.3722297 0
-35.89576 -10.915936 1.4222298 0
-35.84576 -10.915936 1.4722297 0
-35.795757 -10.915936 1.3722297 0
-35.745758 -10.915936 1.4222298 0
-35.745758 -10.915936 1.4722297 0
-35.84576 -10.915936 1.6222297 0
-36.09576 -10.915936 1.7722297 0
-35.995758 -10.915936 1.7722297 0
-35.945759 -10.915936 1.7722297 0
-35.995758 -10.915936 1.9722297 0
-35.89576 -10.915936 1.7722297 0
-35.84576 -10.915936 1.8222297 0
-35.745758 -10.915936 1.8222297 0
-35.84576 -10.915936 1.9722297 0
-36.495758 -10.915936 2.2222297 0
-36.34576 -10.915936 2.2222297 0
-36.245758 -10.915936 2.1722298 0
-36.195759 -10.915936 2.1722298 0
-36.195759 -10.915936 2.2222297 0
-36.445759 -10.915936 2.5722296 0
-36.445759 -10.915936 2.6722298 0
-36.34576 -10.915936 2.7222297 0
-36.245758 -10.915936 2.5722296 0
-36.245758 -10.915936 2.7222297 0
-36.195759 -10.915936 2.7222297 0
-36.09576 -10.915936 2.2222297 0
-36.045757 -10.915936 2.1722298 0
-36.045757 -10.915936 2.2722297 0
-35.945759 -10.915936 2.2222297 0
-35.89576 -10.915936 2.1722298 0
-35.84576 -10.915936 2.2222297 0
-35.89576 -10.915936 2.2722297 0
-35.745758 -10.915936 2.1722298 0
-35.745758 -10.915936 2.2722297 0
-36.045757 -10.915936 2.5722296 0
-36.09576 -10.915936 2.7222297 0
-35.945759 -10.915936 2.7222297 0
-36.09576 -10.915936 2.7722297 0
-35.945759 -10.915936 2.7722297 0
-35.84576 -10.915936 2.5722296 0
-35.795757 -10.915936 2.7722297 0
-35.745758 -10.865935 2.7722297 0
-36.795757 -10.915936 3.2222297 0
-36.64576 -10.915936 3.1722298 0
-36.84576 -10.915936 3.7722297 0
-36.445759 -10.915936 3.1722298 0
-36.445759 -10.915936 3.2722297 0
-36.295757 -10.915936 3.1722298 0
-36.295757 -10.915936 3.2722297 0
-36.14576 -10.915936 3.2722297 0
-36.09576 -10.915936 3.2222297 0
-35.945759 -10.915936 3.3222296 0
-35.89576 -10.915936 3.2222297 0
-35.795757 -10.915936 3.3222296 0
-36.495758 -10.915936 3.8222299 0
-36.295757 -10.915936 3.8222299 0
-36.09576 -10.915936 3.8722298 0
-35.945759 -10.915936 3.8722298 0
-35.745758 -10.865935 3.9222298 0
-33.59576 -14.815935 -0.12777032 0
-33.64576 -14.665936 -0.077770315 0
-33.64576 -14.815935 0.32222968 0
-33.64576 -14.715936 0.3722297 0
-33.64576 -14.815935 0.77222967 0
-33.64576 -14.715936 0.82222968 0
-33.695759 -14.815935 1.2222297 0
-33.695759 -14.665936 1.3222297 0
-33.695759 -14.815935 1.6722298 0
-33.695759 -14.715936 1.7722297 0
-33.745758 -14.715936 2.2222297 0
-33.745758 -14.715936 2.7222297 0
-33.695759 -14.865935 2.1722298 0
-33.64576 -14.015936 -0.12777032 0
-33.695759 -14.015936 0.2722297 0
-33.745758 -14.015936 1.1222297 0
-33.695759 -14.015936 0.67222971 0
-33.745758 -13.265936 0.22222969 0
-33.745758 -12.665936 -0.22777031 0
-33.745758 -12.615935 0.17222969 0
-33.795757 -12.665936 0.52222967 0
-33.695759 -13.265936 -0.17777032 0
-33.745758 -13.265936 0.6222297 0
-33.745758 -13.265936 1.0222297 0
-33.795757 -12.665936 0.92222971 0
-33.795757 -12.665936 1.2722297 0
-33.745758 -14.015936 1.5222297 0
-33.745758 -14.015936 1.9722297 0
-33.795757 -13.315935 1.4222298 0
-33.795757 -13.265936 1.8222297 0
-33.84576 -12.665936 1.6722298 0
-33.795757 -12.065935 -0.22777031 0
-33.795757 -12.065935 0.12222969 0
-33.795757 -12.065935 0.47222969 0
-33.84576 -12.065935 0.82222968 0
-33.84576 -12.065935 1.1722296 0
-33.795757 -11.565935 0.072229691 0
-33.84576 -11.565935 0.42222971 0
-33.84576 -11.565935 0.72222972 0
-33.84576 -11.565935 1.0722297 0
-33.84576 -12.065935 1.5222297 0
-33.89576 -11.565935 1.4222298 0
-35.695759 -10.915936 -0.22777031 0
-35.695759 -10.865935 -0.12777032 0
-35.64576 -10.865935 -0.077770315 0
-35.59576 -10.865935 -0.22777031 0
-35.59576 -10.915936 -0.12777032 0
-35.59576 -10.865935 -0.12777032 0
-35.59576 -10.865935 -0.077770315 0
-35.64576 -10.915936 -0.027770313 0
-35.59576 -10.915936 0.022229688 0
-35.545757 -10.865935 0.12222969 0
-35.445759 -10.865935 -0.22777031 0
-35.495758 -10.865935 -0.077770315 0
-35.445759 -10.915936 -0.077770315 0
-35.34576 -10.865935 -0.22777031 0
-35.39576 -10.865935 -0.077770315 0
-35.495758 -10.865935 -0.027770313 0
-35.445759 -10.865935 0.022229688 0
-35.39576 -10.865935 -0.027770313 0
-35.695759 -10.865935 0.17222969 0
-35.695759 -10.865935 0.22222969 0
-35.64576 -10.865935 0.2722297 0
-35.59576 -10.915936 0.22222969 0
-35.59576 -10.865935 0.17222969 0
-35.59576 -10.865935 0.22222969 0
-35.545757 -10.915936 0.2722297 0
-35.64576 -10.865935 0.3722297 0
-35.695759 -10.915936 0.52222967 0
-35.64576 -10.915936 0.52222967 0
-35.64576 -10.865935 0.52222967 0
-35.59576 -10.915936 0.52222967 0
-35.545757 -10.915936 0.52222967 0
-35.495758 -10.865935 0.17222969 0
-35.495758 -10.865935 0.22222969 0
-35.445759 -10.865935 0.22222969 0
-35.445759 -10.865935 0.32222968 0
-35.39576 -10.865935 0.22222969 0
-35.34576 -10.865935 0.17222969 0
-35.34576 -10.865935 0.22222969 0
-35.34576 -10.865935 0.32222968 0
-35.495758 -10.915936 0.3722297 0
-35.495758 -10.915936 0.52222967 0
-35.445759 -10.865935 0.52222967 0
-35.34576 -10.865935 0.3722297 0
-35.39576 -10.865935 0.52222967 0
-35.34576 -10.865935 0.52222967 0
-35.295757 -10.865935 -0.077770315 0
-35.245758 -10.865935 -0.077770315 0
-35.195759 -10.865935 -0.22777031 0
-35.195759 -10.865935 -0.077770315 0
-35.14576 -10.865935 -0.077770315 0
-35.295757 -10.865935 -0.027770313 0
-35.295757 -10.865935 0.022229688 0
-35.195759 -10.865935 -0.027770313 0
-35.09576 -10.865935 -0.17777032 0
-35.09576 -10.865935 -0.077770315 0
-35.045757 -10.865935 -0.077770315 0
-34.945759 -10.865935 -0.17777032 0
-34.945759 -10.865935 -0.077770315 0
-34.995758 -10.815935 -0.077770315 0
-35.09576 -10.865935 -0.027770313 0
-35.09576 -10.865935 0.022229688 0
-34.995758 -10.865935 0.022229688 0
-34.945759 -10.865935 0.072229691 0
-35.295757 -10.865935 0.22222969 0
-35.245758 -10.865935 0.22222969 0
-35.245758 -10.865935 0.32222968 0
-35.195759 -10.865935 0.22222969 0
-35.14576 -10.865935 0.17222969 0
-35.14576 -10.865935 0.22222969 0
-35.295757 -10.865935 0.52222967 0
-35.245758 -10.865935 0.52222967 0
-35.195759 -10.865935 0.3722297 0
-35.14576 -10.865935 0.52222967 0
-35.09576 -10.865935 0.22222969 0
-35.045757 -10.865935 0.22222969 0
-35.09576 -10.865935 0.32222968 0
-34.945759 -10.865935 0.17222969 0
-34.945759 -10.865935 0.22222969 0
-34.995758 -10.865935 0.32222968 0
-35.045757 -10.865935 0.42222971 0
-35.09576 -10.865935 0.52222967 0
-34.995758 -10.865935 0.52222967 0
-35.64576 -10.915936 0.6222297 0
-35.64576 -10.865935 0.57222968 0
-35.545757 -10.865935 0.6222297 0
-35.64576 -10.915936 0.82222968 0
-35.695759 -10.915936 0.8722297 0
-35.545757 -10.915936 0.82222968 0
-35.545757 -10.865935 0.77222967 0
-35.59576 -10.865935 0.8722297 0
-35.545757 -10.915936 0.8722297 0
-35.495758 -10.865935 0.57222968 0
-35.445759 -10.865935 0.6222297 0
-35.39576 -10.865935 0.6222297 0
-35.34576 -10.865935 0.67222971 0
-35.445759 -10.865935 0.82222968 0
-35.495758 -10.915936 0.8722297 0
-35.445759 -10.865935 0.8722297 0
-35.39576 -10.865935 0.77222967 0
-35.34576 -10.865935 0.82222968 0
-35.39576 -10.865935 0.8722297 0
-35.34576 -10.865935 0.8722297 0
-35.695759 -10.915936 0.97222972 0
-35.64576 -10.865935 0.97222972 0
-35.64576 -10.915936 1.0722297 0
-35.64576 -10.915936 1.1222297 0
-35.59576 -10.915936 0.97222972 0
-35.545757 -10.865935 1.1222297 0
-35.64576 -10.915936 1.1722296 0
-35.695759 -10.915936 1.3222297 0
-35.695759 -10.865935 1.3222297 0
-35.545757 -10.865935 1.1722296 0
-35.59576 -10.915936 1.3222297 0
-35.545757 -10.915936 1.3222297 0
-35.495758 -10.915936 1.0222297 0
-35.445759 -10.915936 0.97222972 0
-35.495758 -10.915936 1.1222297 0
-35.495758 -10.865935 1.1222297 0
-35.39576 -10.865935 1.0222297 0
-35.34576 -10.865935 0.97222972 0
-35.39576 -10.865935 1.1222297 0
-35.34576 -10.865935 1.1222297 0
-35.445759 -10.865935 1.1722296 0
-35.495758 -10.915936 1.3222297 0
-35.34576 -10.865935 1.1722296 0
-35.39576 -10.865935 1.3222297 0
-35.295757 -10.865935 0.57222968 0
-35.245758 -10.865935 0.6222297 0
-35.245758 -10.865935 0.67222971 0
-35.14576 -10.865935 0.57222968 0
-35.14576 -10.865935 0.67222971 0
-35.295757 -10.865935 0.82222968 0
-35.245758 -10.865935 0.8722297 0
-35.195759 -10.865935 0.77222967 0
-35.195759 -10.865935 0.82222968 0
-35.14576 -10.865935 0.8722297 0
-35.09576 -10.865935 0.6222297 0
-35.045757 -10.865935 0.57222968 0
-35.045757 -10.865935 0.67222971 0
-34.995758 -10.865935 0.6222297 0
-34.945759 -10.865935 0.57222968 0
-35.09576 -10.865935 0.8722297 0
-35.045757 -10.865935 0.8722297 0
-34.995758 -10.865935 0.77222967 0
-34.995758 -10.865935 0.8722297 0
-34.945759 -10.865935 0.8722297 0
-34.945759 -10.815935 0.92222971 0
-35.245758 -10.865935 1.0222297 0
-35.295757 -10.865935 1.1222297 0
-35.14576 -10.865935 1.0222297 0
-35.14576 -10.865935 1.1222297 0
-35.245758 -10.865935 1.1722296 0
-35.195759 -10.865935 1.1722296 0
-35.14576 -10.865935 1.1722296 0
-35.045757 -10.865935 1.0222297 0
-34.945759 -10.865935 1.0222297 0
-34.995758 -10.865935 1.0722297 0
-35.09576 -10.865935 1.1722296 0
-35.045757 -10.865935 1.1722296 0
-34.995758 -10.865935 1.1722296 0
-34.995758 -10.815935 1.1722296 0
-34.89576 -10.865935 -0.077770315 0
-34.84576 -10.865935 -0.077770315 0
-34.795757 -10.815935 -0.17777032 0
-34.795757 -10.815935 -0.077770315 0
-34.745758 -10.815935 -0.077770315 0
-34.89576 -10.815935 0.022229688 0
-34.745758 -10.865935 0.022229688 0
-34.745758 -10.815935 0.072229691 0
-34.695759 -10.815935 -0.17777032 0
-34.545757 -10.815935 -0.17777032 0
-34.64576 -10.865935 0.022229688 0
-34.695759 -10.815935 -0.027770313 0
-34.64576 -10.815935 -0.027770313 0
-34.59576 -10.815935 -0.027770313 0
-34.545757 -10.815935 -0.027770313 0
-34.545757 -10.815935 0.022229688 0
-34.59576 -10.815935 0.072229691 0
-34.84576 -10.865935 0.22222969 0
-34.795757 -10.815935 0.17222969 0
-34.795757 -10.815935 0.2722297 0
-34.89576 -10.865935 0.3722297 0
-34.89576 -10.865935 0.42222971 0
-34.795757 -10.865935 0.3722297 0
-34.745758 -10.865935 0.42222971 0
-34.695759 -10.865935 0.2722297 0
-34.695759 -10.815935 0.22222969 0
-34.695759 -10.815935 0.2722297 0
-34.64576 -10.815935 0.2722297 0
-34.545757 -10.865935 0.2722297 0
-34.59576 -10.815935 0.22222969 0
-34.59576 -10.815935 0.2722297 0
-34.59576 -10.815935 0.32222968 0
-34.545757 -10.815935 0.2722297 0
-34.695759 -10.865935 0.3722297 0
-34.59576 -10.815935 0.3722297 0
-34.59576 -10.815935 0.42222971 0
-34.39576 -10.815935 -0.12777032 0
-34.495758 -10.815935 -0.027770313 0
-34.445759 -10.815935 -0.027770313 0
-34.445759 -10.815935 0.022229688 0
-34.39576 -10.815935 -0.027770313 0
-34.34576 -10.815935 -0.027770313 0
-34.34576 -10.765935 -0.027770313 0
-34.39576 -10.815935 0.072229691 0
-34.34576 -10.815935 0.072229691 0
-34.245758 -10.815935 -0.12777032 0
-34.14576 -10.815935 -0.12777032 0
-34.295757 -10.815935 -0.027770313 0
-34.245758 -10.815935 -0.027770313 0
-34.245758 -10.815935 0.12222969 0
-34.195759 -10.815935 -0.027770313 0
-34.14576 -10.815935 -0.027770313 0
-34.195759 -10.815935 0.072229691 0
-34.495758 -10.815935 0.2722297 0
-34.445759 -10.815935 0.2722297 0
-34.39576 -10.815935 0.22222969 0
-34.39576 -10.815935 0.2722297 0
-34.39576 -10.815935 0.32222968 0
-34.445759 -10.815935 0.3722297 0
-34.445759 -10.815935 0.47222969 0
-34.34576 -10.815935 0.42222971 0
-34.295757 -10.815935 0.2722297 0
-34.245758 -10.815935 0.32222968 0
-34.195759 -10.765935 0.22222969 0
-34.195759 -10.765935 0.2722297 0
-34.14576 -10.815935 0.2722297 0
-34.245758 -10.815935 0.42222971 0
-34.295757 -10.815935 0.47222969 0
-34.14576 -10.765935 0.42222971 0
-34.14576 -10.815935 0.47222969 0
-34.89576 -10.865935 0.57222968 0
-34.89576 -10.865935 0.67222971 0
-34.84576 -10.865935 0.67222971 0
-34.795757 -10.865935 0.57222968 0
-34.795757 -10.865935 0.72222972 0
-34.795757 -10.815935 0.57222968 0
-34.795757 -10.815935 0.6222297 0
-34.745758 -10.815935 0.67222971 0
-34.89576 -10.865935 0.8722297 0
-34.795757 -10.865935 0.82222968 0
-34.795757 -10.865935 0.8722297 0
-34.795757 -10.815935 0.92222971 0
-34.695759 -10.865935 0.57222968 0
-34.695759 -10.865935 0.72222972 0
-34.695759 -10.815935 0.6222297 0
-34.64576 -10.815935 0.57222968 0
-34.59576 -10.815935 0.57222968 0
-34.59576 -10.815935 0.6222297 0
-34.59576 -10.815935 0.67222971 0
-34.59576 -10.815935 0.72222972 0
-34.695759 -10.865935 0.8722297 0
-34.695759 -10.815935 0.8722297 0
-34.695759 -10.815935 0.92222971 0
-34.59576 -10.815935 0.82222968 0
-34.59576 -10.815935 0.8722297 0
-34.59576 -10.815935 0.92222971 0
-34.545757 -10.815935 0.8722297 0
-34.89576 -10.865935 1.0722297 0
-34.84576 -10.815935 1.0722297 0
-34.745758 -10.815935 1.0722297 0
-34.89576 -10.865935 1.1722296 0
-34.84576 -10.865935 1.1722296 0
-34.84576 -10.815935 1.1722296 0
-34.795757 -10.865935 1.1722296 0
-34.745758 -10.815935 1.1722296 0
-34.745758 -10.815935 1.2722297 0
-34.695759 -10.815935 1.0722297 0
-34.59576 -10.815935 1.0722297 0
-34.695759 -10.815935 1.1722296 0
-34.64576 -10.815935 1.1722296 0
-34.64576 -10.815935 1.2222297 0
-34.64576 -10.815935 1.2722297 0
-34.59576 -10.815935 1.1722296 0
-34.545757 -10.815935 1.2222297 0
-34.545757 -10.815935 1.2722297 0
-34.495758 -10.815935 0.57222968 0
-34.495758 -10.815935 0.6222297 0
-34.445759 -10.815935 0.6222297 0
-34.495758 -10.815935 0.72222972 0
-34.445759 -10.815935 0.67222971 0
-34.39576 -10.815935 0.57222968 0
-34.39576 -10.815935 0.6222297 0
-34.495758 -10.815935 0.8722297 0
-34.495758 -10.815935 0.92222971 0
-34.445759 -10.815935 0.8722297 0
-34.445759 -10.815935 0.92222971 0
-34.39576 -10.815935 0.82222968 0
-34.34576 -10.815935 0.77222967 0
-34.39576 -10.815935 0.8722297 0
-34.34576 -10.815935 0.92222971 0
-34.295757 -10.815935 0.57222968 0
-34.245758 -10.815935 0.6222297 0
-34.295757 -10.815935 0.67222971 0
-34.295757 -10.815935 0.72222972 0
-34.195759 -10.815935 0.57222968 0
-34.195759 -10.815935 0.6222297 0
-34.195759 -10.815935 0.72222972 0
-34.245758 -10.815935 0.77222967 0
-34.295757 -10.815935 0.8722297 0
-34.14576 -10.815935 0.77222967 0
-34.195759 -10.815935 0.8722297 0
-34.195759 -10.815935 0.92222971 0
-34.14576 -10.815935 0.8722297 0
-34.14576 -10.815935 0.92222971 0
-34.495758 -10.815935 1.0722297 0
-34.495758 -10.815935 1.1222297 0
-34.39576 -10.815935 1.1222297 0
-34.34576 -10.815935 1.1222297 0
-34.495758 -10.815935 1.1722296 0
-34.445759 -10.815935 1.2222297 0
-34.445759 -10.815935 1.2722297 0
-34.39576 -10.815935 1.1722296 0
-34.34576 -10.815935 1.2222297 0
-34.295757 -10.815935 0.97222972 0
-34.245758 -10.815935 1.1222297 0
-34.14576 -10.815935 0.97222972 0
-34.195759 -10.815935 1.1222297 0
-34.14576 -10.815935 1.1222297 0
-34.295757 -10.815935 1.2222297 0
-34.245758 -10.815935 1.2222297 0
-34.295757 -10.815935 1.2722297 0
-34.195759 -10.815935 1.2222297 0
-34.14576 -10.815935 1.2222297 0
-34.14576 -10.815935 1.2722297 0
-35.695759 -10.865935 1.4222298 0
-35.64576 -10.915936 1.4222298 0
-35.64576 -10.865935 1.4722297 0
-35.59576 -10.865935 1.3722297 0
-35.545757 -10.865935 1.4222298 0
-35.59576 -10.865935 1.4722297 0
-35.545757 -10.865935 1.4722297 0
-35.695759 -10.865935 1.6222297 0
-35.695759 -10.915936 1.6722298 0
-35.59576 -10.915936 1.6722298 0
-35.545757 -10.865935 1.6722298 0
-35.495758 -10.865935 1.4722297 0
-35.445759 -10.915936 1.4722297 0
-35.39576 -10.865935 1.3722297 0
-35.39576 -10.865935 1.4222298 0
-35.39576 -10.915936 1.4722297 0
-35.34576 -10.865935 1.4722297 0
-35.495758 -10.915936 1.6722298 0
-35.39576 -10.865935 1.6722298 0
-35.34576 -10.865935 1.6722298 0
-35.695759 -10.865935 1.8222297 0
-35.59576 -10.915936 1.8222297 0
-35.545757 -10.865935 1.8222297 0
-35.64576 -10.865935 1.9722297 0
-35.445759 -10.865935 1.8222297 0
-35.445759 -10.865935 1.8722297 0
-35.445759 -10.865935 2.0222297 0
-35.295757 -10.865935 1.3722297 0
-35.295757 -10.865935 1.4222298 0
-35.245758 -10.865935 1.3722297 0
-35.295757 -10.865935 1.4722297 0
-35.245758 -10.865935 1.4722297 0
-35.195759 -10.865935 1.3722297 0
-35.195759 -10.865935 1.4722297 0
-35.14576 -10.865935 1.4722297 0
-35.295757 -10.865935 1.7222297 0
-35.195759 -10.865935 1.6722298 0
-35.195759 -10.865935 1.7222297 0
-35.09576 -10.865935 1.3722297 0
-35.045757 -10.865935 1.3722297 0
-35.045757 -10.865935 1.4222298 0
-35.09576 -10.865935 1.4722297 0
-35.045757 -10.865935 1.4722297 0
-34.945759 -10.865935 1.3722297 0
-34.995758 -10.865935 1.5222297 0
-34.945759 -10.865935 1.4722297 0
-34.945759 -10.815935 1.3722297 0
-35.09576 -10.865935 1.7222297 0
-35.045757 -10.865935 1.7222297 0
-35.295757 -10.865935 1.8222297 0
-35.295757 -10.865935 1.8722297 0
-35.195759 -10.865935 1.8722297 0
-35.14576 -10.865935 1.8722297 0
-35.245758 -10.815935 2.0222297 0
-35.045757 -10.865935 1.9222298 0
-34.995758 -10.865935 1.7722297 0
-34.995758 -10.865935 1.8722297 0
-34.945759 -10.815935 1.9222298 0
-35.045757 -10.865935 2.0222297 0
-35.695759 -10.915936 2.2222297 0
-35.545757 -10.915936 2.2222297 0
-35.59576 -10.865935 2.2722297 0
-35.59576 -10.865935 2.3222296 0
-35.445759 -10.865935 2.2722297 0
-35.445759 -10.865935 2.3222296 0
-35.39576 -10.865935 2.2222297 0
-35.34576 -10.865935 2.2722297 0
-35.695759 -10.865935 2.6222298 0
-35.64576 -10.915936 2.8222296 0
-35.59576 -10.865935 2.7722297 0
-35.495758 -10.865935 2.6222298 0
-35.495758 -10.865935 2.8222296 0
-35.445759 -10.865935 2.7722297 0
-35.34576 -10.865935 2.8222296 0
-35.245758 -10.865935 2.2222297 0
-35.295757 -10.865935 2.3222296 0
-35.195759 -10.865935 2.3222296 0
-35.14576 -10.865935 2.3722298 0
-35.09576 -10.865935 2.3222296 0
-35.045757 -10.865935 2.2722297 0
-34.945759 -10.865935 2.3222296 0
-34.995758 -10.865935 2.3722298 0
-35.295757 -10.865935 2.6222298 0
-35.245758 -10.865935 2.8222296 0
-35.195759 -10.865935 2.8722298 0
-35.09576 -10.815935 2.6722298 0
-35.09576 -10.865935 2.8222296 0
-35.045757 -10.865935 2.8722298 0
-34.84576 -10.865935 1.4222298 0
-34.89576 -10.865935 1.4722297 0
-34.84576 -10.865935 1.5222297 0
-34.84576 -10.815935 1.5222297 0
-34.795757 -10.865935 1.4222298 0
-34.745758 -10.865935 1.4222298 0
-34.745758 -10.865935 1.5222297 0
-34.84576 -10.865935 1.7222297 0
-34.745758 -10.815935 1.5722297 0
-34.64576 -10.815935 1.4222298 0
-34.695759 -10.815935 1.5222297 0
-34.64576 -10.815935 1.5222297 0
-34.59576 -10.815935 1.5222297 0
-34.545757 -10.815935 1.4722297 0
-34.545757 -10.815935 1.5222297 0
-34.64576 -10.815935 1.5722297 0
-34.695759 -10.815935 1.7222297 0
-34.545757 -10.815935 1.5722297 0
-34.84576 -10.865935 1.7722297 0
-34.795757 -10.865935 1.8722297 0
-34.745758 -10.815935 1.7722297 0
-34.795757 -10.815935 1.9222298 0
-34.89576 -10.815935 2.0722296 0
-34.64576 -10.865935 1.8222297 0
-34.64576 -10.865935 1.9222298 0
-34.695759 -10.815935 1.9222298 0
-34.545757 -10.815935 1.8222297 0
-34.695759 -10.815935 2.0722296 0
-34.545757 -10.815935 1.9722297 0
-34.495758 -10.815935 1.4222298 0
-34.495758 -10.815935 1.5222297 0
-34.445759 -10.815935 1.4722297 0
-34.445759 -10.815935 1.5222297 0
-34.34576 -10.815935 1.4222298 0
-34.39576 -10.815935 1.4722297 0
-34.34576 -10.815935 1.5222297 0
-34.445759 -10.815935 1.5722297 0
-34.34576 -10.815935 1.5722297 0
-34.295757 -10.815935 1.4722297 0
-34.245758 -10.815935 1.4722297 0
-34.245758 -10.815935 1.5222297 0
-34.195759 -10.815935 1.4722297 0
-34.195759 -10.815935 1.5222297 0
-34.14576 -10.815935 1.5222297 0
-34.295757 -10.815935 1.5722297 0
-34.245758 -10.815935 1.5722297 0
-34.14576 -10.815935 1.5722297 0
-34.495758 -10.815935 1.7722297 0
-34.445759 -10.815935 1.8222297 0
-34.495758 -10.815935 1.9222298 0
-34.34576 -10.815935 1.7722297 0
-34.34576 -10.815935 1.9222298 0
-34.495758 -10.815935 2.0722296 0
-34.39576 -10.815935 1.9722297 0
-34.295757 -10.815935 1.8722297 0
-34.14576 -10.815935 1.7722297 0
-34.195759 -10.815935 1.8722297 0
-34.245758 -10.815935 2.0222297 0
-34.295757 -10.765935 2.1222298 0
-34.195759 -10.815935 1.9722297 0
-34.89576 -10.815935 2.2722297 0
-34.84576 -10.815935 2.3722298 0
-34.795757 -10.865935 2.3722298 0
-34.695759 -10.815935 2.3222296 0
-34.545757 -10.815935 2.3222296 0
-34.695759 -10.815935 2.3722298 0
-34.695759 -10.815935 2.4222298 0
-34.545757 -10.815935 2.4222298 0
-34.89576 -10.815935 2.6722298 0
-34.89576 -10.815935 2.8722298 0
-34.745758 -10.815935 2.8722298 0
-34.745758 -10.815935 2.9222298 0
-34.695759 -10.815935 2.7222297 0
-34.59576 -10.815935 2.9222298 0
-34.545757 -10.815935 2.8722298 0
-34.34576 -10.815935 2.3222296 0
-34.39576 -10.815935 2.4222298 0
-34.39576 -10.815935 2.4722297 0
-34.295757 -10.815935 2.4222298 0
-34.245758 -10.815935 2.4722297 0
-34.195759 -10.815935 2.3722298 0
-34.14576 -10.815935 2.4722297 0
-34.495758 -10.815935 2.7222297 0
-34.34576 -10.765935 2.7222297 0
-34.39576 -10.815935 2.9222298 0
-34.14576 -10.765935 2.7722297 0
-34.195759 -10.815935 2.9222298 0
-33.995758 -10.815935 -0.12777032 0
-34.09576 -10.815935 -0.027770313 0
-34.09576 -10.765935 -0.027770313 0
-34.09576 -10.815935 0.072229691 0
-34.045757 -10.815935 0.12222969 0
-33.995758 -10.815935 -0.027770313 0
-33.945759 -10.765935 0.022229688 0
-33.995758 -10.815935 0.072229691 0
-33.995758 -10.715936 -0.027770313 0
-33.945759 -10.715936 -0.027770313 0
-33.89576 -10.715936 -0.12777032 0
-33.745758 -10.715936 -0.22777031 0
-33.745758 -10.715936 -0.077770315 0
-33.89576 -10.715936 -0.027770313 0
-33.84576 -10.715936 0.022229688 0
-33.89576 -10.715936 0.072229691 0
-33.89576 -10.715936 0.12222969 0
-33.795757 -10.715936 -0.027770313 0
-33.795757 -10.715936 0.022229688 0
-33.745758 -10.715936 0.022229688 0
-33.795757 -10.715936 0.12222969 0
-33.745758 -10.715936 0.12222969 0
-34.09576 -10.765935 0.2722297 0
-34.09576 -10.765935 0.32222968 0
-33.995758 -10.765935 0.22222969 0
-33.995758 -10.815935 0.32222968 0
-33.995758 -10.815935 0.42222971 0
-33.945759 -10.765935 0.47222969 0
-33.995758 -10.715936 0.2722297 0
-33.995758 -10.715936 0.32222968 0
-33.945759 -10.715936 0.32222968 0
-33.89576 -10.715936 0.2722297 0
-33.89576 -10.715936 0.32222968 0
-33.84576 -10.715936 0.2722297 0
-33.84576 -10.715936 0.32222968 0
-33.795757 -10.715936 0.2722297 0
-33.795757 -10.715936 0.32222968 0
-33.745758 -10.715936 0.32222968 0
-33.89576 -10.715936 0.42222971 0
-33.84576 -10.715936 0.52222967 0
-33.795757 -10.715936 0.47222969 0
-34.09576 -10.765935 0.57222968 0
-34.09576 -10.765935 0.6222297 0
-34.045757 -10.815935 0.6222297 0
-34.09576 -10.815935 0.67222971 0
-34.045757 -10.815935 0.72222972 0
-33.995758 -10.765935 0.57222968 0
-33.945759 -10.765935 0.72222972 0
-34.045757 -10.765935 0.77222967 0
-34.045757 -10.815935 0.92222971 0
-34.045757 -10.765935 0.8722297 0
-33.945759 -10.765935 0.82222968 0
-33.945759 -10.765935 0.8722297 0
-33.945759 -10.715936 0.57222968 0
-33.945759 -10.715936 0.6222297 0
-33.945759 -10.715936 0.67222971 0
-33.945759 -10.715936 0.92222971 0
-33.84576 -10.765935 0.8722297 0
-33.84576 -10.765935 0.92222971 0
-33.84576 -10.715936 0.57222968 0
-33.84576 -10.715936 0.6222297 0
-33.795757 -10.715936 0.6222297 0
-33.745758 -10.715936 0.6222297 0
-33.795757 -10.715936 0.72222972 0
-33.745758 -10.715936 0.67222971 0
-33.84576 -10.715936 0.8722297 0
-33.84576 -10.715936 0.92222971 0
-33.795757 -10.715936 0.82222968 0
-33.995758 -10.765935 0.97222972 0
-34.045757 -10.815935 1.1722296 0
-34.045757 -10.765935 1.1722296 0
-34.045757 -10.815935 1.2722297 0
-33.995758 -10.765935 1.1722296 0
-33.945759 -10.765935 1.1722296 0
-33.945759 -10.765935 1.2222297 0
-33.995758 -10.765935 1.2722297 0
-33.995758 -10.715936 1.2222297 0
-33.945759 -10.715936 1.2222297 0
-33.84576 -10.765935 1.2222297 0
-33.84576 -10.715936 0.97222972 0
-33.795757 -10.715936 0.97222972 0
-33.84576 -10.715936 1.1722296 0
-33.84576 -10.715936 1.2222297 0
-33.89576 -10.715936 1.2722297 0
-33.795757 -10.715936 1.1722296 0
-33.795757 -10.715936 1.2722297 0
-34.045757 -10.815935 1.4722297 0
-34.045757 -10.815935 1.5222297 0
-34.045757 -10.765935 1.4722297 0
-34.045757 -10.765935 1.5222297 0
-33.995758 -10.765935 1.5222297 0
-34.09576 -10.815935 1.5722297 0
-34.045757 -10.765935 1.5722297 0
-33.995758 -10.765935 1.5722297 0
-33.995758 -10.715936 1.5722297 0
-33.945759 -10.715936 1.5722297 0
-33.89576 -10.765935 1.5222297 0
-33.89576 -10.715936 1.4722297 0
-33.89576 -10.715936 1.5222297 0
-33.84576 -10.715936 1.5222297 0
-33.89576 -10.715936 1.5722297 0
-33.84576 -10.715936 1.5722297 0
-33.84576 -10.715936 1.6222297 0
-33.795757 -10.715936 1.5722297 0
-34.09576 -10.815935 1.8722297 0
-33.995758 -10.765935 1.8722297 0
-34.09576 -10.815935 2.0222297 0
-34.045757 -10.765935 1.9722297 0
-34.09576 -10.765935 2.1222298 0
-33.995758 -10.765935 2.0222297 0
-33.995758 -10.715936 1.7722297 0
-33.89576 -10.765935 1.9222298 0
-33.795757 -10.715936 1.8222297 0
-33.89576 -10.715936 1.9722297 0
-33.84576 -10.715936 2.0222297 0
-33.89576 -10.715936 2.1222298 0
-34.045757 -10.765935 2.3722298 0
-34.09576 -10.815935 2.4722297 0
-34.045757 -10.765935 2.4722297 0
-33.945759 -10.715936 2.4722297 0
-33.84576 -10.715936 2.3722298 0
-33.89576 -10.715936 2.4722297 0
-34.045757 -10.715936 2.9222298 0
-33.945759 -10.715936 2.7722297 0
-35.695759 -10.865935 3.2722297 0
-35.495758 -10.865935 3.2722297 0
-35.34576 -10.865935 3.2722297 0
-35.64576 -10.865935 3.3722298 0
-35.445759 -10.865935 3.3722298 0
-35.14576 -10.865935 3.3222296 0
-34.945759 -10.815935 3.3222296 0
-35.295757 -10.865935 3.3722298 0
-35.09576 -10.865935 3.4222298 0
-34.945759 -10.865935 3.4222298 0
-35.545757 -10.865935 3.9222298 0
-35.34576 -10.865935 3.9222298 0
-35.195759 -10.865935 3.9722297 0
-34.995758 -10.815935 3.9722297 0
-34.745758 -10.815935 3.3222296 0
-34.795757 -10.815935 3.4722297 0
-34.545757 -10.815935 3.3722298 0
-34.59576 -10.815935 3.4722297 0
-34.445759 -10.815935 2.9722297 0
-34.245758 -10.815935 2.9722297 0
-34.445759 -10.815935 3.4722297 0
-34.34576 -10.815935 3.3722298 0
-34.245758 -10.815935 3.5222297 0
-34.14576 -10.765935 3.4222298 0
-34.795757 -10.815935 4.0222297 0
-34.59576 -10.815935 4.0222297 0
-34.39576 -10.815935 4.0722299 0
-34.195759 -10.765935 4.0722299 0
-34.09576 -10.815935 3.0222297 0
-33.995758 -10.715936 3.0222297 0
-33.89576 -10.715936 2.9722297 0
-34.09576 -10.715936 3.5222297 0
-33.995758 -10.715936 3.4222298 0
-33.89576 -10.715936 3.5722296 0
-34.045757 -10.715936 4.0722299 0
-34.995758 4.3840647 -0.17777032 0
-35.09576 4.5340648 -0.22777031 0
-34.995758 4.6340647 0.022229688 0
-34.995758 4.4840646 0.47222969 0
-34.945759 4.584065 0.47222969 0
-35.245758 4.9340649 -0.027770313 0
-35.09576 4.7840648 0.022229688 0
-35.09576 4.7840648 0.42222971 0
-35.045757 4.7840648 0.47222969 0
-35.045757 4.834065 0.47222969 0
-34.995758 4.6840649 0.47222969 0
-34.945759 4.6840649 0.52222967 0
-34.995758 5.0340648 0.22222969 0
-35.09576 4.8840647 0.42222971 0
-35.09576 4.9840646 0.42222971 0
-34.545757 4.084065 0.022229688 0
-34.545757 4.2340646 0.3722297 0
-34.14576 3.9840648 -0.077770315 0
-34.295757 4.084065 0.072229691 0
-34.195759 4.084065 0.072229691 0
-34.39576 4.2340646 0.32222968 0
-34.84576 4.4340649 0.072229691 0
-34.89576 4.4840646 0.52222967 0
-34.59576 4.334065 0.52222967 0
-34.745758 4.6840649 0.32222968 0
-34.84576 4.8840647 0.2722297 0
-34.59576 4.9340649 0.52222967 0
-34.445759 4.2840648 0.3722297 0
-34.495758 4.3840647 0.52222967 0
-34.34576 4.2840648 0.42222971 0
-34.34576 4.3840647 0.52222967 0
-34.495758 4.4840646 0.3722297 0
-34.195759 4.9840646 0.022229688 0
-34.14576 5.0340648 0.022229688 0
-34.795757 4.6340647 1.1222297 0
-34.64576 4.6340647 1.1222297 0
-34.59576 4.6340647 1.0722297 0
-34.795757 4.6840649 0.67222971 0
-34.89576 4.834065 0.77222967 0
-34.84576 4.7840648 0.77222967 0
-34.745758 4.834065 0.77222967 0
-34.745758 4.9340649 0.72222972 0
-34.795757 5.0340648 0.72222972 0
-34.745758 4.9840646 0.77222967 0
-34.695759 4.7340646 0.77222967 0
-34.64576 4.6840649 0.82222968 0
-34.695759 4.7840648 0.82222968 0
-34.64576 4.834065 0.82222968 0
-34.545757 4.8840647 0.57222968 0
-34.695759 4.9840646 0.77222967 0
-34.745758 4.6840649 1.1222297 0
-34.795757 4.6840649 1.1722296 0
-34.59576 4.6840649 1.1722296 0
-34.245758 4.4840646 0.6222297 0
-34.495758 4.6340647 1.1222297 0
-34.34576 4.6340647 1.1722296 0
-34.495758 4.6840649 1.1722296 0
-34.695759 4.9340649 1.3722297 0
-34.64576 5.0340648 1.4722297 0
-34.59576 4.9340649 1.5222297 0
-33.945759 3.9340649 -0.12777032 0
-34.09576 4.084065 -0.077770315 0
-33.995758 4.084065 -0.027770313 0
-33.84576 3.9840648 -0.12777032 0
-33.745758 3.9840648 -0.17777032 0
-33.745758 4.0340648 -0.077770315 0
-33.89576 4.1340647 -0.027770313 0
-33.795757 4.1840649 -0.027770313 0
-33.745758 4.2340646 -0.027770313 0
-33.64576 4.0340648 -0.17777032 0
-33.59576 4.084065 -0.077770315 0
-33.495758 4.0340648 -0.17777032 0
-33.495758 4.1340647 -0.077770315 0
-33.39576 4.084065 -0.17777032 0
-33.39576 4.1840649 -0.077770315 0
-33.945759 4.9840646 -0.077770315 0
-34.09576 5.0340648 0.022229688 0
-34.045757 5.0340648 0.022229688 0
-33.995758 5.0340648 -0.027770313 0
-33.89576 5.0340648 -0.077770315 0
-34.045757 5.0340648 0.2722297 0
-33.89576 5.0340648 0.17222969 0
-33.64576 4.2840648 -0.027770313 0
-33.545757 4.2840648 0.022229688 0
-33.445759 4.334065 0.022229688 0
-33.34576 4.3840647 0.022229688 0
-33.695759 4.9840646 -0.17777032 0
-33.64576 4.9840646 -0.17777032 0
-33.64576 5.0340648 -0.12777032 0
-33.545757 5.0340648 -0.17777032 0
-33.445759 4.9840646 -0.22777031 0
-33.445759 5.0340648 -0.17777032 0
-33.39576 4.9840646 -0.22777031 0
