# .PCD v0.7 - Point Cloud Data file format
VERSION 0.7
FIELDS x y z intensity
SIZE 4 4 4 4
TYPE F F F F
COUNT 1 1 1 1
WIDTH 93
HEIGHT 1
VIEWPOINT 0 0 0 1 0 0 0
POINTS 93
DATA ascii
-33.545757 -19.915936 -1.0777704 0
-33.34576 -19.865936 -1.0777704 0
-33.59576 -19.915936 -0.42777032 0
-33.39576 -19.915936 -0.42777032 0
-33.14576 -19.865936 -1.0277703 0
-33.195759 -19.865936 -0.42777032 0
-29.045759 -19.315935 -0.92777032 0
-28.845758 -19.215935 -0.92777032 0
-28.64576 -19.115936 -0.92777032 0
-28.445759 -19.015936 -0.8777703 0
-28.295759 -18.915936 -0.8777703 0
-28.095758 -18.815935 -0.8777703 0
-27.945759 -18.665936 -0.8777703 0
-27.745758 -18.565935 -0.82777035 0
-27.595758 -18.415936 -0.82777035 0
-27.39576 -18.315935 -0.82777035 0
-27.245758 -18.215935 -0.82777035 0
-27.045759 -18.065935 -0.82777035 0
-26.845758 -17.965935 -0.77777034 0
-26.695759 -17.815935 -0.77777034 0
-26.545759 -17.715935 -0.77777034 0
-26.345758 -17.565935 -0.77777034 0
-26.195759 -17.415936 -0.77777034 0
-18.245758 -17.515936 -0.47777033 0
-18.095758 -17.615936 -0.47777033 0
-17.89576 -17.665936 -0.47777033 0
-17.695759 -17.765936 -0.47777033 0
-17.495758 -17.865936 -0.47777033 0
-17.295759 -17.965935 -0.47777033 0
-17.095758 -18.065935 -0.47777033 0
-33.59576 -19.915936 0.17222969 0
-33.39576 -19.915936 0.17222969 0
-33.64576 -19.915936 0.82222968 0
-33.445759 -19.915936 0.82222968 0
-33.195759 -19.865936 0.22222969 0
-33.245758 -19.915936 0.82222968 0
-33.64576 -19.915936 1.4722297 0
-33.445759 -19.915936 1.4722297 0
-33.245758 -19.915936 1.4722297 0
-33.34576 -18.015936 1.8222297 0
-33.39576 -17.565935 1.7222297 0
-33.745758 -19.915936 4.0722299 0
-33.545757 -19.915936 4.0722299 0
-33.34576 -19.915936 4.0722299 0
-33.545757 -15.765936 -0.52777034 0
-33.545757 -15.665936 -0.97777033 0
-33.545757 -15.665936 -0.47777033 0
-33.545757 -15.165936 -0.97777033 0
-33.59576 -15.165936 -0.52777034 0
-26.045759 -17.315935 -0.72777033 0
-25.845758 -17.165936 -0.72777033 0
-25.695759 -17.015936 -0.72777033 0
-25.545759 -16.915936 -0.72777033 0
-25.39576 -16.765936 -0.72777033 0
-25.245758 -16.615936 -0.67777032 0
-25.045759 -16.465935 -0.67777032 0
-24.945759 -16.315935 -0.67777032 0
-24.745758 -16.165936 -0.67777032 0
-24.595758 -16.015936 -0.67777032 0
-24.445759 -15.865935 -0.6277703 0
-24.295759 -15.715936 -0.6277703 0
-24.14576 -15.565935 -0.6277703 0
-23.995758 -15.415936 -0.6277703 0
-23.89576 -15.265936 -0.6277703 0
-23.745758 -15.115935 -0.6277703 0
-20.945759 -15.765936 -0.52777034 0
-20.795759 -15.915936 -0.52777034 0
-20.595758 -16.065935 -0.52777034 0
-20.445759 -16.165936 -0.52777034 0
-20.245758 -16.265936 -0.52777034 0
-20.095758 -16.415936 -0.52777034 0
-33.545757 -15.765936 -0.077770315 0
-33.59576 -15.765936 0.42222971 0
-33.59576 -15.765936 0.92222971 0
-33.64576 -15.765936 1.3722297 0
-33.64576 -15.765936 1.8722297 0
-33.59576 -15.665936 -0.027770313 0
-33.59576 -15.615935 0.47222969 0
-33.59576 -15.165936 -0.027770313 0
-33.64576 -15.165936 0.42222971 0
-33.59576 -15.615935 0.97222972 0
-33.64576 -15.165936 0.8722297 0
-33.64576 -15.615935 1.4222298 0
-33.64576 -15.165936 1.3722297 0
-33.695759 -15.165936 1.8722297 0
-33.745758 -15.165936 2.8222296 0
-33.695759 -15.165936 2.3222296 0
-16.14576 -18.465935 -0.47777033 0
-15.745759 -18.615936 -0.47777033 0
-15.945759 -18.515936 -0.47777033 0
-15.545759 -18.715935 -0.47777033 0
-15.345758 -18.765936 -0.47777033 0
-15.145759 -18.815935 -0.47777033 0
