# .PCD v0.7 - Point Cloud Data file format
VERSION 0.7
FIELDS x y z intensity
SIZE 4 4 4 4
TYPE F F F F
COUNT 1 1 1 1
WIDTH 1425
HEIGHT 1
VIEWPOINT 0 0 0 1 0 0 0
POINTS 1425
DATA ascii
21.104242 -11.265936 0.17222969 0
21.154242 -11.265936 0.22222969 0
21.204241 -11.265936 0.17222969 0
21.254242 -11.265936 0.2722297 0
21.304241 -11.315935 0.22222969 0
21.304241 -11.265936 0.17222969 0
21.304241 -11.265936 0.22222969 0
21.354242 -11.265936 0.17222969 0
21.304241 -11.215936 0.22222969 0
21.454241 -11.315935 0.17222969 0
21.504242 -11.315935 0.22222969 0
21.554241 -11.315935 0.17222969 0
21.554241 -11.315935 0.22222969 0
21.604242 -11.315935 0.17222969 0
21.604242 -11.265936 0.2722297 0
21.704241 -11.315935 0.22222969 0
21.754242 -11.315935 0.17222969 0
21.804241 -11.315935 0.17222969 0
21.854242 -11.315935 0.22222969 0
15.554242 -10.765935 -0.22777031 0
15.654242 -10.765935 -0.22777031 0
15.554242 -10.715936 -0.22777031 0
15.804242 -10.765935 -0.22777031 0
15.704242 -10.715936 -0.22777031 0
15.854241 -10.715936 -0.22777031 0
15.904242 -10.765935 -0.22777031 0
16.004242 -10.765935 -0.22777031 0
16.054241 -10.765935 -0.22777031 0
15.954242 -10.665936 -0.22777031 0
16.104242 -10.665936 -0.22777031 0
16.154242 -10.715936 -0.22777031 0
16.254242 -10.715936 -0.22777031 0
16.254242 -10.615935 -0.22777031 0
16.404242 -10.715936 -0.22777031 0
16.404242 -10.615935 -0.22777031 0
16.504242 -10.715936 -0.22777031 0
16.554241 -10.665936 -0.22777031 0
16.554241 -10.615935 -0.22777031 0
16.604242 -10.665936 -0.22777031 0
16.654242 -10.665936 -0.22777031 0
16.754242 -10.665936 -0.22777031 0
16.704241 -10.565935 -0.22777031 0
16.854242 -10.665936 -0.22777031 0
16.804241 -10.615935 -0.22777031 0
16.854242 -10.565935 -0.22777031 0
16.904242 -10.665936 -0.22777031 0
17.004242 -10.615935 -0.22777031 0
17.004242 -10.565935 -0.22777031 0
17.054241 -10.615935 -0.22777031 0
17.104242 -10.615935 -0.22777031 0
17.154242 -10.565935 -0.22777031 0
17.204241 -10.615935 -0.22777031 0
17.254242 -10.615935 -0.22777031 0
17.304241 -10.565935 -0.22777031 0
17.354242 -10.615935 -0.22777031 0
17.454241 -10.565935 -0.22777031 0
17.504242 -10.565935 -0.22777031 0
17.604242 -10.565935 -0.22777031 0
17.704241 -10.565935 -0.22777031 0
17.754242 -10.565935 -0.22777031 0
17.854242 -10.565935 -0.22777031 0
17.854242 -10.515935 -0.22777031 0
17.954241 -10.565935 -0.22777031 0
18.004242 -10.565935 -0.22777031 0
18.104242 -10.565935 -0.22777031 0
18.004242 -10.515935 -0.22777031 0
18.104242 -10.515935 -0.22777031 0
18.154242 -10.515935 -0.22777031 0
18.204241 -10.515935 -0.22777031 0
18.254242 -10.515935 -0.22777031 0
18.304241 -10.515935 -0.22777031 0
18.354242 -10.515935 -0.22777031 0
18.404242 -10.515935 -0.22777031 0
18.404242 -10.465936 -0.22777031 0
18.454241 -10.515935 -0.22777031 0
18.504242 -10.515935 -0.22777031 0
18.554241 -10.465936 -0.22777031 0
18.604242 -10.515935 -0.22777031 0
18.654242 -10.465936 -0.22777031 0
16.104242 -6.1659355 -0.22777031 0
16.154242 -6.0659351 -0.22777031 0
16.254242 -5.9659352 -0.22777031 0
16.304241 -5.8159351 -0.22777031 0
16.354242 -5.7159352 -0.22777031 0
16.454241 -5.6159353 -0.22777031 0
16.504242 -5.5159354 -0.22777031 0
16.554241 -5.4159355 -0.22777031 0
16.604242 -5.2659354 -0.22777031 0
16.654242 -5.1659355 -0.22777031 0
16.704241 -5.0659351 -0.22777031 0
16.754242 -4.9159355 -0.22777031 0
16.804241 -4.8159351 -0.22777031 0
16.854242 -4.7159352 -0.22777031 0
16.904242 -4.5659351 -0.22777031 0
18.704241 -10.465936 -0.22777031 0
18.804241 -10.465936 -0.22777031 0
18.854242 -10.465936 -0.22777031 0
18.904242 -10.465936 -0.22777031 0
18.954241 -10.465936 -0.22777031 0
19.054241 -10.465936 -0.22777031 0
19.104242 -10.465936 -0.22777031 0
19.154242 -10.415936 -0.22777031 0
19.254242 -10.415936 -0.22777031 0
19.304241 -10.415936 -0.22777031 0
19.354242 -10.415936 -0.22777031 0
19.504242 -10.415936 -0.22777031 0
19.654242 -10.415936 -0.22777031 0
19.804241 -10.465936 -0.22777031 0
19.904242 -10.415936 -0.22777031 0
15.004242 -4.3159351 -0.22777031 0
15.054241 -4.1659355 -0.22777031 0
15.054241 -4.0659351 -0.22777031 0
15.104241 -3.9659352 -0.22777031 0
15.154242 -3.8159354 -0.22777031 0
15.054241 -3.4159353 -0.22777031 0
15.204242 -3.7159352 -0.22777031 0
15.254242 -3.5659354 -0.22777031 0
15.154242 -3.3659353 -0.22777031 0
15.254242 -3.4659352 -0.22777031 0
15.204242 -3.3659353 -0.22777031 0
15.304241 -3.3659353 -0.22777031 0
15.354241 -3.3659353 -0.22777031 0
15.454242 -3.3659353 -0.22777031 0
15.254242 -3.1159353 -0.22777031 0
15.304241 -3.3159354 -0.22777031 0
15.354241 -3.2159352 -0.22777031 0
15.004242 8.1340647 0.072229691 0
15.004242 7.9840651 0.22222969 0
15.054241 7.9840651 0.17222969 0
15.004242 7.9840651 0.32222968 0
15.054241 8.0340652 0.2722297 0
15.054241 8.0340652 0.32222968 0
15.004242 7.9840651 0.3722297 0
15.004242 8.0340652 0.3722297 0
15.004242 8.0340652 0.52222967 0
15.004242 8.0840645 0.17222969 0
15.004242 8.0840645 0.42222971 0
15.004242 8.0840645 0.47222969 0
15.004242 8.0840645 0.52222967 0
15.104241 8.1840649 0.072229691 0
15.204242 8.1840649 0.022229688 0
15.204242 8.1840649 0.072229691 0
15.454242 8.0340652 0.12222969 0
15.304241 8.2340651 0.022229688 0
15.304241 8.1840649 0.072229691 0
15.404242 8.1840649 0.072229691 0
15.104241 7.9840651 0.22222969 0
15.104241 7.9840651 0.32222968 0
15.104241 8.0340652 0.2722297 0
15.154242 7.9840651 0.32222968 0
15.154242 8.0340652 0.2722297 0
15.154242 8.0340652 0.32222968 0
15.204242 7.9840651 0.22222969 0
15.254242 8.0340652 0.17222969 0
15.254242 8.0340652 0.22222969 0
15.204242 7.9840651 0.32222968 0
15.204242 8.0340652 0.2722297 0
15.254242 8.0340652 0.2722297 0
15.254242 8.0340652 0.32222968 0
15.104241 7.9840651 0.3722297 0
15.104241 8.0340652 0.3722297 0
15.104241 8.0340652 0.47222969 0
15.204242 8.0340652 0.3722297 0
15.204242 8.0340652 0.47222969 0
15.104241 8.0840645 0.17222969 0
15.204242 8.0840645 0.17222969 0
15.154242 8.0840645 0.42222971 0
15.104241 8.0840645 0.47222969 0
15.154242 8.0840645 0.52222967 0
15.104241 8.1840649 0.52222967 0
15.204242 8.0840645 0.47222969 0
15.254242 8.0840645 0.52222967 0
15.254242 8.1840649 0.52222967 0
15.304241 8.0340652 0.22222969 0
15.354241 8.0340652 0.22222969 0
15.304241 7.9840651 0.32222968 0
15.354241 8.0340652 0.2722297 0
15.354241 8.0340652 0.32222968 0
15.404242 7.9340649 0.2722297 0
15.404242 8.0340652 0.17222969 0
15.454242 8.0340652 0.22222969 0
15.404242 7.9840651 0.32222968 0
15.454242 8.0340652 0.2722297 0
15.454242 8.0340652 0.32222968 0
15.304241 8.0340652 0.3722297 0
15.404242 8.0340652 0.3722297 0
15.454242 8.0340652 0.42222971 0
15.404242 7.9840651 0.47222969 0
15.404242 8.0340652 0.52222967 0
15.454242 8.0340652 0.47222969 0
15.304241 8.0840645 0.17222969 0
15.404242 8.1340647 0.17222969 0
15.304241 8.0840645 0.42222971 0
15.354241 8.0840645 0.3722297 0
15.304241 8.0840645 0.47222969 0
15.304241 8.0840645 0.52222967 0
15.354241 8.0840645 0.52222967 0
15.304241 8.1840649 0.3722297 0
15.304241 8.2340651 0.3722297 0
15.454242 8.1340647 0.42222971 0
15.404242 8.1840649 0.52222967 0
15.054241 8.0340652 0.67222971 0
15.004242 8.0840645 0.57222968 0
15.004242 8.0840645 0.72222972 0
15.054241 8.0840645 0.72222972 0
15.054241 8.1340647 0.67222971 0
15.054241 8.1840649 0.57222968 0
15.004242 8.0840645 0.77222967 0
15.004242 8.0840645 0.82222968 0
15.054241 8.0840645 0.77222967 0
15.054241 8.1340647 0.77222967 0
15.004242 8.1340647 0.8722297 0
15.104241 8.0340652 0.6222297 0
15.204242 8.0340652 0.6222297 0
15.154242 8.0840645 0.57222968 0
15.104241 8.0840645 0.72222972 0
15.154242 8.1340647 0.67222971 0
15.254242 8.0840645 0.57222968 0
15.204242 8.0840645 0.72222972 0
15.254242 8.0840645 0.67222971 0
15.254242 8.0840645 0.72222972 0
15.254242 8.1840649 0.57222968 0
15.104241 8.0840645 0.77222967 0
15.154242 8.0840645 0.77222967 0
15.104241 8.1340647 0.8722297 0
15.104241 8.1840649 0.8722297 0
15.204242 8.1340647 0.77222967 0
15.254242 8.0840645 0.77222967 0
15.204242 8.1340647 0.8722297 0
15.254242 8.1840649 0.8722297 0
15.254242 8.2340651 0.92222971 0
15.304241 8.0340652 0.6222297 0
15.404242 8.0340652 0.57222968 0
15.404242 8.0340652 0.72222972 0
15.354241 8.0840645 0.57222968 0
15.304241 8.0840645 0.67222971 0
15.304241 8.0840645 0.72222972 0
15.354241 8.0840645 0.67222971 0
15.354241 8.1340647 0.67222971 0
15.404242 8.0840645 0.57222968 0
15.454242 8.0840645 0.67222971 0
15.454242 8.0840645 0.72222972 0
15.304241 8.1340647 0.77222967 0
15.354241 8.0840645 0.77222967 0
15.354241 8.0840645 0.8722297 0
15.354241 8.1840649 0.8722297 0
15.454242 8.1340647 0.77222967 0
15.454242 8.1340647 0.8722297 0
15.404242 8.1840649 0.8722297 0
15.504242 -3.3659353 -0.22777031 0
15.604241 -3.3659353 -0.22777031 0
15.504242 -3.1159353 -0.22777031 0
15.704242 -3.0659354 -0.22777031 0
15.954242 -3.1159353 -0.22777031 0
16.954241 -4.4659352 -0.22777031 0
17.004242 -4.3659353 -0.22777031 0
17.054241 -4.2159352 -0.22777031 0
17.104242 -4.1159353 -0.22777031 0
17.154242 -3.9659352 -0.22777031 0
17.204241 -3.8659353 -0.22777031 0
17.204241 -3.7659354 -0.22777031 0
17.254242 -3.6159353 -0.22777031 0
17.304241 -3.5159354 -0.22777031 0
17.354242 -3.4159353 -0.22777031 0
17.354242 -3.2659354 -0.22777031 0
15.704242 0.48406476 -0.077770315 0
15.754242 0.58406472 -0.22777031 0
15.704242 0.48406476 0.022229688 0
15.754242 0.48406476 -0.027770313 0
15.754242 0.48406476 0.022229688 0
15.704242 0.48406476 0.12222969 0
15.754242 0.48406476 0.072229691 0
15.804242 0.68406475 -0.12777032 0
15.854241 0.83406478 -0.12777032 0
16.054241 0.63406473 -0.027770313 0
16.004242 0.68406475 -0.12777032 0
16.004242 0.78406477 -0.12777032 0
16.004242 0.78406477 -0.077770315 0
16.004242 0.68406475 -0.027770313 0
16.004242 0.68406475 0.022229688 0
16.004242 0.78406477 0.022229688 0
15.904242 0.93406475 -0.12777032 0
15.954242 0.88406473 -0.12777032 0
15.904242 0.93406475 -0.027770313 0
15.904242 0.93406475 0.022229688 0
15.954242 0.88406473 -0.027770313 0
15.954242 0.88406473 0.022229688 0
17.604242 1.2840648 -0.077770315 0
17.654242 1.3840648 -0.22777031 0
17.604242 1.2840648 0.022229688 0
17.604242 1.2840648 0.072229691 0
17.604242 1.2840648 0.12222969 0
17.654242 1.4840648 -0.12777032 0
17.704241 1.6340648 -0.12777032 0
17.854242 1.5840647 -0.17777032 0
17.854242 1.5840647 -0.077770315 0
17.854242 1.5840647 -0.027770313 0
17.754242 1.7340648 -0.12777032 0
17.804241 1.6840647 -0.12777032 0
17.804241 1.6840647 -0.077770315 0
17.804241 1.7340648 -0.077770315 0
17.804241 1.6840647 -0.027770313 0
17.804241 1.7340648 -0.027770313 0
17.904242 1.4340647 -0.12777032 0
17.904242 1.4340647 -0.027770313 0
17.904242 1.4840648 -0.17777032 0
17.904242 1.4840648 -0.077770315 0
17.904242 1.4840648 0.022229688 0
18.454241 3.6840649 -0.12777032 0
18.404242 3.7840648 -0.17777032 0
18.454241 3.7840648 -0.17777032 0
18.404242 3.7840648 -0.077770315 0
18.454241 3.7840648 -0.077770315 0
18.404242 3.7840648 -0.027770313 0
18.454241 3.7840648 -0.027770313 0
18.554241 3.5340648 -0.12777032 0
18.554241 3.7340648 -0.17777032 0
18.554241 3.7340648 -0.077770315 0
18.654242 3.7340648 -0.17777032 0
18.654242 3.7340648 -0.077770315 0
18.554241 3.7340648 -0.027770313 0
18.654242 3.7340648 -0.027770313 0
15.504242 8.1340647 0.12222969 0
15.554242 8.2340651 0.072229691 0
15.604241 8.0840645 0.12222969 0
15.604241 8.1340647 0.12222969 0
15.654242 8.1340647 0.12222969 0
15.604241 8.1840649 0.12222969 0
15.704242 8.2340651 -0.077770315 0
15.804242 8.2340651 -0.17777032 0
15.754242 8.2340651 0.022229688 0
15.504242 8.0340652 0.17222969 0
15.554242 8.0340652 0.22222969 0
15.504242 7.9840651 0.32222968 0
15.604241 8.0340652 0.17222969 0
15.654242 8.0340652 0.22222969 0
15.604241 8.0340652 0.2722297 0
15.604241 8.0340652 0.32222968 0
15.654242 7.9840651 0.32222968 0
15.654242 8.0340652 0.32222968 0
15.504242 8.0340652 0.42222971 0
15.504242 8.0340652 0.47222969 0
15.504242 8.0340652 0.52222967 0
15.554242 8.0340652 0.47222969 0
15.604241 8.0340652 0.42222971 0
15.604241 8.0340652 0.47222969 0
15.604241 8.0340652 0.52222967 0
15.654242 8.0340652 0.47222969 0
15.654242 8.0340652 0.52222967 0
15.504242 8.0840645 0.2722297 0
15.654242 8.1340647 0.17222969 0
15.654242 8.1340647 0.22222969 0
15.654242 8.0840645 0.2722297 0
15.654242 8.0840645 0.32222968 0
15.654242 8.1340647 0.32222968 0
15.654242 8.1840649 0.22222969 0
15.504242 8.0840645 0.3722297 0
15.554242 8.1340647 0.42222971 0
15.504242 8.1340647 0.47222969 0
15.504242 8.2340651 0.47222969 0
15.554242 8.1840649 0.52222967 0
15.604241 8.0840645 0.3722297 0
15.654242 8.0840645 0.42222971 0
15.654242 8.0840645 0.47222969 0
15.704242 7.9340649 0.32222968 0
15.704242 7.9840651 0.32222968 0
15.704242 8.0340652 0.32222968 0
15.704242 8.0340652 0.42222971 0
15.754242 7.9840651 0.42222971 0
15.704242 8.0340652 0.47222969 0
15.704242 8.0340652 0.52222967 0
15.754242 7.9840651 0.52222967 0
15.754242 8.0340652 0.52222967 0
15.804242 8.0340652 0.3722297 0
15.804242 8.0340652 0.42222971 0
15.854241 7.9840651 0.42222971 0
15.804242 8.0340652 0.52222967 0
15.854241 8.0340652 0.47222969 0
15.754242 8.0840645 0.32222968 0
15.704242 8.0840645 0.52222967 0
15.704242 8.1340647 0.52222967 0
15.754242 8.0840645 0.47222969 0
15.804242 8.1340647 0.42222971 0
15.854241 8.0840645 0.3722297 0
15.854241 8.0840645 0.42222971 0
15.804242 8.0840645 0.52222967 0
15.854241 8.0840645 0.47222969 0
15.854241 8.1340647 0.52222967 0
16.054241 8.2340651 -0.17777032 0
16.004242 8.2340651 -0.077770315 0
16.054241 8.2340651 -0.077770315 0
15.904242 8.2340651 0.072229691 0
16.054241 8.2340651 -0.027770313 0
16.054241 8.2340651 0.022229688 0
16.054241 8.2340651 0.072229691 0
16.054241 8.2340651 0.12222969 0
15.904242 8.0340652 0.3722297 0
15.904242 8.0340652 0.52222967 0
15.904242 8.0840645 0.52222967 0
15.904242 8.1340647 0.47222969 0
15.954242 8.0840645 0.47222969 0
15.954242 8.1340647 0.47222969 0
15.954242 8.1340647 0.52222967 0
15.954242 8.1840649 0.47222969 0
16.054241 8.1840649 0.52222967 0
15.504242 8.0340652 0.57222968 0
15.604241 8.0340652 0.57222968 0
15.504242 8.0840645 0.6222297 0
15.504242 8.1340647 0.57222968 0
15.554242 8.0840645 0.57222968 0
15.554242 8.1340647 0.57222968 0
15.504242 8.0840645 0.72222972 0
15.504242 8.1340647 0.67222971 0
15.504242 8.1340647 0.72222972 0
15.554242 8.1340647 0.67222971 0
15.554242 8.1340647 0.72222972 0
15.504242 8.1840649 0.6222297 0
15.554242 8.2340651 0.57222968 0
15.604241 8.0840645 0.6222297 0
15.604241 8.1340647 0.67222971 0
15.654242 8.1340647 0.72222972 0
15.654242 8.1840649 0.6222297 0
15.654242 8.1840649 0.72222972 0
15.554242 8.0840645 0.82222968 0
15.554242 8.1340647 0.77222967 0
15.504242 8.1340647 0.8722297 0
15.554242 8.1340647 0.8722297 0
15.604241 8.0840645 0.82222968 0
15.604241 8.1340647 0.82222968 0
15.654242 8.0840645 0.82222968 0
15.604241 8.1340647 0.8722297 0
15.654242 8.1840649 0.77222967 0
15.604241 8.2340651 0.92222971 0
15.804242 8.0340652 0.57222968 0
15.704242 8.1340647 0.6222297 0
15.754242 8.0840645 0.67222971 0
15.704242 8.1840649 0.57222968 0
15.704242 8.2340651 0.57222968 0
15.754242 8.2340651 0.6222297 0
15.804242 8.1340647 0.6222297 0
15.854241 8.1340647 0.6222297 0
15.804242 8.0840645 0.67222971 0
15.804242 8.1340647 0.67222971 0
15.854241 8.1340647 0.67222971 0
15.804242 8.1840649 0.57222968 0
15.854241 8.1840649 0.6222297 0
15.854241 8.2340651 0.6222297 0
15.854241 8.1840649 0.67222971 0
15.704242 8.1340647 0.82222968 0
15.754242 8.1340647 0.82222968 0
15.754242 8.1840649 0.77222967 0
15.704242 8.1840649 0.8722297 0
15.804242 8.0840645 0.77222967 0
15.804242 8.1340647 0.77222967 0
15.804242 8.1840649 0.82222968 0
15.854241 8.2340651 0.82222968 0
15.804242 8.2340651 0.92222971 0
15.854241 8.1840649 0.8722297 0
15.904242 8.1340647 0.57222968 0
15.904242 8.1340647 0.6222297 0
15.954242 8.0840645 0.57222968 0
15.954242 8.1340647 0.6222297 0
15.904242 8.2340651 0.57222968 0
15.954242 8.1840649 0.6222297 0
15.954242 8.2340651 0.57222968 0
15.954242 8.2340651 0.6222297 0
15.904242 8.1840649 0.72222972 0
15.954242 8.1840649 0.67222971 0
15.954242 8.2340651 0.67222971 0
15.954242 8.2340651 0.72222972 0
16.004242 8.0840645 0.6222297 0
16.004242 8.1340647 0.57222968 0
16.004242 8.1340647 0.72222972 0
16.004242 8.2340651 0.57222968 0
16.054241 8.1840649 0.6222297 0
16.004242 8.1840649 0.72222972 0
15.904242 8.1840649 0.77222967 0
15.904242 8.2340651 0.82222968 0
15.954242 8.1840649 0.77222967 0
15.954242 8.2340651 0.77222967 0
16.004242 8.2340651 0.82222968 0
16.104242 8.2340651 0.72222972 0
18.554241 5.7840648 -0.17777032 0
18.554241 5.7840648 -0.12777032 0
18.554241 5.7840648 -0.077770315 0
18.604242 5.6840649 -0.17777032 0
18.604242 5.7840648 -0.17777032 0
18.604242 5.7840648 -0.12777032 0
18.654242 5.7840648 -0.077770315 0
18.654242 7.834065 -0.22777031 0
18.654242 7.834065 -0.12777032 0
18.704241 3.3840647 -0.12777032 0
18.704241 3.3840647 -0.077770315 0
18.704241 3.3840647 -0.027770313 0
18.704241 3.3840647 0.022229688 0
18.704241 3.4340649 -0.027770313 0
18.704241 3.3840647 0.072229691 0
18.854242 5.3840647 -0.12777032 0
18.854242 5.4340649 -0.12777032 0
18.854242 5.3840647 -0.027770313 0
18.854242 5.4340649 -0.027770313 0
18.854242 5.3840647 0.072229691 0
18.854242 5.4340649 0.072229691 0
18.704241 5.584065 -0.17777032 0
18.704241 5.7840648 -0.22777031 0
18.704241 5.7840648 -0.12777032 0
18.804241 5.7840648 -0.22777031 0
18.804241 5.7840648 -0.12777032 0
18.754242 5.7840648 -0.027770313 0
18.804241 5.7840648 -0.027770313 0
18.904242 5.7840648 -0.12777032 0
18.954241 7.4340649 -0.17777032 0
18.954241 7.4340649 -0.027770313 0
18.954241 7.4340649 0.022229688 0
18.804241 7.6340647 -0.17777032 0
18.704241 7.7340651 -0.17777032 0
18.704241 7.834065 -0.22777031 0
18.704241 7.834065 -0.12777032 0
18.754242 7.834065 -0.077770315 0
18.804241 7.834065 -0.22777031 0
18.804241 7.834065 -0.12777032 0
18.804241 7.834065 -0.077770315 0
18.954241 7.4840651 -0.12777032 0
18.954241 7.4840651 -0.077770315 0
18.954241 7.4840651 -0.027770313 0
18.954241 7.4840651 0.022229688 0
18.904242 7.834065 -0.22777031 0
18.904242 7.834065 -0.12777032 0
18.904242 7.834065 -0.077770315 0
19.004242 7.834065 -0.22777031 0
18.954241 7.834065 -0.027770313 0
21.904242 -14.515936 2.6222298 0
21.954243 -14.465936 2.7222297 0
22.004242 -14.515936 2.6722298 0
22.104242 -14.515936 2.6222298 0
22.104242 -14.465936 2.6222298 0
22.154242 -14.465936 2.7222297 0
22.204243 -14.465936 2.6722298 0
22.304241 -14.515936 2.6222298 0
22.354242 -14.515936 2.6222298 0
22.354242 -14.515936 2.6722298 0
22.404242 -14.465936 2.7722297 0
22.504242 -14.515936 2.6222298 0
22.504242 -14.465936 2.6722298 0
22.554241 -14.465936 2.6722298 0
22.704243 -14.565935 2.7722297 0
23.054241 -14.665936 2.8222296 0
22.704243 -14.465936 2.6722298 0
22.754242 -14.515936 2.6722298 0
22.754242 -14.465936 2.6722298 0
22.904242 -14.465936 2.6722298 0
22.954243 -14.465936 2.6722298 0
23.404242 -14.815935 2.8722298 0
23.104242 -14.465936 2.6722298 0
23.154242 -14.515936 2.6722298 0
23.154242 -14.465936 2.6722298 0
23.304241 -14.465936 2.6722298 0
23.354242 -14.465936 2.7222297 0
23.404242 -14.465936 2.7222297 0
23.754242 -14.915936 2.9222298 0
23.504242 -14.465936 2.7222297 0
23.554241 -14.465936 2.7222297 0
23.604242 -14.465936 2.7222297 0
23.704243 -14.465936 2.7222297 0
23.804241 -14.465936 2.7222297 0
23.904242 -14.465936 2.7222297 0
24.054241 -14.465936 2.7722297 0
24.104242 -14.465936 2.7222297 0
24.404242 -14.615935 2.8222296 0
24.304241 -14.465936 2.7222297 0
24.304241 -14.415936 2.7222297 0
24.554241 -14.465936 2.7722297 0
24.704243 -14.715936 2.8722298 0
25.054241 -14.815935 2.8722298 0
25.054241 -14.615935 2.8222296 0
24.754242 -14.465936 2.7722297 0
24.804241 -14.515936 2.7722297 0
24.954243 -14.465936 2.7722297 0
21.954243 -11.365935 0.17222969 0
21.954243 -11.365935 0.22222969 0
22.104242 -11.365935 0.22222969 0
22.154242 -11.365935 0.17222969 0
22.204243 -11.365935 0.22222969 0
22.254242 -11.365935 0.17222969 0
21.954243 -11.315935 0.17222969 0
21.954243 -11.265936 0.2722297 0
22.104242 -11.315935 0.17222969 0
22.304241 -11.365935 0.17222969 0
22.354242 -11.365935 0.17222969 0
22.404242 -11.365935 0.17222969 0
22.404242 -11.365935 0.22222969 0
22.454243 -11.365935 0.17222969 0
22.554241 -11.365935 0.17222969 0
22.604242 -11.365935 0.17222969 0
22.654242 -11.415936 0.22222969 0
22.654242 -11.365935 0.17222969 0
22.654242 -11.365935 0.2722297 0
22.304241 -11.315935 0.2722297 0
22.704243 -11.415936 0.22222969 0
22.754242 -11.415936 0.17222969 0
22.854242 -11.415936 0.17222969 0
22.904242 -11.415936 0.22222969 0
22.954243 -11.415936 0.17222969 0
23.004242 -11.415936 0.22222969 0
23.054241 -11.415936 0.17222969 0
23.004242 -11.365935 0.2722297 0
23.154242 -11.465936 0.17222969 0
23.104242 -11.415936 0.17222969 0
23.204243 -11.465936 0.17222969 0
23.204243 -11.465936 0.22222969 0
23.304241 -11.465936 0.17222969 0
23.354242 -11.465936 0.22222969 0
23.404242 -11.465936 0.17222969 0
23.454243 -11.515936 0.22222969 0
23.454243 -11.465936 0.17222969 0
23.404242 -11.415936 0.2722297 0
23.604242 -11.515936 0.17222969 0
23.654242 -11.515936 0.17222969 0
23.754242 -11.565935 0.22222969 0
23.854242 -11.565935 0.17222969 0
23.704243 -11.515936 0.22222969 0
24.004242 -11.565935 0.17222969 0
24.054241 -11.615935 0.22222969 0
24.054241 -11.565935 0.17222969 0
24.054241 -11.565935 0.22222969 0
24.104242 -11.615935 0.17222969 0
24.204243 -11.615935 0.17222969 0
24.254242 -11.615935 0.17222969 0
25.054241 -11.765936 0.22222969 0
24.354242 -11.665936 0.22222969 0
24.354242 -11.615935 0.17222969 0
24.454243 -11.665936 0.2722297 0
24.404242 -11.615935 0.17222969 0
24.454243 -11.615935 0.17222969 0
24.604242 -11.665936 0.17222969 0
24.654242 -11.665936 0.22222969 0
24.704243 -11.715936 0.22222969 0
24.704243 -11.665936 0.17222969 0
24.804241 -11.665936 0.17222969 0
24.854242 -11.715936 0.2722297 0
24.904242 -11.715936 0.22222969 0
24.954243 -11.715936 0.22222969 0
25.004242 -11.715936 0.17222969 0
25.354242 -14.915936 2.9222298 0
25.354242 -14.665936 2.8722298 0
25.404242 -14.565935 2.8222296 0
25.154242 -14.465936 2.7722297 0
25.654242 -14.765936 2.8722298 0
25.654242 -14.615935 2.8222296 0
25.904242 -14.865935 2.9222298 0
25.904242 -14.665936 2.8722298 0
26.154242 -14.765936 2.8722298 0
26.454243 -14.815935 2.9222298 0
26.704243 -14.915936 2.9222298 0
26.254242 -14.965936 2.9722297 0
25.204243 -11.815935 0.22222969 0
25.204243 -11.765936 0.17222969 0
25.204243 -11.765936 0.22222969 0
25.454243 -11.865935 0.22222969 0
25.454243 -11.815935 0.17222969 0
25.504242 -11.865935 0.22222969 0
25.654242 -11.865935 0.17222969 0
25.854242 -11.965936 0.22222969 0
25.704243 -11.915936 0.22222969 0
25.854242 -11.915936 0.17222969 0
25.954243 -11.965936 0.22222969 0
26.104242 -11.965936 0.17222969 0
26.154242 -12.015936 0.22222969 0
26.254242 -12.015936 0.22222969 0
26.354242 -12.065935 0.17222969 0
26.554241 -12.115935 0.22222969 0
26.604242 -12.115935 0.17222969 0
28.054241 -12.665936 0.22222969 0
26.854242 -12.215936 0.17222969 0
26.854242 -12.215936 0.22222969 0
26.954243 -12.265936 0.22222969 0
27.204243 -12.365935 0.22222969 0
27.154242 -12.315935 0.22222969 0
27.454243 -12.365935 0.22222969 0
27.554241 -12.465936 0.22222969 0
27.754242 -12.515936 0.22222969 0
28.154242 -8.1659355 0.12222969 0
27.954243 -7.8159356 0.12222969 0
28.104242 -7.9659352 0.12222969 0
28.254242 -7.8659353 0.12222969 0
28.054241 -7.9159355 0.17222969 0
28.054241 -7.8659353 0.22222969 0
28.004242 -7.7659354 0.17222969 0
27.854242 -7.8659353 0.6222297 0
27.854242 -7.9159355 0.67222971 0
27.954243 -8.0659351 0.82222968 0
27.904242 -7.9159355 0.72222972 0
27.954243 -7.8659353 0.82222968 0
28.004242 -7.8659353 0.92222971 0
27.954243 -7.9659352 1.2722297 0
27.904242 -7.9159355 1.0722297 0
27.904242 -7.9159355 1.1722296 0
28.004242 -8.0159349 1.6222297 0
28.004242 -7.8659353 1.4222298 0
27.954243 -7.7659354 1.5722297 0
28.104242 -7.9159355 1.6222297 0
27.954243 -7.6159353 0.12222969 0
28.004242 -7.4159355 0.12222969 0
28.004242 -7.6659355 0.17222969 0
28.004242 -7.6159353 0.22222969 0
28.004242 -7.5659351 0.17222969 0
28.004242 -7.4659352 0.17222969 0
28.004242 -7.4159355 0.22222969 0
28.004242 -7.3659353 0.17222969 0
28.004242 -7.2159352 0.12222969 0
28.004242 -7.0159354 0.12222969 0
28.004242 -6.9659352 0.12222969 0
28.004242 -7.2159352 0.17222969 0
28.004242 -7.1659355 0.17222969 0
28.004242 -7.1659355 0.22222969 0
28.004242 -7.0159354 0.17222969 0
28.004242 -6.9659352 0.22222969 0
27.804241 -7.6659355 0.57222968 0
27.854242 -7.7159352 0.67222971 0
27.804241 -7.4659352 0.57222968 0
27.854242 -7.5159354 0.6222297 0
27.854242 -7.5159354 0.72222972 0
27.854242 -7.6659355 1.0722297 0
27.854242 -7.4659352 1.0722297 0
27.854242 -7.5159354 1.1722296 0
27.804241 -7.2659354 0.6222297 0
27.854242 -7.3159351 0.72222972 0
27.804241 -7.2159352 0.57222968 0
27.804241 -7.0659351 0.6222297 0
27.854242 -7.1159353 0.67222971 0
27.804241 -7.0159354 0.57222968 0
27.854242 -7.2659354 1.0722297 0
27.854242 -7.3159351 1.1722296 0
27.854242 -7.1159353 1.1222297 0
27.804241 -7.0159354 1.0222297 0
27.904242 -7.7159352 0.72222972 0
27.954243 -7.6159353 0.82222968 0
28.004242 -7.6159353 0.92222971 0
27.904242 -7.4159355 0.82222968 0
28.004242 -7.4159355 0.92222971 0
27.904242 -7.7159352 1.1722296 0
27.954243 -7.7159352 1.2722297 0
27.954243 -7.5159354 1.2722297 0
27.904242 -7.2159352 0.77222967 0
27.954243 -7.1659355 0.92222971 0
27.904242 -6.9659352 0.77222967 0
27.954243 -6.9659352 0.92222971 0
27.904242 -7.3159351 1.2722297 0
27.904242 -7.1159353 1.2222297 0
27.804241 -6.6659355 0.52222967 0
27.804241 -6.4659352 0.52222967 0
27.804241 -6.3159351 0.52222967 0
28.004242 -6.8159351 0.12222969 0
28.004242 -6.6159353 0.12222969 0
28.004242 -6.8159351 0.17222969 0
28.004242 -6.7159352 0.22222969 0
28.004242 -6.6159353 0.17222969 0
28.004242 -6.4159355 0.12222969 0
28.104242 -6.1659355 0.072229691 0
28.154242 -6.2159352 0.12222969 0
28.004242 -6.5159354 0.22222969 0
28.004242 -6.4159355 0.17222969 0
28.004242 -6.3159351 0.22222969 0
28.054241 -6.2659354 0.17222969 0
27.804241 -6.9159355 0.6222297 0
27.854242 -6.9159355 0.67222971 0
27.804241 -6.8159351 0.57222968 0
27.804241 -6.7159352 0.6222297 0
27.854242 -6.7159352 0.67222971 0
27.854242 -6.5659351 0.6222297 0
27.854242 -6.5659351 0.67222971 0
27.804241 -6.8659353 1.0222297 0
27.854242 -6.9159355 1.1222297 0
27.854242 -6.6659355 1.0222297 0
27.854242 -6.7159352 1.1222297 0
27.854242 -6.5659351 1.1222297 0
27.854242 -6.3659353 0.6222297 0
27.854242 -6.3659353 0.67222971 0
27.804241 -6.2159352 0.6222297 0
27.854242 -6.4659352 1.0222297 0
27.854242 -6.3659353 1.1222297 0
27.854242 -6.3159351 0.97222972 0
27.854242 -6.1659355 0.97222972 0
27.854242 -6.2159352 1.0722297 0
27.904242 -6.8159351 0.77222967 0
27.904242 -6.6159353 0.77222967 0
28.004242 -6.7159352 0.8722297 0
27.904242 -6.9159355 1.2222297 0
27.904242 -6.7659354 1.2222297 0
27.904242 -6.5659351 1.2222297 0
27.904242 -6.4159355 0.77222967 0
28.004242 -6.5159354 0.8722297 0
27.904242 -6.1659355 0.67222971 0
27.954243 -6.2159352 0.77222967 0
28.004242 -6.3159351 0.8722297 0
27.954243 -6.3659353 1.2222297 0
27.954243 -6.2159352 1.2222297 0
28.004242 -7.6659355 1.4222298 0
27.954243 -7.4159355 1.4222298 0
27.904242 -7.5159354 1.5722297 0
28.054241 -7.4159355 1.5722297 0
28.104242 -7.6659355 1.6222297 0
27.904242 -7.3159351 1.5222297 0
27.954243 -7.2159352 1.4222298 0
28.054241 -7.2159352 1.5722297 0
27.904242 -7.1159353 1.5222297 0
27.954243 -7.0159354 1.4222298 0
27.954243 -7.0159354 1.6722298 0
28.054241 -6.9659352 1.5722297 0
27.904242 -6.9159355 1.5222297 0
27.954243 -6.8159351 1.3722297 0
27.954243 -6.8159351 1.6222297 0
28.054241 -6.7659354 1.5722297 0
27.904242 -6.7159352 1.4722297 0
27.954243 -6.6159353 1.3722297 0
27.954243 -6.6159353 1.6222297 0
27.904242 -6.5159354 1.4722297 0
27.954243 -6.4159355 1.3722297 0
27.904242 -6.3659353 1.4722297 0
27.954243 -6.4659352 1.6222297 0
28.054241 -6.5159354 1.5722297 0
27.904242 -6.1659355 1.4222298 0
28.004242 -6.2159352 1.3722297 0
27.954243 -6.2659354 1.5722297 0
28.054241 -6.3159351 1.5722297 0
27.854242 -6.1159353 0.52222967 0
27.854242 -5.9659352 0.52222967 0
28.154242 -6.1159353 0.12222969 0
28.104242 -6.0159354 0.072229691 0
28.104242 -6.0159354 0.12222969 0
28.204243 -5.9659352 0.12222969 0
28.204243 -5.9159355 0.072229691 0
28.254242 -5.9159355 0.12222969 0
28.104242 -6.1159353 0.22222969 0
28.254242 -6.1159353 0.17222969 0
28.104242 -5.9659352 0.52222967 0
28.254242 -5.9159355 0.17222969 0
27.854242 -6.0159354 0.57222968 0
27.854242 -6.0159354 1.0722297 0
27.954243 -6.0159354 0.67222971 0
28.054241 -5.9659352 0.6222297 0
27.954243 -6.0159354 0.77222967 0
28.004242 -6.0659351 0.8722297 0
28.254242 -5.9659352 0.67222971 0
28.204243 -5.9159355 0.8722297 0
27.904242 -6.0159354 0.97222972 0
28.054241 -5.9659352 1.0722297 0
27.954243 -6.0159354 1.2222297 0
28.104242 -5.9659352 0.97222972 0
27.954243 -6.0159354 1.4222298 0
28.054241 -6.0659351 1.3722297 0
27.954243 -6.0659351 1.5722297 0
28.154242 -6.0159354 1.4222298 0
28.104242 -6.1159353 1.5722297 0
28.154242 -6.0159354 1.6222297 0
28.454243 -12.815935 0.22222969 0
28.854242 -13.065935 0.22222969 0
29.154242 -13.815935 0.92222971 0
29.154242 -13.465936 0.8722297 0
29.154242 -13.365935 0.92222971 0
29.154242 -13.115935 0.22222969 0
29.154242 -13.065935 0.22222969 0
29.154242 -12.765936 0.22222969 0
29.154242 -12.665936 0.22222969 0
29.154242 -13.115935 0.8722297 0
29.154242 -13.065935 0.92222971 0
29.154242 -12.765936 0.8722297 0
29.154242 -12.665936 0.92222971 0
29.154242 -13.815935 1.5722297 0
29.154242 -13.465936 1.5722297 0
29.154242 -13.365935 1.6222297 0
29.154242 -13.115935 1.5222297 0
29.154242 -13.065935 1.5722297 0
29.154242 -12.765936 1.5222297 0
29.154242 -12.765936 1.5722297 0
29.104242 -12.465936 0.22222969 0
29.154242 -12.465936 0.22222969 0
29.204243 -12.365935 0.22222969 0
29.204243 -12.215936 0.17222969 0
29.204243 -12.215936 0.22222969 0
29.354242 -12.215936 0.22222969 0
29.454243 -12.215936 0.17222969 0
29.504242 -12.215936 0.22222969 0
29.154242 -12.465936 0.82222968 0
29.154242 -12.465936 0.8722297 0
29.204243 -12.365935 0.92222971 0
29.204243 -12.215936 0.82222968 0
29.204243 -12.215936 0.8722297 0
29.354242 -12.215936 0.92222971 0
29.454243 -12.215936 0.82222968 0
29.504242 -12.215936 0.8722297 0
29.154242 -12.465936 1.4722297 0
29.154242 -12.465936 1.5222297 0
29.204243 -12.215936 1.4722297 0
29.204243 -12.215936 1.5222297 0
29.454243 -12.215936 1.4722297 0
29.504242 -12.215936 1.5722297 0
28.454243 -7.8659353 0.12222969 0
28.704243 -7.8159356 0.12222969 0
28.904242 -7.8159356 0.12222969 0
28.704243 -6.2659354 0.57222968 0
28.854242 -6.2659354 0.6222297 0
28.954243 -6.2659354 0.57222968 0
29.354242 -7.7159352 0.12222969 0
29.354242 -7.5659351 0.12222969 0
29.404242 -7.6159353 0.12222969 0
29.354242 -7.3159351 0.12222969 0
29.354242 -7.1159353 0.12222969 0
28.454243 -5.9159355 0.072229691 0
28.504242 -5.9159355 0.12222969 0
28.554241 -5.9159355 0.12222969 0
28.304241 -5.9659352 0.22222969 0
28.704243 -5.9159355 0.072229691 0
28.954243 -5.9159355 0.072229691 0
28.604242 -5.9659352 0.67222971 0
28.304241 -5.9659352 1.0222297 0
28.354242 -5.9659352 1.1222297 0
28.304241 -6.0159354 1.2222297 0
28.554241 -5.9659352 1.0222297 0
28.854242 -6.0659351 0.6222297 0
28.954243 -6.0659351 0.57222968 0
28.954243 -5.9659352 0.6222297 0
29.054241 -5.9659352 0.57222968 0
28.704243 -5.9659352 1.1222297 0
28.804241 -5.9659352 1.0222297 0
28.704243 -6.0159354 1.2722297 0
29.054241 -5.9659352 1.0222297 0
29.004242 -5.9659352 1.1722296 0
29.404242 -6.0659351 0.072229691 0
29.604242 -5.9659352 0.12222969 0
29.504242 -5.9159355 0.072229691 0
29.804241 -5.9659352 0.072229691 0
29.104242 -5.9659352 0.72222972 0
29.304241 -5.9659352 0.57222968 0
29.304241 -5.9659352 0.6222297 0
29.354242 -6.0159354 1.0722297 0
29.404242 -6.0159354 1.1722296 0
29.554241 -5.9659352 0.57222968 0
29.554241 -5.9659352 0.72222972 0
29.654242 -5.9659352 0.67222971 0
29.804241 -5.9659352 0.57222968 0
29.604242 -6.0159354 1.0722297 0
29.854242 -5.9659352 1.0722297 0
29.754242 -6.0159354 1.2222297 0
28.354242 -6.0159354 1.4722297 0
28.304241 -5.9659352 1.5722297 0
28.604242 -6.0159354 1.4722297 0
28.854242 -6.0159354 1.5222297 0
29.104242 -6.0159354 1.5222297 0
29.354242 -6.0159354 1.5722297 0
30.004242 -5.9659352 0.12222969 0
30.054241 -5.9159355 0.072229691 0
30.404242 -5.9659352 0.12222969 0
30.354242 -5.9159355 0.072229691 0
30.654242 -5.9659352 0.072229691 0
30.004242 -5.9659352 0.67222971 0
30.004242 -5.9659352 0.77222967 0
30.104242 -5.9659352 0.57222968 0
30.054241 -5.9659352 1.2222297 0
30.104242 -5.9659352 1.1222297 0
30.404242 -5.9659352 0.6222297 0
30.404242 -5.9659352 0.67222971 0
30.454243 -6.0159354 1.1222297 0
30.504242 -6.0159354 1.2722297 0
30.754242 -5.9659352 0.12222969 0
31.004242 -5.9659352 0.072229691 0
31.154242 -5.9659352 0.12222969 0
31.304241 -5.9159355 0.072229691 0
30.704243 -5.9659352 0.6222297 0
30.804241 -5.9659352 0.72222972 0
31.004242 -5.9659352 0.6222297 0
30.754242 -6.0159354 1.1722296 0
31.204243 -5.9659352 0.72222972 0
31.304241 -5.9659352 0.6222297 0
31.504242 -5.9159355 0.12222969 0
31.504242 -5.8659353 0.072229691 0
31.854242 -5.8659353 0.072229691 0
31.604242 -5.9159355 0.6222297 0
31.604242 -5.9159355 0.72222972 0
31.954243 -5.9159355 0.67222971 0
15.054241 8.2840652 0.12222969 0
15.054241 8.3340645 0.12222969 0
15.004242 8.6340647 -0.027770313 0
15.004242 8.6340647 0.022229688 0
15.004242 8.6340647 0.072229691 0
15.054241 8.6340647 0.072229691 0
15.004242 8.2840652 0.17222969 0
15.004242 8.3840647 0.32222968 0
15.054241 8.3840647 0.2722297 0
15.004242 8.3340645 0.3722297 0
15.004242 8.7340651 -0.027770313 0
15.054241 8.6840649 -0.027770313 0
15.054241 8.6840649 0.022229688 0
15.054241 8.7340651 0.022229688 0
15.004242 8.6840649 0.072229691 0
15.004242 8.8840647 0.2722297 0
15.204242 8.2840652 0.12222969 0
15.204242 8.3340645 0.12222969 0
15.104241 8.6340647 -0.027770313 0
15.204242 8.6340647 -0.027770313 0
15.304241 8.3340645 0.12222969 0
15.354241 8.2840652 0.12222969 0
15.454242 8.3340645 0.12222969 0
15.304241 8.6340647 -0.027770313 0
15.104241 8.4340649 0.2722297 0
15.204242 8.2840652 0.17222969 0
15.204242 8.3840647 0.22222969 0
15.104241 8.2840652 0.52222967 0
15.154242 8.3340645 0.52222967 0
15.254242 8.3340645 0.52222967 0
15.154242 8.6340647 0.3722297 0
15.254242 8.6340647 0.3722297 0
15.304241 8.3340645 0.32222968 0
15.304241 8.3840647 0.32222968 0
15.354241 8.3840647 0.2722297 0
15.404242 8.2840652 0.17222969 0
15.454242 8.3840647 0.22222969 0
15.404242 8.4340649 0.2722297 0
15.354241 8.3840647 0.47222969 0
15.454242 8.3340645 0.3722297 0
15.454242 8.4340649 0.47222969 0
15.154242 8.6840649 -0.077770315 0
15.104241 8.6840649 -0.027770313 0
15.154242 8.6840649 -0.027770313 0
15.154242 8.6840649 0.022229688 0
15.154242 8.6840649 0.072229691 0
15.154242 8.7340651 0.072229691 0
15.204242 8.6840649 0.022229688 0
15.204242 8.7340651 0.022229688 0
15.254242 8.6840649 -0.027770313 0
15.254242 8.7340651 0.072229691 0
15.254242 8.7840652 0.072229691 0
15.304241 8.6840649 -0.027770313 0
15.304241 8.7340651 0.022229688 0
15.354241 8.6840649 -0.027770313 0
15.354241 8.6840649 0.022229688 0
15.404242 8.7340651 0.022229688 0
15.454242 8.6840649 -0.027770313 0
15.454242 8.6840649 0.022229688 0
15.404242 8.7340651 0.072229691 0
15.404242 8.7840652 0.072229691 0
15.354241 8.6840649 0.3722297 0
15.404242 8.7340651 0.3722297 0
15.004242 8.3340645 0.82222968 0
15.054241 8.3840647 0.77222967 0
15.004242 8.3840647 0.8722297 0
15.004242 8.6340647 1.0222297 0
15.104241 8.2840652 0.67222971 0
15.104241 8.3840647 0.92222971 0
15.354241 8.3340645 0.72222972 0
15.304241 8.3840647 0.77222967 0
15.304241 8.3840647 0.82222968 0
15.304241 8.3840647 0.8722297 0
15.104241 8.3840647 1.0222297 0
15.154242 8.6340647 1.0222297 0
15.404242 8.3840647 0.97222972 0
15.354241 8.4840651 1.0222297 0
15.454242 8.6340647 1.0222297 0
15.404242 8.5840645 1.0722297 0
15.154242 8.6840649 1.0722297 0
15.254242 8.6840649 1.0722297 0
15.354241 8.6840649 1.0222297 0
15.354241 8.7340651 1.0722297 0
15.454242 8.7340651 1.0722297 0
15.154242 9.0840645 0.17222969 0
15.204242 9.0840645 0.17222969 0
15.204242 9.5840645 0.022229688 0
15.204242 9.6340647 0.022229688 0
15.104241 9.8340645 0.022229688 0
15.154242 9.7840652 0.022229688 0
15.254242 9.6840649 0.022229688 0
15.254242 9.7340651 0.022229688 0
15.304241 9.6340647 0.022229688 0
15.354241 9.5840645 0.022229688 0
15.404242 9.5340652 0.022229688 0
15.454242 9.5340652 0.022229688 0
15.304241 9.8340645 0.022229688 0
15.004242 9.3840647 1.2222297 0
15.054241 9.4340649 1.2222297 0
15.104241 9.3840647 1.2222297 0
15.204242 9.3840647 1.2222297 0
15.204242 9.4340649 1.2222297 0
15.354241 9.4340649 1.2222297 0
15.304241 9.4340649 1.2722297 0
15.454242 9.3840647 1.2222297 0
15.454242 9.4340649 1.3222297 0
15.154242 9.4840651 1.3222297 0
15.254242 9.4840651 1.3222297 0
15.254242 9.6340647 1.2722297 0
15.204242 9.6840649 1.3222297 0
15.404242 9.4840651 1.3222297 0
15.454242 9.4840651 1.2722297 0
15.004242 9.4840651 1.3722297 0
15.004242 9.5340652 1.4722297 0
15.004242 9.5840645 1.5222297 0
15.054241 9.5840645 1.5222297 0
15.054241 9.6840649 1.5722297 0
15.054241 9.6840649 1.6222297 0
15.104241 9.4840651 1.3722297 0
15.104241 9.5340652 1.3722297 0
15.154242 9.4840651 1.3722297 0
15.104241 9.5340652 1.4722297 0
15.104241 9.5840645 1.5222297 0
15.154242 9.5840645 1.5222297 0
15.204242 9.5340652 1.4722297 0
15.204242 9.5840645 1.5222297 0
15.254242 9.5840645 1.5222297 0
15.154242 9.7840652 1.5222297 0
15.204242 9.7340651 1.4222298 0
15.254242 9.6840649 1.5722297 0
15.204242 9.6840649 1.6722298 0
15.204242 9.8340645 1.6222297 0
15.304241 9.4840651 1.3722297 0
15.304241 9.5340652 1.4222298 0
15.354241 9.5840645 1.5222297 0
15.454242 9.5340652 1.4222298 0
15.404242 9.5840645 1.5222297 0
15.454242 9.5840645 1.5222297 0
15.354241 9.6340647 1.5722297 0
15.454242 9.6340647 1.5722297 0
15.454242 9.6840649 1.6222297 0
15.054241 9.9340649 0.022229688 0
15.004242 9.9840651 0.022229688 0
15.304241 9.9340649 0.022229688 0
15.354241 9.9840651 0.022229688 0
15.354241 10.034065 0.022229688 0
15.404242 10.134065 0.022229688 0
15.454242 10.234065 0.022229688 0
15.054241 11.184065 0.12222969 0
15.454242 10.684065 0.022229688 0
15.104241 11.184065 0.12222969 0
15.204242 11.134065 0.072229691 0
15.354241 11.134065 0.072229691 0
15.404242 11.134065 0.072229691 0
15.454242 11.084064 0.072229691 0
15.354241 11.384065 0.17222969 0
15.454242 11.334064 0.17222969 0
15.254242 9.8840647 1.7222297 0
15.004242 11.984065 -0.12777032 0
15.004242 11.984065 -0.077770315 0
15.054241 11.984065 -0.077770315 0
15.004242 12.034065 -0.027770313 0
15.004242 12.034065 0.022229688 0
15.054241 12.034065 -0.027770313 0
15.054241 12.084064 0.022229688 0
15.104241 11.984065 -0.12777032 0
15.154242 11.984065 -0.077770315 0
15.154242 12.034065 -0.027770313 0
15.254242 12.034065 -0.027770313 0
15.154242 12.084064 0.022229688 0
15.254242 12.084064 0.022229688 0
15.304241 11.984065 -0.077770315 0
15.404242 12.034065 -0.077770315 0
15.304241 12.034065 -0.027770313 0
15.354241 12.084064 0.022229688 0
15.454242 12.084064 0.022229688 0
15.054241 12.534065 0.072229691 0
15.054241 12.634065 0.12222969 0
15.004242 12.684065 0.12222969 0
15.004242 12.734065 0.17222969 0
15.054241 12.734065 0.17222969 0
15.054241 12.834064 0.2722297 0
15.054241 12.684065 0.52222967 0
15.054241 12.834064 0.3722297 0
15.154242 12.534065 0.072229691 0
15.154242 12.634065 0.12222969 0
15.204242 12.634065 0.12222969 0
15.254242 12.634065 0.12222969 0
15.354241 12.634065 0.12222969 0
15.404242 12.634065 0.12222969 0
15.454242 12.634065 0.12222969 0
15.454242 12.434065 0.32222968 0
15.354241 12.434065 0.3722297 0
15.254242 12.684065 0.12222969 0
15.304241 12.684065 0.12222969 0
15.354241 12.684065 0.12222969 0
15.154242 12.684065 0.17222969 0
15.154242 12.834064 0.22222969 0
15.104241 12.834064 0.32222968 0
15.204242 12.834064 0.22222969 0
15.254242 12.784065 0.22222969 0
15.204242 12.834064 0.32222968 0
15.104241 12.684065 0.52222967 0
15.154242 12.684065 0.52222967 0
15.154242 12.834064 0.3722297 0
15.254242 12.684065 0.52222967 0
15.254242 12.734065 0.52222967 0
15.304241 12.784065 0.22222969 0
15.354241 12.784065 0.22222969 0
15.304241 12.834064 0.32222968 0
15.404242 12.784065 0.22222969 0
15.454242 12.784065 0.22222969 0
15.404242 12.834064 0.2722297 0
15.454242 12.834064 0.2722297 0
15.454242 12.834064 0.32222968 0
15.304241 12.684065 0.52222967 0
15.354241 12.734065 0.52222967 0
15.304241 12.834064 0.3722297 0
15.304241 12.834064 0.42222971 0
15.404242 12.684065 0.52222967 0
15.404242 12.834064 0.3722297 0
15.454242 12.834064 0.3722297 0
15.004242 12.734065 0.57222968 0
15.054241 12.734065 0.57222968 0
15.004242 12.684065 0.67222971 0
15.004242 12.684065 0.82222968 0
15.154242 12.734065 0.57222968 0
15.104241 12.684065 0.67222971 0
15.204242 12.734065 0.57222968 0
15.204242 12.684065 0.67222971 0
15.104241 12.684065 0.82222968 0
15.254242 12.684065 0.82222968 0
15.304241 12.684065 0.67222971 0
15.404242 12.684065 0.6222297 0
15.354241 12.684065 0.77222967 0
15.454242 12.684065 0.77222967 0
15.554242 8.3340645 0.12222969 0
15.704242 8.2840652 -0.17777032 0
15.754242 8.2840652 -0.17777032 0
15.754242 8.3340645 -0.22777031 0
15.704242 8.2840652 -0.077770315 0
15.704242 8.3840647 -0.22777031 0
15.854241 8.2840652 -0.17777032 0
15.854241 8.3340645 -0.22777031 0
15.804242 8.2840652 -0.077770315 0
15.804242 8.3840647 -0.22777031 0
15.854241 8.3840647 -0.22777031 0
15.704242 8.2840652 0.022229688 0
15.754242 8.2840652 -0.027770313 0
15.754242 8.2840652 0.022229688 0
15.704242 8.2840652 0.072229691 0
15.704242 8.2840652 0.12222969 0
15.704242 8.3340645 0.12222969 0
15.804242 8.2840652 -0.027770313 0
15.804242 8.3340645 0.022229688 0
15.804242 8.2840652 0.072229691 0
15.804242 8.2840652 0.12222969 0
15.804242 8.3340645 0.072229691 0
15.854241 8.2840652 0.12222969 0
15.854241 8.3840647 0.12222969 0
15.804242 8.5840645 -0.22777031 0
15.854241 8.6340647 -0.22777031 0
15.804242 8.5840645 0.072229691 0
15.854241 8.5840645 0.072229691 0
15.604241 8.3340645 0.17222969 0
15.604241 8.2840652 0.52222967 0
15.654242 8.2840652 0.52222967 0
15.654242 8.3340645 0.52222967 0
15.554242 8.4840651 0.42222971 0
15.554242 8.4840651 0.47222969 0
15.604241 8.4840651 0.47222969 0
15.654242 8.4840651 0.52222967 0
15.654242 8.5340652 0.47222969 0
15.654242 8.5340652 0.52222967 0
15.654242 8.6340647 0.47222969 0
15.654242 8.6340647 0.52222967 0
15.704242 8.2840652 0.22222969 0
15.754242 8.3340645 0.17222969 0
15.754242 8.3840647 0.22222969 0
15.704242 8.3840647 0.2722297 0
15.754242 8.4340649 0.32222968 0
15.804242 8.3340645 0.17222969 0
15.854241 8.3340645 0.17222969 0
15.854241 8.3840647 0.22222969 0
15.804242 8.3840647 0.2722297 0
15.804242 8.4340649 0.32222968 0
15.854241 8.4340649 0.32222968 0
15.704242 8.5340652 0.52222967 0
15.554242 8.6840649 0.022229688 0
15.554242 8.7340651 0.072229691 0
15.504242 8.7840652 0.072229691 0
15.654242 8.7340651 0.022229688 0
15.654242 8.7340651 0.072229691 0
15.604241 8.7840652 0.072229691 0
15.704242 8.7340651 0.072229691 0
15.704242 9.0340652 -0.22777031 0
15.804242 9.0340652 -0.22777031 0
15.804242 9.0340652 -0.077770315 0
15.754242 9.0340652 0.072229691 0
15.854241 8.8840647 0.072229691 0
15.504242 8.7340651 0.3722297 0
15.654242 8.6840649 0.47222969 0
15.654242 8.7340651 0.47222969 0
15.654242 8.7340651 0.52222967 0
15.654242 8.8340645 0.47222969 0
15.654242 8.8340645 0.52222967 0
15.504242 8.9340649 0.2722297 0
15.654242 8.9340649 0.32222968 0
15.654242 9.0340652 0.22222969 0
15.654242 8.9840651 0.32222968 0
15.654242 8.9340649 0.47222969 0
15.654242 8.9340649 0.52222967 0
15.654242 8.9840651 0.52222967 0
15.654242 9.0340652 0.52222967 0
15.754242 8.9340649 0.32222968 0
15.754242 9.0340652 0.22222969 0
15.854241 9.0340652 0.22222969 0
15.754242 9.0340652 0.52222967 0
15.954242 8.2840652 -0.17777032 0
15.954242 8.3340645 -0.22777031 0
15.904242 8.2840652 -0.077770315 0
15.904242 8.3840647 -0.22777031 0
15.954242 8.3840647 -0.22777031 0
16.004242 8.3340645 -0.22777031 0
16.004242 8.3340645 -0.17777032 0
16.054241 8.3340645 -0.22777031 0
16.054241 8.3340645 -0.17777032 0
16.004242 8.2840652 -0.077770315 0
16.054241 8.3340645 -0.077770315 0
16.004242 8.3840647 -0.22777031 0
16.004242 8.4340649 -0.22777031 0
16.004242 8.4340649 -0.17777032 0
16.054241 8.3840647 -0.22777031 0
16.054241 8.4340649 -0.22777031 0
16.054241 8.4340649 -0.17777032 0
16.004242 8.4340649 -0.077770315 0
16.054241 8.3840647 -0.077770315 0
16.054241 8.4340649 -0.077770315 0
15.904242 8.2840652 0.022229688 0
15.954242 8.2840652 -0.027770313 0
15.904242 8.3340645 0.072229691 0
15.954242 8.2840652 0.12222969 0
15.954242 8.3340645 0.072229691 0
15.954242 8.3840647 0.12222969 0
16.004242 8.2840652 0.022229688 0
16.004242 8.3340645 -0.027770313 0
16.054241 8.2840652 0.022229688 0
16.054241 8.3340645 -0.027770313 0
16.054241 8.3340645 0.022229688 0
16.004242 8.3340645 0.072229691 0
16.004242 8.3340645 0.12222969 0
16.054241 8.2840652 0.12222969 0
16.054241 8.3340645 0.072229691 0
16.054241 8.3340645 0.12222969 0
16.004242 8.4340649 -0.027770313 0
16.004242 8.4340649 0.022229688 0
16.054241 8.3840647 0.022229688 0
16.054241 8.4340649 -0.027770313 0
16.054241 8.4340649 0.022229688 0
16.004242 8.4340649 0.12222969 0
16.054241 8.4340649 0.072229691 0
16.054241 8.4340649 0.12222969 0
15.904242 8.4840651 -0.22777031 0
16.004242 8.4840651 -0.17777032 0
16.054241 8.4840651 -0.17777032 0
16.054241 8.5340652 -0.22777031 0
16.004242 8.4840651 -0.077770315 0
16.054241 8.5340652 -0.077770315 0
16.004242 8.5840645 -0.22777031 0
16.004242 8.5840645 -0.17777032 0
16.004242 8.6340647 -0.22777031 0
16.054241 8.5840645 -0.22777031 0
16.054241 8.6340647 -0.22777031 0
16.054241 8.6340647 -0.17777032 0
16.004242 8.5840645 -0.077770315 0
16.004242 8.6340647 -0.077770315 0
16.054241 8.5840645 -0.077770315 0
16.054241 8.6340647 -0.077770315 0
16.004242 8.4840651 0.022229688 0
16.054241 8.5340652 -0.027770313 0
16.054241 8.5340652 0.022229688 0
16.054241 8.4840651 0.12222969 0
16.054241 8.5340652 0.072229691 0
16.004242 8.5840645 -0.027770313 0
16.004242 8.6340647 -0.027770313 0
16.054241 8.5840645 0.022229688 0
16.004242 8.5840645 0.072229691 0
16.004242 8.5840645 0.12222969 0
16.054241 8.5840645 0.072229691 0
16.054241 8.6340647 0.072229691 0
16.054241 8.6340647 0.12222969 0
16.104242 8.3840647 -0.22777031 0
16.104242 8.4340649 -0.22777031 0
16.104242 8.3340645 0.072229691 0
16.104242 8.3340645 0.12222969 0
16.154242 8.3340645 0.072229691 0
16.104242 8.3840647 0.12222969 0
15.954242 8.2840652 0.17222969 0
15.954242 8.3840647 0.22222969 0
15.904242 8.3840647 0.2722297 0
15.954242 8.3840647 0.2722297 0
15.954242 8.4340649 0.32222968 0
16.004242 8.3340645 0.17222969 0
16.054241 8.3340645 0.17222969 0
16.054241 8.3340645 0.22222969 0
16.054241 8.3340645 0.2722297 0
16.004242 8.4340649 0.17222969 0
16.054241 8.3840647 0.22222969 0
16.054241 8.4340649 0.17222969 0
16.054241 8.4340649 0.22222969 0
16.004242 8.4340649 0.2722297 0
16.004242 8.4340649 0.32222968 0
16.054241 8.3840647 0.2722297 0
16.054241 8.4340649 0.2722297 0
16.054241 8.4340649 0.32222968 0
16.004242 8.5340652 0.17222969 0
16.054241 8.4840651 0.22222969 0
16.054241 8.5340652 0.17222969 0
16.004242 8.5340652 0.2722297 0
16.054241 8.4840651 0.32222968 0
16.054241 8.5340652 0.2722297 0
16.054241 8.5340652 0.32222968 0
16.004242 8.5840645 0.17222969 0
16.054241 8.5840645 0.22222969 0
16.054241 8.6340647 0.17222969 0
16.054241 8.6340647 0.22222969 0
16.004242 8.5840645 0.32222968 0
16.004242 8.6340647 0.32222968 0
16.054241 8.5840645 0.32222968 0
16.054241 8.6340647 0.2722297 0
16.054241 8.6340647 0.32222968 0
16.054241 8.5840645 0.3722297 0
16.054241 8.5840645 0.42222971 0
16.054241 8.6340647 0.3722297 0
16.054241 8.6340647 0.42222971 0
16.104242 8.4340649 0.32222968 0
16.204241 8.4340649 0.17222969 0
16.154242 8.5340652 0.42222971 0
16.004242 8.6840649 -0.17777032 0
16.004242 8.7340651 -0.22777031 0
16.054241 8.6840649 -0.22777031 0
16.054241 8.6840649 -0.17777032 0
16.054241 8.7340651 -0.22777031 0
16.004242 8.6840649 -0.077770315 0
16.054241 8.6840649 -0.077770315 0
