# .PCD v0.7 - Point Cloud Data file format
VERSION 0.7
FIELDS x y z intensity
SIZE 4 4 4 4
TYPE F F F F
COUNT 1 1 1 1
WIDTH 1405
HEIGHT 1
VIEWPOINT 0 0 0 1 0 0 0
POINTS 1405
DATA ascii
-23.795759 83.534065 -3.4777703 0
-23.745758 83.534065 -3.4777703 0
-23.745758 83.634064 -3.5777705 0
-23.89576 83.784065 -3.5777705 0
-23.89576 83.834068 -3.5777705 0
-23.845758 83.834068 -3.5777705 0
-23.795759 83.734062 -3.5777705 0
-23.745758 83.684067 -3.5777705 0
-24.045759 84.034065 -3.5777705 0
-23.995758 83.934067 -3.5777705 0
-23.945759 83.884064 -3.5777705 0
-23.945759 84.034065 -3.5777705 0
-24.095758 84.084068 -3.5777705 0
-24.095758 84.134064 -3.5777705 0
-23.845758 84.034065 -3.5777705 0
-23.745758 84.034065 -3.5777705 0
-24.445759 84.434067 -3.6277704 0
-24.345758 84.284065 -3.6277704 0
-24.345758 84.284065 -3.5777705 0
-24.345758 84.384064 -3.5777705 0
-24.345758 84.434067 -3.6277704 0
-24.495758 84.484062 -3.6277704 0
-24.445759 84.634064 -3.6277704 0
-24.39576 84.484062 -3.6277704 0
-24.39576 84.534065 -3.6277704 0
-24.345758 84.484062 -3.6277704 0
-24.39576 84.584068 -3.6277704 0
-24.39576 84.634064 -3.6277704 0
-24.245758 84.334068 -3.6277704 0
-24.295759 84.434067 -3.6277704 0
-24.245758 84.384064 -3.6277704 0
-24.14576 84.334068 -3.6277704 0
-24.195759 84.384064 -3.6277704 0
-24.295759 84.634064 -3.6277704 0
-24.195759 84.584068 -3.6277704 0
-24.14576 84.584068 -3.6277704 0
-24.495758 84.734062 -3.6277704 0
-24.445759 84.684067 -3.6277704 0
-24.445759 84.734062 -3.6277704 0
-24.495758 84.834068 -3.6277704 0
-24.39576 84.684067 -3.6277704 0
-24.39576 84.784065 -3.6277704 0
-24.495758 84.934067 -3.6277704 0
-24.445759 84.884064 -3.6277704 0
-24.445759 84.984062 -3.6277704 0
-24.045759 84.334068 -3.6277704 0
-23.945759 84.334068 -3.6277704 0
-24.095758 84.534065 -3.6277704 0
-24.045759 84.534065 -3.6277704 0
-23.945759 84.534065 -3.6277704 0
-23.845758 84.334068 -3.6277704 0
-23.745758 84.334068 -3.6277704 0
-23.845758 84.534065 -3.6277704 0
-23.745758 84.534065 -3.6277704 0
-23.745758 84.684067 -3.6277704 0
-23.745758 84.734062 -3.6277704 0
-23.795759 84.834068 -3.6277704 0
-23.845758 84.934067 -3.6277704 0
-23.89576 85.034065 -3.6277704 0
-23.695759 83.534065 -3.4777703 0
-23.64576 83.534065 -3.4777703 0
-23.695759 83.634064 -3.5777705 0
-23.64576 83.634064 -3.5777705 0
-23.595758 83.534065 -3.5277703 0
-23.595758 83.534065 -3.4777703 0
-23.545759 83.534065 -3.5277703 0
-23.545759 83.534065 -3.4777703 0
-23.595758 83.584068 -3.5777705 0
-23.545759 83.634064 -3.5777705 0
-23.445759 83.534065 -3.4777703 0
-23.39576 83.534065 -3.5277703 0
-23.39576 83.534065 -3.4777703 0
-23.345758 83.534065 -3.5277703 0
-23.345758 83.534065 -3.4777703 0
-23.445759 83.684067 -3.5777705 0
-23.345758 83.684067 -3.5777705 0
-23.64576 84.034065 -3.5777705 0
-23.545759 84.084068 -3.5777705 0
-23.345758 83.934067 -3.5777705 0
-23.39576 84.034065 -3.5777705 0
-23.445759 84.084068 -3.5777705 0
-23.445759 84.134064 -3.5777705 0
-23.495758 84.234062 -3.5777705 0
-23.345758 84.134064 -3.5777705 0
-23.345758 84.234062 -3.5777705 0
-23.245758 83.534065 -3.5277703 0
-23.245758 83.534065 -3.4777703 0
-23.195759 83.534065 -3.4777703 0
-23.14576 83.534065 -3.5277703 0
-23.14576 83.534065 -3.4777703 0
-23.14576 83.584068 -3.5277703 0
-23.245758 83.734062 -3.5777705 0
-23.295759 83.784065 -3.5777705 0
-23.195759 83.734062 -3.5777705 0
-23.14576 83.734062 -3.5777705 0
-23.195759 83.684067 -3.5277703 0
-23.045759 83.534065 -3.5277703 0
-23.045759 83.534065 -3.4777703 0
-22.995758 83.534065 -3.5277703 0
-22.995758 83.534065 -3.4777703 0
-22.945759 83.534065 -3.5277703 0
-22.945759 83.534065 -3.4777703 0
-23.045759 83.784065 -3.5777705 0
-22.945759 83.784065 -3.5777705 0
-23.295759 83.884064 -3.5777705 0
-23.245758 84.134064 -3.5777705 0
-23.295759 84.184067 -3.5777705 0
-23.195759 84.084068 -3.5777705 0
-23.195759 84.134064 -3.5777705 0
-23.14576 84.184067 -3.5777705 0
-23.095758 84.034065 -3.5777705 0
-23.045759 83.984062 -3.5777705 0
-22.995758 83.934067 -3.5777705 0
-23.045759 84.234062 -3.5777705 0
-22.995758 84.234062 -3.5777705 0
-23.64576 84.334068 -3.6277704 0
-23.545759 84.334068 -3.6277704 0
-23.545759 84.334068 -3.5777705 0
-23.595758 84.384064 -3.5777705 0
-23.545759 84.434067 -3.6277704 0
-23.545759 84.434067 -3.5777705 0
-23.64576 84.534065 -3.6277704 0
-23.64576 84.634064 -3.6277704 0
-23.595758 84.534065 -3.6277704 0
-23.595758 84.534065 -3.5777705 0
-23.595758 84.584068 -3.6277704 0
-23.445759 84.334068 -3.5777705 0
-23.495758 84.384064 -3.5777705 0
-23.445759 84.384064 -3.5777705 0
-23.39576 84.284065 -3.5777705 0
-23.345758 84.434067 -3.5777705 0
-23.495758 84.584068 -3.6277704 0
-23.39576 84.584068 -3.6277704 0
-23.345758 84.634064 -3.6277704 0
-23.64576 84.734062 -3.6277704 0
-23.695759 84.834068 -3.6277704 0
-23.64576 84.784065 -3.6277704 0
-23.695759 84.934067 -3.6277704 0
-23.695759 85.034065 -3.6277704 0
-23.345758 84.834068 -3.6277704 0
-23.445759 85.034065 -3.6277704 0
-23.39576 84.934067 -3.6277704 0
-23.39576 84.984062 -3.6277704 0
-23.245758 84.434067 -3.5777705 0
-23.195759 84.434067 -3.5777705 0
-23.295759 84.634064 -3.6277704 0
-23.14576 84.634064 -3.6277704 0
-22.945759 84.284065 -3.5777705 0
-22.945759 84.434067 -3.5777705 0
-23.095758 84.484062 -3.5777705 0
-23.045759 84.534065 -3.5777705 0
-23.095758 84.584068 -3.6277704 0
-22.995758 84.484062 -3.5777705 0
-22.995758 84.584068 -3.5777705 0
-22.945759 84.634064 -3.6277704 0
-23.245758 84.734062 -3.6277704 0
-23.295759 84.834068 -3.6277704 0
-23.195759 84.684067 -3.6277704 0
-23.14576 84.734062 -3.6277704 0
-23.14576 85.034065 -3.6277704 0
-23.095758 84.734062 -3.6277704 0
-23.045759 84.784065 -3.6277704 0
-22.995758 84.834068 -3.6277704 0
-22.945759 84.834068 -3.6277704 0
-23.045759 84.934067 -3.6277704 0
-23.095758 84.984062 -3.6277704 0
-22.995758 84.884064 -3.6277704 0
-22.945759 84.884064 -3.6277704 0
-26.045759 82.034065 -3.3777704 0
-25.945759 82.084068 -3.3777704 0
-25.845758 82.034065 -3.3777704 0
-25.745758 82.084068 -3.3777704 0
-26.045759 82.584068 -3.4277704 0
-25.945759 82.634064 -3.4277704 0
-25.89576 82.584068 -3.4277704 0
-25.795759 82.534065 -3.3777704 0
-25.64576 82.034065 -3.3777704 0
-25.545759 82.084068 -3.3777704 0
-25.445759 82.084068 -3.3777704 0
-25.345758 82.084068 -3.3777704 0
-25.595758 82.434067 -3.3777704 0
-25.545759 82.384064 -3.3777704 0
-25.695759 82.484062 -3.3777704 0
-25.495758 82.384064 -3.3777704 0
-25.39576 82.334068 -3.3777704 0
-26.095758 82.734062 -3.4277704 0
-26.045759 82.734062 -3.4277704 0
-25.995758 82.684067 -3.4277704 0
-25.845758 82.684067 -3.4277704 0
-25.795759 82.684067 -3.4277704 0
-25.745758 82.734062 -3.4277704 0
-25.695759 82.784065 -3.4277704 0
-25.64576 82.834068 -3.4277704 0
-25.545759 82.884064 -3.4277704 0
-25.545759 82.934067 -3.4277704 0
-25.445759 82.984062 -3.4277704 0
-25.39576 82.984062 -3.4277704 0
-25.345758 83.034065 -3.4277704 0
-25.245758 82.084068 -3.3777704 0
-25.14576 82.134064 -3.3777704 0
-25.045759 82.134064 -3.3777704 0
-25.095758 82.234062 -3.3777704 0
-24.995758 82.184067 -3.3777704 0
-24.945759 82.184067 -3.3777704 0
-25.295759 82.284065 -3.3777704 0
-25.195759 82.284065 -3.3777704 0
-24.945759 82.434067 -3.2777703 0
-24.995758 82.534065 -3.3277705 0
-24.795759 81.934067 -3.2777703 0
-24.845758 82.084068 -3.2777703 0
-24.89576 82.184067 -3.3777704 0
-24.89576 82.184067 -3.2777703 0
-24.795759 82.134064 -3.3777704 0
-24.795759 82.184067 -3.3777704 0
-24.745758 82.234062 -3.3277705 0
-24.695759 82.134064 -3.3277705 0
-24.64576 82.234062 -3.3277705 0
-24.595758 82.084068 -3.3277705 0
-24.89576 82.284065 -3.2777703 0
-25.045759 82.784065 -3.3277705 0
-24.995758 82.684067 -3.3277705 0
-25.095758 82.934067 -3.3277705 0
-25.095758 83.034065 -3.3277705 0
-25.295759 83.084068 -3.4277704 0
-25.245758 83.134064 -3.4277704 0
-25.14576 83.134064 -3.3277705 0
-25.14576 83.284065 -3.3277705 0
-25.195759 83.384064 -3.3777704 0
-24.745758 83.334068 -3.4277704 0
-24.795759 83.384064 -3.4277704 0
-24.545759 83.084068 -3.3777704 0
-24.545759 83.134064 -3.3777704 0
-24.595758 83.184067 -3.4277704 0
-24.695759 83.284065 -3.4277704 0
-24.695759 83.334068 -3.4277704 0
-25.295759 83.484062 -3.3777704 0
-25.245758 83.484062 -3.4277704 0
-25.14576 83.484062 -3.4277704 0
-25.045759 83.484062 -3.4277704 0
-24.945759 83.534065 -3.4277704 0
-24.845758 83.484062 -3.4277704 0
-24.745758 83.534065 -3.4277704 0
-24.695759 83.484062 -3.4277704 0
-24.64576 83.484062 -3.4277704 0
-24.545759 83.534065 -3.4277704 0
-24.495758 82.084068 -3.3277705 0
-24.39576 82.084068 -3.3277705 0
-24.295759 82.034065 -3.3277705 0
-24.245758 82.034065 -3.3277705 0
-24.495758 82.284065 -3.3277705 0
-24.445759 82.334068 -3.3277705 0
-24.345758 82.384064 -3.3277705 0
-24.245758 82.384064 -3.3277705 0
-24.195759 82.434067 -3.3277705 0
-24.095758 82.034065 -3.3277705 0
-23.995758 82.034065 -3.3277705 0
-23.89576 82.034065 -3.3277705 0
-23.795759 82.034065 -3.3277705 0
-24.095758 82.484062 -3.3277705 0
-24.045759 82.534065 -3.3277705 0
-23.945759 82.634064 -3.3777704 0
-23.89576 82.584068 -3.3777704 0
-23.845758 82.584068 -3.3777704 0
-23.845758 82.634064 -3.3777704 0
-23.745758 82.534065 -3.3277705 0
-23.795759 82.634064 -3.3777704 0
-24.495758 83.034065 -3.3777704 0
-24.445759 82.984062 -3.3777704 0
-24.345758 82.934067 -3.3777704 0
-24.245758 82.834068 -3.3777704 0
-24.14576 82.784065 -3.3777704 0
-24.295759 82.884064 -3.3777704 0
-24.045759 82.684067 -3.3777704 0
-24.045759 82.734062 -3.3777704 0
-23.745758 82.684067 -3.3777704 0
-23.695759 82.034065 -3.3277705 0
-23.595758 82.034065 -3.3277705 0
-23.545759 82.034065 -3.3277705 0
-23.39576 82.034065 -3.3277705 0
-23.64576 82.434067 -3.3277705 0
-23.595758 82.384064 -3.3277705 0
-23.495758 82.334068 -3.3277705 0
-23.345758 82.284065 -3.3277705 0
-23.295759 82.084068 -3.3277705 0
-23.295759 82.234062 -3.3277705 0
-23.195759 82.084068 -3.3277705 0
-23.195759 82.234062 -3.3277705 0
-23.095758 82.084068 -3.3277705 0
-23.095758 82.184067 -3.3277705 0
-22.995758 82.134064 -3.3277705 0
-22.945759 82.134064 -3.3277705 0
-22.995758 82.184067 -3.3277705 0
-22.945759 82.584068 -3.2277703 0
-23.64576 82.734062 -3.3777704 0
-23.595758 82.784065 -3.3777704 0
-23.545759 82.834068 -3.3777704 0
-23.495758 82.884064 -3.3777704 0
-23.445759 82.884064 -3.3777704 0
-23.39576 82.934067 -3.3777704 0
-23.345758 82.984062 -3.3777704 0
-23.245758 83.034065 -3.3777704 0
-22.945759 82.684067 -3.2777703 0
-22.995758 82.834068 -3.2777703 0
-23.045759 82.934067 -3.2777703 0
-23.045759 83.034065 -3.2777703 0
-23.195759 83.084068 -3.3777704 0
-23.14576 83.434067 -3.2777703 0
-23.095758 83.184067 -3.2777703 0
-23.095758 83.284065 -3.2777703 0
-24.445759 83.484062 -3.4277704 0
-24.345758 83.484062 -3.4277704 0
-24.245758 83.534065 -3.4277704 0
-24.14576 83.484062 -3.4277704 0
-24.095758 83.484062 -3.4277704 0
-23.995758 83.534065 -3.4277704 0
-23.945759 83.534065 -3.4277704 0
-23.845758 83.534065 -3.4277704 0
-23.745758 83.534065 -3.4277704 0
-23.64576 83.534065 -3.4277704 0
-23.545759 83.534065 -3.4277704 0
-23.495758 83.534065 -3.4277704 0
-23.445759 83.534065 -3.4277704 0
-23.39576 83.534065 -3.4277704 0
-23.345758 83.534065 -3.4277704 0
-23.295759 83.534065 -3.4277704 0
-23.245758 83.534065 -3.4277704 0
-23.245758 83.534065 -3.3277705 0
-23.195759 83.534065 -3.4277704 0
-23.195759 83.534065 -3.3777704 0
-23.14576 83.534065 -3.4277704 0
-23.045759 83.534065 -3.4277704 0
-23.045759 83.534065 -3.3777704 0
-22.945759 83.534065 -3.4277704 0
-22.945759 83.534065 -3.3777704 0
-18.745758 75.034065 -2.8277705 0
-18.745758 75.084068 -2.8277705 0
-18.745758 75.134064 -2.8277705 0
-18.745758 75.184067 -2.8277705 0
-18.745758 75.384064 -2.8777704 0
-18.745758 75.284065 -2.8277705 0
-18.745758 75.334068 -2.8277705 0
-18.795759 75.384064 -2.8277705 0
-18.745758 75.384064 -2.8277705 0
-18.695759 75.184067 -2.8277705 0
-18.745758 75.034065 -2.3777704 0
-18.745758 75.084068 -2.4277704 0
-18.745758 75.084068 -2.2777703 0
-18.745758 75.184067 -2.4277704 0
-18.745758 75.184067 -2.2777703 0
-18.745758 75.234062 -2.3277702 0
-18.745758 75.284065 -2.3777704 0
-18.745758 75.334068 -2.3277702 0
-18.745758 75.384064 -2.4277704 0
-18.745758 75.434067 -2.3777704 0
-18.745758 75.384064 -2.2777703 0
-18.745758 75.184067 -2.1777704 0
-18.745758 75.184067 -2.1277704 0
-18.745758 75.234062 -2.0777702 0
-18.745758 75.134064 -1.9777703 0
-18.745758 75.084068 -1.9277704 0
-18.745758 75.234062 -1.8777703 0
-18.795759 75.434067 -2.1777704 0
-18.745758 75.434067 -2.2277703 0
-18.745758 75.334068 -1.9277704 0
-18.745758 75.384064 -2.0277703 0
-18.745758 75.034065 -1.8277704 0
-18.745758 75.034065 -1.3277704 0
-18.745758 75.034065 -1.0777704 0
-18.745758 75.134064 -1.7777703 0
-18.745758 75.234062 -1.6777704 0
-18.745758 75.134064 -1.5777704 0
-18.745758 75.084068 -1.4777703 0
-18.745758 75.234062 -1.5777704 0
-18.745758 75.384064 -1.7777703 0
-18.745758 75.434067 -1.6777704 0
-18.745758 75.334068 -1.5277703 0
-18.745758 75.434067 -1.6277703 0
-18.745758 75.434067 -1.5777704 0
-18.745758 75.234062 -1.3777703 0
-18.745758 75.184067 -1.2277703 0
-18.745758 75.184067 -1.1777704 0
-18.745758 75.234062 -1.0777704 0
-18.745758 75.284065 -1.2777703 0
-18.745758 75.384064 -1.2777703 0
-18.745758 75.334068 -1.0777704 0
-18.745758 75.434067 -1.2277703 0
-18.745758 75.034065 -0.8777703 0
-18.745758 75.034065 -0.47777033 0
-18.745758 75.134064 -1.0277703 0
-18.745758 75.084068 -0.8777703 0
-18.745758 75.184067 -0.77777034 0
-18.745758 75.184067 -0.67777032 0
-18.745758 75.284065 -0.92777032 0
-18.745758 75.284065 -0.8777703 0
-18.745758 75.284065 -0.77777034 0
-18.745758 75.434067 -0.72777033 0
-18.745758 75.134064 -0.57777029 0
-18.745758 75.084068 -0.3777703 0
-18.745758 75.184067 -0.32777032 0
-18.745758 75.284065 -0.47777033 0
-18.745758 75.334068 -0.52777034 0
-18.745758 75.384064 -0.6277703 0
-18.745758 75.334068 -0.3777703 0
-18.745758 75.284065 -0.27777031 0
-16.745758 75.134064 -2.8277705 0
-16.845758 75.334068 -2.8277705 0
-18.745758 75.534065 -2.8777704 0
-18.745758 75.584068 -2.8777704 0
-18.745758 75.634064 -2.8777704 0
-18.745758 75.484062 -2.8277705 0
-18.745758 75.584068 -2.8277705 0
-18.745758 75.634064 -2.8277705 0
-18.745758 75.734062 -2.8777704 0
-18.745758 75.834068 -2.8777704 0
-18.745758 75.734062 -2.8277705 0
-18.795759 75.884064 -2.8777704 0
-18.745758 75.934067 -2.8777704 0
-18.745758 76.034065 -2.8777704 0
-18.745758 75.884064 -2.8277705 0
-18.745758 75.934067 -2.8277705 0
-18.745758 76.084068 -2.8777704 0
-18.745758 76.134064 -2.8777704 0
-18.745758 76.234062 -2.8777704 0
-18.695759 75.984062 -2.8777704 0
-18.745758 75.584068 -2.4777703 0
-18.745758 75.484062 -2.3777704 0
-18.745758 75.534065 -2.3277702 0
-18.745758 75.634064 -2.4277704 0
-18.745758 75.634064 -2.3777704 0
-18.745758 75.634064 -2.2777703 0
-18.745758 75.734062 -2.4277704 0
-18.745758 75.734062 -2.3277702 0
-18.745758 75.834068 -2.3777704 0
-18.745758 75.834068 -2.3277702 0
-18.695759 75.534065 -2.4777703 0
-18.745758 75.634064 -2.2277703 0
-18.745758 75.634064 -2.1277704 0
-18.745758 75.534065 -1.9777703 0
-18.745758 75.484062 -1.8777703 0
-18.745758 75.684067 -2.1777704 0
-18.745758 75.684067 -2.0777702 0
-18.745758 75.734062 -1.9777703 0
-18.745758 75.684067 -1.9277704 0
-18.695759 75.534065 -2.1277704 0
-18.745758 75.884064 -2.4777703 0
-18.745758 75.984062 -2.4777703 0
-18.745758 75.934067 -2.4277704 0
-18.745758 75.984062 -2.3777704 0
-18.745758 76.034065 -2.3777704 0
-18.745758 76.034065 -2.3277702 0
-18.745758 76.134064 -2.4777703 0
-18.745758 76.134064 -2.4277704 0
-18.745758 76.084068 -2.2777703 0
-18.745758 76.184067 -2.3777704 0
-18.745758 76.234062 -2.4277704 0
-18.795759 75.884064 -2.1777704 0
-18.745758 75.884064 -2.2277703 0
-18.745758 75.934067 -2.0777702 0
-18.745758 75.984062 -2.1277704 0
-18.745758 75.884064 -1.9277704 0
-18.745758 75.984062 -2.0277703 0
-18.795759 76.134064 -2.2277703 0
-18.745758 76.184067 -2.1277704 0
-18.745758 76.084068 -1.9277704 0
-18.745758 76.184067 -2.0277703 0
-18.745758 76.184067 -1.8777703 0
-18.795759 76.334068 -2.8777704 0
-18.745758 76.284065 -2.8777704 0
-18.745758 76.334068 -2.8777704 0
-18.745758 76.434067 -2.8777704 0
-18.795759 76.484062 -2.8777704 0
-18.745758 76.534065 -2.8777704 0
-18.795759 76.584068 -2.8777704 0
-18.745758 76.584068 -2.8777704 0
-18.745758 76.634064 -2.9277704 0
-18.745758 76.634064 -2.8777704 0
-18.795759 76.734062 -2.9277704 0
-18.745758 76.734062 -2.9277704 0
-18.745758 76.734062 -2.8777704 0
-18.795759 76.784065 -2.9277704 0
-18.745758 76.784065 -2.8777704 0
-18.745758 76.834068 -2.9277704 0
-18.745758 76.834068 -2.8777704 0
-18.745758 76.934067 -2.9277704 0
-18.745758 76.934067 -2.8777704 0
-18.795759 77.034065 -2.9277704 0
-18.745758 76.984062 -2.9277704 0
-18.745758 77.034065 -2.8777704 0
-18.745758 76.334068 -2.5277703 0
-18.745758 76.384064 -2.4777703 0
-18.745758 76.284065 -2.3277702 0
-18.745758 76.334068 -2.2777703 0
-18.745758 76.384064 -2.3777704 0
-18.745758 76.484062 -2.5277703 0
-18.745758 76.584068 -2.5277703 0
-18.745758 76.634064 -2.5277703 0
-18.845758 76.484062 -2.2777703 0
-18.845758 76.634064 -2.3277702 0
-18.795759 76.534065 -2.3777704 0
-18.695759 76.434067 -2.4777703 0
-18.695759 76.634064 -2.4777703 0
-18.695759 76.534065 -2.4277704 0
-18.695759 76.484062 -2.3277702 0
-18.745758 76.384064 -2.2277703 0
-18.745758 76.284065 -1.9777703 0
-18.745758 76.384064 -1.8777703 0
-18.845758 76.584068 -2.2277703 0
-18.845758 76.634064 -2.2277703 0
-18.845758 76.634064 -2.0777702 0
-18.795759 76.534065 -2.2277703 0
-18.745758 76.534065 -2.2277703 0
-18.795759 76.534065 -2.1277704 0
-18.795759 76.534065 -2.0777702 0
-18.795759 76.584068 -2.2277703 0
-18.845758 76.534065 -1.8777703 0
-18.845758 76.584068 -1.9777703 0
-18.845758 76.634064 -1.9277704 0
-18.745758 76.534065 -1.9777703 0
-18.745758 76.534065 -1.8777703 0
-18.795759 76.584068 -1.8777703 0
-18.695759 76.434067 -2.1777704 0
-18.695759 76.434067 -2.0777702 0
-18.695759 76.484062 -2.1277704 0
-18.745758 76.834068 -2.5277703 0
-18.845758 76.684067 -2.2777703 0
-18.845758 76.834068 -2.3777704 0
-18.745758 76.934067 -2.5777702 0
-18.745758 77.034065 -2.5277703 0
-18.845758 76.934067 -2.3277702 0
-18.845758 77.034065 -2.3777704 0
-18.845758 77.034065 -2.2777703 0
-18.695759 76.834068 -2.4777703 0
-18.695759 76.734062 -2.4277704 0
-18.695759 76.934067 -2.4777703 0
-18.695759 77.034065 -2.5277703 0
-18.845758 76.684067 -2.1777704 0
-18.845758 76.784065 -2.2277703 0
-18.89576 76.834068 -2.0777702 0
-18.845758 76.734062 -1.9777703 0
-18.89576 76.684067 -1.9277704 0
-18.845758 76.684067 -1.8777703 0
-18.845758 76.884064 -2.1777704 0
-18.845758 76.934067 -2.2277703 0
-18.845758 77.034065 -2.1277704 0
-18.89576 76.934067 -2.0277703 0
-18.89576 76.884064 -1.9277704 0
-18.845758 76.934067 -1.9277704 0
-18.745758 75.584068 -1.8277704 0
-18.745758 75.584068 -1.7777703 0
-18.745758 75.634064 -1.7277703 0
-18.745758 75.484062 -1.4777703 0
-18.745758 75.534065 -1.5277703 0
-18.745758 75.684067 -1.7277703 0
-18.745758 75.684067 -1.6777704 0
-18.745758 75.784065 -1.8277704 0
-18.745758 75.684067 -1.5777704 0
-18.745758 75.734062 -1.4777703 0
-18.745758 75.784065 -1.5777704 0
-18.745758 75.484062 -1.4277704 0
-18.745758 75.584068 -1.3777703 0
-18.745758 75.634064 -1.3777703 0
-18.745758 75.584068 -1.2777703 0
-18.745758 75.484062 -1.1277703 0
-18.745758 75.584068 -1.1277703 0
-18.745758 75.684067 -1.4277704 0
-18.745758 75.734062 -1.2777703 0
-18.745758 75.834068 -1.3277704 0
-18.745758 75.684067 -1.1277703 0
-18.745758 75.784065 -1.1277703 0
-18.745758 75.884064 -1.7277703 0
-18.745758 75.934067 -1.6777704 0
-18.745758 75.984062 -1.8277704 0
-18.745758 75.984062 -1.7777703 0
-18.745758 75.934067 -1.6277703 0
-18.795759 75.934067 -1.5277703 0
-18.745758 75.884064 -1.4777703 0
-18.745758 75.984062 -1.5777704 0
-18.745758 76.084068 -1.7277703 0
-18.745758 76.184067 -1.7277703 0
-18.745758 76.134064 -1.6277703 0
-18.745758 76.134064 -1.4777703 0
-18.745758 76.184067 -1.6277703 0
-18.795759 76.184067 -1.5277703 0
-18.745758 76.034065 -1.4277704 0
-18.745758 75.984062 -1.3277704 0
-18.745758 76.034065 -1.3277704 0
-18.745758 75.884064 -1.1777704 0
-18.745758 76.034065 -1.1777704 0
-18.745758 76.034065 -1.0777704 0
-18.745758 76.184067 -1.3277704 0
-18.745758 76.234062 -1.3277704 0
-18.745758 76.134064 -1.1777704 0
-18.745758 76.234062 -1.2277703 0
-18.745758 75.484062 -0.92777032 0
-18.745758 75.534065 -0.92777032 0
-18.745758 75.634064 -1.0277703 0
-18.745758 75.484062 -0.82777035 0
-18.745758 75.484062 -0.77777034 0
-18.745758 75.634064 -0.77777034 0
-18.745758 75.634064 -0.67777032 0
-18.745758 75.684067 -0.97777033 0
-18.745758 75.734062 -0.97777033 0
-18.745758 75.734062 -0.8777703 0
-18.745758 75.734062 -0.82777035 0
-18.745758 75.834068 -0.77777034 0
-18.745758 75.834068 -0.72777033 0
-18.745758 75.484062 -0.52777034 0
-18.745758 75.484062 -0.3777703 0
-18.745758 75.534065 -0.42777032 0
-18.745758 75.534065 -0.32777032 0
-18.745758 75.634064 -0.27777031 0
-18.745758 75.684067 -0.6277703 0
-18.745758 75.734062 -0.57777029 0
-18.745758 75.734062 -0.47777033 0
-18.745758 75.734062 -0.32777032 0
-18.745758 75.834068 -0.27777031 0
-18.795759 75.934067 -0.97777033 0
-18.745758 75.934067 -0.97777033 0
-18.745758 75.984062 -0.92777032 0
-18.745758 75.984062 -0.82777035 0
-18.745758 76.034065 -0.82777035 0
-18.745758 76.034065 -0.72777033 0
-18.745758 76.134064 -1.0277703 0
-18.745758 76.184067 -1.0277703 0
-18.745758 76.234062 -0.97777033 0
-18.795759 76.234062 -0.8777703 0
-18.745758 76.084068 -0.67777032 0
-18.745758 76.234062 -0.77777034 0
-18.745758 75.934067 -0.57777029 0
-18.745758 75.934067 -0.52777034 0
-18.745758 76.034065 -0.52777034 0
-18.745758 75.884064 -0.27777031 0
-18.745758 75.984062 -0.3777703 0
-18.745758 76.134064 -0.6277703 0
-18.745758 76.134064 -0.52777034 0
-18.745758 76.234062 -0.57777029 0
-18.745758 76.084068 -0.32777032 0
-18.745758 76.084068 -0.27777031 0
-18.745758 76.184067 -0.3777703 0
-18.745758 76.284065 -1.7777703 0
-18.745758 76.334068 -1.6777704 0
-18.745758 76.284065 -1.4777703 0
-18.745758 76.434067 -1.5777704 0
-18.845758 76.534065 -1.6777704 0
-18.845758 76.634064 -1.7777703 0
-18.795759 76.534065 -1.7777703 0
-18.745758 76.534065 -1.7777703 0
-18.795759 76.534065 -1.6777704 0
-18.845758 76.584068 -1.5777704 0
-18.845758 76.634064 -1.5777704 0
-18.845758 76.634064 -1.5277703 0
-18.745758 76.534065 -1.5277703 0
-18.745758 76.584068 -1.5777704 0
-18.795759 76.584068 -1.5277703 0
-18.695759 76.484062 -1.8277704 0
-18.695759 76.484062 -1.7777703 0
-18.695759 76.484062 -1.6777704 0
-18.695759 76.484062 -1.5277703 0
-18.745758 76.434067 -1.3777703 0
-18.745758 76.334068 -1.1777704 0
-18.745758 76.634064 -1.4277704 0
-18.745758 76.634064 -1.3777703 0
-18.745758 76.634064 -1.2777703 0
-18.745758 76.484062 -1.2277703 0
-18.795759 76.634064 -1.1777704 0
-18.745758 76.584068 -1.2277703 0
-18.745758 76.584068 -1.0777704 0
-18.695759 76.484062 -1.3777703 0
-18.695759 76.484062 -1.1777704 0
-18.695759 76.584068 -1.2277703 0
-18.695759 76.584068 -1.0777704 0
-18.845758 76.684067 -1.7777703 0
-18.89576 76.734062 -1.6777704 0
-18.845758 76.684067 -1.6777704 0
-18.89576 76.834068 -1.8277704 0
-18.845758 76.684067 -1.5277703 0
-18.89576 76.784065 -1.5777704 0
-18.845758 76.784065 -1.5277703 0
-18.845758 76.884064 -1.8277704 0
-18.89576 76.934067 -1.6777704 0
-18.845758 76.884064 -1.6777704 0
-18.89576 77.034065 -1.8277704 0
-18.89576 77.034065 -1.7277703 0
-18.89576 76.984062 -1.5777704 0
-18.89576 77.034065 -1.5777704 0
-18.845758 76.984062 -1.5777704 0
-18.745758 76.884064 -1.4777703 0
-18.795759 76.834068 -1.4277704 0
-18.795759 76.784065 -1.2777703 0
-18.795759 76.734062 -1.2277703 0
-18.795759 76.684067 -1.0777704 0
-18.795759 76.784065 -1.0777704 0
-18.795759 76.834068 -1.0777704 0
-18.795759 76.934067 -1.2777703 0
-18.795759 76.984062 -1.4277704 0
-18.795759 76.984062 -1.3277704 0
-18.795759 76.934067 -1.2277703 0
-18.795759 76.884064 -1.1277703 0
-18.795759 76.984062 -1.0777704 0
-18.795759 77.034065 -1.1277703 0
-18.745758 76.334068 -1.0277703 0
-18.745758 76.384064 -1.0277703 0
-18.745758 76.434067 -0.8777703 0
-18.745758 76.284065 -0.82777035 0
-18.745758 76.484062 -0.8777703 0
-18.795759 76.634064 -1.0277703 0
-18.795759 76.634064 -0.8777703 0
-18.745758 76.584068 -0.92777032 0
-18.745758 76.634064 -0.8777703 0
-18.745758 76.484062 -0.82777035 0
-18.795759 76.634064 -0.82777035 0
-18.745758 76.584068 -0.67777032 0
-18.695759 76.534065 -1.0277703 0
-18.695759 76.534065 -0.82777035 0
-18.745758 76.384064 -0.6277703 0
-18.745758 76.384064 -0.57777029 0
-18.745758 76.284065 -0.3777703 0
-18.745758 76.284065 -0.32777032 0
-18.745758 76.434067 -0.42777032 0
-18.745758 76.634064 -0.57777029 0
-18.745758 76.484062 -0.3777703 0
-18.745758 76.534065 -0.42777032 0
-18.745758 76.634064 -0.42777032 0
-18.695759 76.534065 -0.6277703 0
-18.695759 76.534065 -0.47777033 0
-18.695759 76.584068 -0.6277703 0
-18.795759 76.784065 -0.8777703 0
-18.795759 76.834068 -0.92777032 0
-18.795759 76.684067 -0.67777032 0
-18.795759 76.734062 -0.67777032 0
-18.795759 76.884064 -0.92777032 0
-18.795759 76.934067 -0.92777032 0
-18.795759 76.984062 -0.92777032 0
-18.795759 76.884064 -0.72777033 0
-18.795759 76.884064 -0.67777032 0
-18.795759 76.934067 -0.67777032 0
-18.795759 76.734062 -0.6277703 0
-18.745758 76.734062 -0.47777033 0
-18.745758 76.834068 -0.47777033 0
-18.745758 76.734062 -0.3777703 0
-18.745758 76.734062 -0.32777032 0
-18.745758 76.884064 -0.52777034 0
-18.745758 76.934067 -0.47777033 0
-18.745758 77.034065 -0.57777029 0
-18.795759 76.934067 -0.3777703 0
-18.745758 76.884064 -0.42777032 0
-18.745758 77.084068 -2.9277704 0
-18.745758 77.084068 -2.8777704 0
-18.745758 77.134064 -2.9277704 0
-18.795759 77.234062 -2.9277704 0
-18.745758 77.184067 -2.9277704 0
-18.745758 77.234062 -2.9277704 0
-18.795759 77.284065 -2.9277704 0
-18.795759 77.334068 -2.9277704 0
-18.745758 77.284065 -2.9277704 0
-18.745758 77.334068 -2.9277704 0
-18.795759 77.434067 -2.9277704 0
-18.745758 77.434067 -2.9277704 0
-18.795759 77.534065 -2.9277704 0
-18.745758 77.484062 -2.9277704 0
-18.745758 77.534065 -2.9277704 0
-18.795759 77.634064 -2.9777703 0
-18.795759 77.634064 -2.9277704 0
-18.745758 77.584068 -2.9277704 0
-18.745758 77.634064 -2.9277704 0
-18.795759 77.734062 -2.9777703 0
-18.795759 77.684067 -2.9277704 0
-18.745758 77.684067 -2.9277704 0
-18.745758 77.734062 -2.9277704 0
-18.795759 77.834068 -2.9777703 0
-18.745758 77.834068 -2.9777703 0
-18.745758 77.784065 -2.9277704 0
-18.745758 77.234062 -2.5777702 0
-18.845758 77.134064 -2.3277702 0
-18.845758 77.234062 -2.3777704 0
-18.89576 77.234062 -2.2777703 0
-18.845758 77.234062 -2.2777703 0
-18.745758 77.434067 -2.5777702 0
-18.845758 77.334068 -2.3277702 0
-18.845758 77.434067 -2.3777704 0
-18.845758 77.434067 -2.2777703 0
-18.695759 77.084068 -2.4777703 0
-18.695759 77.234062 -2.5277703 0
-18.695759 77.184067 -2.4277704 0
-18.695759 77.284065 -2.4777703 0
-18.695759 77.384064 -2.5277703 0
-18.695759 77.434067 -2.4777703 0
-18.695759 77.384064 -2.4277704 0
-18.845758 77.134064 -2.2277703 0
-18.89576 77.184067 -2.1277704 0
-18.845758 77.134064 -2.0277703 0
-18.89576 77.084068 -1.9277704 0
-18.845758 77.234062 -1.9777703 0
-18.845758 77.184067 -1.8777703 0
-18.845758 77.284065 -2.2277703 0
-18.89576 77.384064 -2.1277704 0
-18.89576 77.284065 -2.0277703 0
-18.89576 77.284065 -1.9277704 0
-18.845758 77.284065 -1.8777703 0
-18.89576 77.434067 -1.9777703 0
-18.89576 77.434067 -1.8777703 0
-18.745758 77.484062 -2.6277704 0
-18.745758 77.634064 -2.5777702 0
-18.845758 77.534065 -2.3277702 0
-18.845758 77.634064 -2.4277704 0
-18.745758 77.734062 -2.6277704 0
-18.745758 77.834068 -2.5777702 0
-18.795759 77.834068 -2.4777703 0
-18.745758 77.734062 -2.3277702 0
-18.795759 77.834068 -2.4277704 0
-18.745758 77.784065 -2.3777704 0
-18.745758 77.834068 -2.3277702 0
-18.745758 77.834068 -2.2777703 0
-18.695759 77.534065 -2.4777703 0
-18.695759 77.584068 -2.5277703 0
-18.695759 77.734062 -2.5777702 0
-18.695759 77.734062 -2.4777703 0
-18.695759 77.784065 -2.5277703 0
-18.89576 77.484062 -2.2277703 0
-18.89576 77.484062 -2.0777702 0
-18.845758 77.584068 -2.1777704 0
-18.845758 77.484062 -1.8777703 0
-18.89576 77.634064 -1.9777703 0
-18.89576 77.634064 -1.8777703 0
-18.745758 77.834068 -2.1777704 0
-18.745758 77.784065 -2.0777702 0
-18.795759 77.884064 -2.9777703 0
-18.795759 77.934067 -2.9777703 0
-18.745758 77.884064 -2.9277704 0
-18.795759 77.984062 -2.9777703 0
-18.745758 78.034065 -2.9777703 0
-18.795759 78.034065 -2.9277704 0
-18.745758 77.984062 -2.9277704 0
-18.745758 77.934067 -2.6777704 0
-18.795759 78.134064 -2.9777703 0
-18.795759 78.134064 -2.9277704 0
-18.745758 78.134064 -2.9277704 0
-18.795759 78.184067 -2.9777703 0
-18.745758 78.184067 -2.9777703 0
-18.745758 78.184067 -2.9277704 0
-18.745758 78.234062 -2.6777704 0
-18.795759 78.334068 -2.9777703 0
-18.745758 78.284065 -2.9777703 0
-18.745758 78.334068 -2.9277704 0
-18.795759 78.384064 -2.9777703 0
-18.745758 78.434067 -2.9777703 0
-18.745758 78.434067 -2.6777704 0
-18.795759 78.484062 -2.9777703 0
-18.795759 78.534065 -2.9777703 0
-18.745758 78.484062 -2.9777703 0
-18.795759 78.634064 -2.9777703 0
-18.745758 78.584068 -2.9777703 0
-18.745758 78.634064 -2.9777703 0
-18.745758 78.484062 -2.6777704 0
-18.745758 78.634064 -2.6777704 0
-18.745758 77.884064 -2.5277703 0
-18.745758 77.984062 -2.6277704 0
-18.745758 77.984062 -2.5777702 0
-18.795759 78.034065 -2.5277703 0
-18.795759 78.034065 -2.4777703 0
-18.745758 77.934067 -2.3777704 0
-18.795759 77.934067 -2.3277702 0
-18.795759 77.984062 -2.3777704 0
-18.795759 78.034065 -2.4277704 0
-18.745758 78.034065 -2.3777704 0
-18.745758 78.034065 -2.2777703 0
-18.795759 78.134064 -2.5777702 0
-18.745758 78.184067 -2.6277704 0
-18.795759 78.184067 -2.5277703 0
-18.795759 78.234062 -2.5277703 0
-18.795759 78.134064 -2.3277702 0
-18.795759 78.184067 -2.3777704 0
-18.795759 78.234062 -2.4277704 0
-18.745758 78.234062 -2.3777704 0
-18.745758 78.184067 -2.3277702 0
-18.795759 77.884064 -2.1277704 0
-18.745758 78.034065 -2.2277703 0
-18.745758 77.984062 -2.1277704 0
-18.745758 78.034065 -2.0777702 0
-18.795759 77.884064 -2.0277703 0
-18.745758 77.884064 -2.0277703 0
-18.745758 77.884064 -1.9277704 0
-18.745758 77.884064 -1.8777703 0
-18.795759 78.034065 -2.0277703 0
-18.795759 78.034065 -1.9777703 0
-18.795759 78.084068 -2.1277704 0
-18.745758 78.184067 -2.2277703 0
-18.745758 78.234062 -2.1277704 0
-18.745758 78.234062 -2.0777702 0
-18.795759 78.084068 -1.9277704 0
-18.795759 78.234062 -2.0277703 0
-18.745758 78.184067 -1.9777703 0
-18.795759 78.184067 -1.8777703 0
-18.795759 78.234062 -1.9277704 0
-18.745758 78.334068 -2.6277704 0
-18.745758 78.334068 -2.5777702 0
-18.795759 78.384064 -2.5777702 0
-18.795759 78.434067 -2.6277704 0
-18.795759 78.384064 -2.5277703 0
-18.795759 78.384064 -2.4777703 0
-18.795759 78.334068 -2.3277702 0
-18.745758 78.334068 -2.3277702 0
-18.795759 78.384064 -2.3777704 0
-18.745758 78.434067 -2.4277704 0
-18.795759 78.534065 -2.5777702 0
-18.745758 78.484062 -2.6277704 0
-18.795759 78.534065 -2.5277703 0
-18.745758 78.634064 -2.6277704 0
-18.795759 78.584068 -2.4777703 0
-18.745758 78.484062 -2.4277704 0
-18.795759 78.534065 -2.3277702 0
-18.745758 78.484062 -2.2777703 0
-18.745758 78.534065 -2.3277702 0
-18.795759 78.584068 -2.4277704 0
-18.745758 78.634064 -2.4277704 0
-18.745758 78.634064 -2.2777703 0
-18.745758 78.334068 -2.2277703 0
-18.795759 78.384064 -2.1277704 0
-18.795759 78.334068 -2.0277703 0
-18.795759 78.334068 -1.8777703 0
-18.795759 78.384064 -2.0277703 0
-18.795759 78.434067 -1.9277704 0
-18.795759 78.534065 -2.1777704 0
-18.745758 78.534065 -2.1777704 0
-18.745758 78.484062 -2.1277704 0
-18.795759 78.584068 -2.0777702 0
-18.795759 78.534065 -2.0277703 0
-18.795759 78.484062 -1.8777703 0
-18.745758 78.484062 -1.8777703 0
-18.745758 78.534065 -1.9277704 0
-18.795759 78.634064 -1.9777703 0
-18.795759 78.634064 -1.9277704 0
-18.89576 77.134064 -1.7277703 0
-18.89576 77.234062 -1.8277704 0
-18.845758 77.234062 -1.7277703 0
-18.89576 77.234062 -1.6277703 0
-18.845758 77.184067 -1.5777704 0
-18.845758 77.234062 -1.6277703 0
-18.745758 77.084068 -1.4777703 0
-18.745758 77.184067 -1.4777703 0
-18.89576 77.334068 -1.7277703 0
-18.89576 77.434067 -1.7777703 0
-18.89576 77.334068 -1.6277703 0
-18.845758 77.384064 -1.5277703 0
-18.745758 77.284065 -1.5277703 0
-18.795759 77.384064 -1.4777703 0
-18.795759 77.134064 -1.2777703 0
-18.795759 77.184067 -1.2777703 0
-18.745758 77.184067 -1.3277704 0
-18.795759 77.084068 -1.1277703 0
-18.795759 77.234062 -1.1777704 0
-18.795759 77.234062 -1.1277703 0
-18.745758 77.234062 -1.0777704 0
-18.795759 77.334068 -1.3777703 0
-18.795759 77.334068 -1.2777703 0
-18.795759 77.284065 -1.1777704 0
-18.795759 77.434067 -1.1777704 0
-18.795759 77.434067 -1.1277703 0
-18.89576 77.534065 -1.7277703 0
-18.89576 77.584068 -1.7777703 0
-18.89576 77.484062 -1.6277703 0
-18.89576 77.484062 -1.5777704 0
-18.795759 77.534065 -1.4777703 0
-18.745758 77.834068 -1.7777703 0
-18.745758 77.784065 -1.6777704 0
-18.845758 77.684067 -1.5277703 0
-18.745758 77.734062 -1.6277703 0
-18.795759 77.484062 -1.3777703 0
-18.795759 77.484062 -1.3277704 0
-18.845758 77.634064 -1.1277703 0
-18.795759 77.484062 -1.2277703 0
-18.795759 77.584068 -1.2277703 0
-18.795759 77.634064 -1.2277703 0
-18.745758 77.734062 -1.4277704 0
-18.795759 77.734062 -1.3277704 0
-18.745758 77.834068 -1.2277703 0
-18.795759 77.084068 -0.92777032 0
-18.795759 77.234062 -0.97777033 0
-18.745758 77.234062 -0.97777033 0
-18.795759 77.084068 -0.77777034 0
-18.795759 77.084068 -0.67777032 0
-18.795759 77.134064 -0.72777033 0
-18.795759 77.234062 -0.72777033 0
-18.795759 77.334068 -0.97777033 0
-18.795759 77.384064 -0.97777033 0
-18.795759 77.284065 -0.82777035 0
-18.795759 77.284065 -0.72777033 0
-18.795759 77.334068 -0.72777033 0
-18.795759 77.434067 -0.72777033 0
-18.745758 77.084068 -0.52777034 0
-18.745758 77.084068 -0.47777033 0
-18.795759 77.234062 -0.6277703 0
-18.745758 77.234062 -0.57777029 0
-18.795759 77.134064 -0.42777032 0
-18.745758 77.084068 -0.42777032 0
-18.795759 77.134064 -0.27777031 0
-18.745758 77.134064 -0.27777031 0
-18.795759 77.284065 -0.52777034 0
-18.745758 77.284065 -0.47777033 0
-18.795759 77.434067 -0.57777029 0
-18.745758 77.434067 -0.52777034 0
-18.745758 77.434067 -0.47777033 0
-18.795759 77.334068 -0.27777031 0
-18.745758 77.334068 -0.32777032 0
-18.795759 77.384064 -0.27777031 0
-18.845758 77.534065 -0.97777033 0
-18.795759 77.484062 -1.0277703 0
-18.795759 77.534065 -1.0277703 0
-18.795759 77.484062 -0.82777035 0
-18.795759 77.534065 -0.77777034 0
-18.795759 77.534065 -0.72777033 0
-18.795759 77.634064 -0.77777034 0
-18.795759 77.734062 -1.0277703 0
-18.795759 77.684067 -0.8777703 0
-18.745758 77.784065 -0.97777033 0
-18.795759 77.734062 -0.77777034 0
-18.745758 77.834068 -0.82777035 0
-18.795759 77.784065 -0.67777032 0
-18.795759 77.534065 -0.6277703 0
-18.795759 77.484062 -0.52777034 0
-18.745758 77.584068 -0.52777034 0
-18.745758 77.634064 -0.52777034 0
-18.795759 77.484062 -0.32777032 0
-18.795759 77.634064 -0.42777032 0
-18.745758 77.584068 -0.32777032 0
-18.745758 77.684067 -0.57777029 0
-18.795759 77.684067 -0.52777034 0
-18.745758 77.784065 -0.57777029 0
-18.795759 77.784065 -0.52777034 0
-18.795759 77.684067 -0.32777032 0
-18.795759 77.834068 -0.3777703 0
-18.795759 77.784065 -0.27777031 0
-18.745758 77.834068 -0.32777032 0
-18.745758 77.884064 -1.8277704 0
-18.795759 77.934067 -1.6777704 0
-18.745758 77.884064 -1.7277703 0
-18.795759 78.034065 -1.8277704 0
-18.795759 78.034065 -1.7777703 0
-18.745758 77.984062 -1.8277704 0
-18.745758 78.034065 -1.7777703 0
-18.745758 77.884064 -1.6277703 0
-18.795759 77.884064 -1.5277703 0
-18.795759 77.884064 -1.4777703 0
-18.745758 78.034065 -1.6277703 0
-18.745758 77.984062 -1.5277703 0
-18.795759 78.134064 -1.6777704 0
-18.745758 78.084068 -1.7277703 0
-18.795759 78.234062 -1.7777703 0
-18.795759 78.234062 -1.7277703 0
-18.745758 78.234062 -1.6777704 0
-18.795759 78.084068 -1.5277703 0
-18.745758 78.084068 -1.4777703 0
-18.795759 78.234062 -1.5777704 0
-18.795759 78.234062 -1.4777703 0
-18.795759 77.884064 -1.3777703 0
-18.745758 77.884064 -1.4277704 0
-18.795759 77.934067 -1.2777703 0
-18.745758 77.934067 -1.2777703 0
-18.745758 78.034065 -1.2777703 0
-18.745758 77.884064 -1.1777704 0
-18.795759 77.884064 -1.0777704 0
-18.795759 77.934067 -1.0777704 0
-18.745758 77.934067 -1.1277703 0
-18.795759 78.034065 -1.1777704 0
-18.795759 78.084068 -1.3777703 0
-18.745758 78.084068 -1.3277704 0
-18.745758 78.134064 -1.2777703 0
-18.795759 78.234062 -1.3277704 0
-18.745758 78.084068 -1.1777704 0
-18.795759 78.084068 -1.1277703 0
-18.795759 78.084068 -1.0777704 0
-18.795759 78.234062 -1.2277703 0
-18.795759 78.234062 -1.1277703 0
-18.745758 78.284065 -1.8277704 0
-18.795759 78.434067 -1.8277704 0
-18.795759 78.384064 -1.6777704 0
-18.795759 78.434067 -1.7277703 0
-18.745758 78.284065 -1.5277703 0
-18.795759 78.434067 -1.5777704 0
-18.795759 78.384064 -1.5277703 0
-18.745758 78.534065 -1.7277703 0
-18.795759 78.584068 -1.8277704 0
-18.795759 78.584068 -1.7777703 0
-18.795759 78.584068 -1.7277703 0
-18.745758 78.584068 -1.6777704 0
-18.745758 78.484062 -1.5777704 0
-18.795759 78.534065 -1.5277703 0
-18.795759 78.584068 -1.5777704 0
-18.795759 78.284065 -1.3777703 0
-18.795759 78.284065 -1.3277704 0
-18.795759 78.434067 -1.4277704 0
-18.745758 78.434067 -1.3777703 0
-18.795759 78.434067 -1.3277704 0
-18.745758 78.284065 -1.2277703 0
-18.795759 78.284065 -1.0777704 0
-18.795759 78.434067 -1.2277703 0
-18.745758 78.384064 -1.1777704 0
-18.795759 78.434067 -1.1277703 0
-18.795759 78.434067 -1.0777704 0
-18.795759 78.534065 -1.4277704 0
-18.795759 78.534065 -1.2777703 0
-18.795759 78.634064 -1.4277704 0
-18.745758 78.584068 -1.3777703 0
-18.795759 78.584068 -1.3277704 0
-18.795759 78.534065 -1.1777704 0
-18.795759 78.634064 -1.2277703 0
-18.795759 78.584068 -1.1277703 0
-18.795759 78.584068 -1.0777704 0
-18.795759 78.634064 -1.0777704 0
-18.745758 78.584068 -1.1277703 0
-18.745758 77.934067 -0.97777033 0
-18.795759 77.984062 -1.0277703 0
-18.745758 78.034065 -0.97777033 0
-18.745758 77.934067 -0.82777035 0
-18.795759 77.934067 -0.67777032 0
-18.795759 77.984062 -0.82777035 0
-18.745758 78.034065 -0.67777032 0
-18.795759 78.084068 -0.97777033 0
-18.795759 78.084068 -0.8777703 0
-18.795759 78.134064 -0.8777703 0
-18.795759 78.184067 -1.0277703 0
-18.795759 78.234062 -1.0277703 0
-18.795759 78.134064 -0.82777035 0
-18.795759 78.084068 -0.72777033 0
-18.745758 78.134064 -0.67777032 0
-18.795759 78.234062 -0.77777034 0
-18.795759 77.934067 -0.57777029 0
-18.745758 77.884064 -0.57777029 0
-18.745758 77.934067 -0.6277703 0
-18.745758 77.984062 -0.52777034 0
-18.795759 77.934067 -0.27777031 0
-18.795759 77.984062 -0.42777032 0
-18.795759 78.034065 -0.3777703 0
-18.795759 77.984062 -0.32777032 0
-18.795759 77.984062 -0.27777031 0
-18.795759 78.084068 -0.57777029 0
-18.795759 78.134064 -0.57777029 0
-18.795759 78.134064 -0.3777703 0
-18.795759 78.134064 -0.32777032 0
-18.795759 78.184067 -0.42777032 0
-18.795759 78.234062 -0.3777703 0
-18.795759 78.284065 -0.92777032 0
-18.795759 78.284065 -0.8777703 0
-18.795759 78.384064 -1.0277703 0
-18.795759 78.284065 -0.67777032 0
-18.795759 78.384064 -0.77777034 0
-18.795759 78.434067 -0.72777033 0
-18.795759 78.534065 -0.97777033 0
-18.795759 78.484062 -0.92777032 0
-18.795759 78.484062 -0.8777703 0
-18.795759 78.634064 -0.92777032 0
-18.795759 78.584068 -0.82777035 0
-18.795759 78.584068 -0.77777034 0
-18.795759 78.584068 -0.72777033 0
-18.795759 78.634064 -0.67777032 0
-18.795759 78.284065 -0.6277703 0
-18.795759 78.334068 -0.6277703 0
-18.795759 78.334068 -0.47777033 0
-18.795759 78.284065 -0.3777703 0
-18.795759 78.334068 -0.32777032 0
-18.795759 78.434067 -0.42777032 0
-18.795759 78.434067 -0.3777703 0
-18.795759 78.484062 -0.6277703 0
-18.795759 78.484062 -0.47777033 0
-18.795759 78.584068 -0.47777033 0
-18.795759 78.634064 -0.52777034 0
-18.795759 78.484062 -0.42777032 0
-18.795759 78.484062 -0.32777032 0
-18.795759 78.634064 -0.42777032 0
-17.745758 77.034065 -2.9277704 0
-17.595758 76.634064 -2.8777704 0
-17.495758 76.434067 -2.8777704 0
-17.39576 76.284065 -2.8777704 0
-17.64576 76.834068 -2.9277704 0
-16.945759 75.534065 -2.8277705 0
-17.095758 75.684067 -2.8777704 0
-17.14576 75.884064 -2.8777704 0
-17.245758 76.084068 -2.8777704 0
-22.89576 80.534065 -3.1277704 0
-22.845758 80.534065 -3.1277704 0
-22.795759 80.534065 -3.1277704 0
-22.745758 80.534065 -3.1277704 0
-22.695759 80.534065 -3.1277704 0
-22.64576 80.534065 -3.1277704 0
-22.595758 80.534065 -3.1277704 0
-22.545759 80.534065 -3.1277704 0
-22.595758 80.584068 -3.1277704 0
-22.545759 80.584068 -3.1277704 0
-22.89576 80.534065 -2.9277704 0
-22.89576 80.534065 -2.8777704 0
-22.845758 80.534065 -2.9277704 0
-22.845758 80.534065 -2.8777704 0
-22.89576 80.584068 -2.8777704 0
-22.795759 80.534065 -2.9277704 0
-22.745758 80.534065 -2.9277704 0
-22.795759 80.584068 -2.8777704 0
-22.845758 80.534065 -2.6777704 0
-22.89576 80.584068 -2.7277703 0
-22.89576 80.584068 -2.6777704 0
-22.845758 80.584068 -2.7277703 0
-22.845758 80.584068 -2.6777704 0
-22.795759 80.584068 -2.8277705 0
-22.795759 80.584068 -2.7277703 0
-22.795759 80.584068 -2.6777704 0
-22.745758 80.584068 -2.7277703 0
-22.695759 80.534065 -2.9277704 0
-22.695759 80.534065 -2.8777704 0
-22.64576 80.534065 -2.9277704 0
-22.64576 80.584068 -2.9277704 0
-22.64576 80.584068 -2.8777704 0
-22.595758 80.534065 -2.8777704 0
-22.545759 80.534065 -2.9277704 0
-22.545759 80.534065 -2.8777704 0
-22.595758 80.584068 -2.9277704 0
-22.695759 80.584068 -2.7777703 0
-22.64576 80.584068 -2.8277705 0
-22.695759 80.584068 -2.7277703 0
-22.695759 80.584068 -2.6777704 0
-22.64576 80.584068 -2.7277703 0
-22.64576 80.584068 -2.6777704 0
-22.595758 80.584068 -2.7277703 0
-22.595758 80.584068 -2.6777704 0
-22.545759 80.584068 -2.7277703 0
-22.545759 80.584068 -2.6777704 0
-22.495758 80.534065 -3.1277704 0
-22.445759 80.534065 -3.1277704 0
-22.495758 80.584068 -3.1277704 0
-22.39576 80.534065 -3.1277704 0
-22.39576 80.534065 -3.0777705 0
-22.345758 80.534065 -3.1277704 0
-22.345758 80.534065 -3.0777705 0
-22.295759 80.534065 -3.1277704 0
-22.295759 80.534065 -3.0777705 0
-22.245758 80.534065 -3.1277704 0
-22.245758 80.534065 -3.0777705 0
-22.195759 80.534065 -3.1277704 0
-22.195759 80.534065 -3.0777705 0
-22.14576 80.534065 -3.1277704 0
-22.14576 80.534065 -3.0777705 0
-22.14576 80.584068 -3.1277704 0
-22.495758 80.534065 -2.8777704 0
-22.445759 80.534065 -2.9277704 0
-22.495758 80.584068 -2.9277704 0
-22.445759 80.584068 -2.9277704 0
-22.445759 80.584068 -2.8777704 0
-22.39576 80.534065 -2.9277704 0
-22.345758 80.534065 -2.9277704 0
-22.39576 80.584068 -2.9277704 0
-22.39576 80.584068 -2.8777704 0
-22.345758 80.584068 -2.8777704 0
-22.495758 80.584068 -2.8277705 0
-22.495758 80.584068 -2.7777703 0
-22.495758 80.584068 -2.7277703 0
-22.495758 80.584068 -2.6777704 0
-22.445759 80.584068 -2.7277703 0
-22.445759 80.584068 -2.6777704 0
-22.345758 80.584068 -2.8277705 0
-22.39576 80.584068 -2.7277703 0
-22.39576 80.584068 -2.6777704 0
-22.345758 80.584068 -2.7277703 0
-22.295759 80.584068 -2.9277704 0
-22.295759 80.584068 -2.8777704 0
-22.245758 80.584068 -2.9277704 0
-22.245758 80.584068 -2.8777704 0
-22.195759 80.534065 -2.8777704 0
-22.195759 80.584068 -2.8777704 0
-22.14576 80.584068 -2.9277704 0
-22.14576 80.584068 -2.8777704 0
-22.245758 80.584068 -2.7777703 0
-22.295759 80.584068 -2.7277703 0
-22.295759 80.584068 -2.6777704 0
-22.245758 80.584068 -2.7277703 0
-22.245758 80.584068 -2.6777704 0
-22.195759 80.584068 -2.8277705 0
-22.195759 80.584068 -2.6777704 0
-22.14576 80.584068 -2.7277703 0
-22.345758 80.934067 -3.1777704 0
-22.39576 81.034065 -3.1777704 0
-22.295759 80.834068 -3.1277704 0
-22.195759 80.684067 -3.1277704 0
-22.89576 80.584068 -2.6277704 0
-22.845758 80.584068 -2.6277704 0
-22.89576 80.584068 -2.5277703 0
-22.89576 80.584068 -2.4777703 0
-22.845758 80.584068 -2.5277703 0
-22.845758 80.584068 -2.4777703 0
-22.795759 80.584068 -2.6277704 0
-22.795759 80.584068 -2.5277703 0
-22.795759 80.584068 -2.4777703 0
-22.745758 80.584068 -2.5277703 0
-22.745758 80.584068 -2.4777703 0
-22.89576 80.584068 -2.3777704 0
-22.845758 80.584068 -2.3777704 0
-22.89576 80.584068 -2.2777703 0
-22.845758 80.584068 -2.3277702 0
-22.845758 80.584068 -2.2777703 0
-22.795759 80.584068 -2.3777704 0
-22.745758 80.584068 -2.3777704 0
-22.795759 80.584068 -2.3277702 0
-22.795759 80.584068 -2.2777703 0
-22.695759 80.584068 -2.6277704 0
-22.695759 80.584068 -2.5277703 0
-22.695759 80.584068 -2.4777703 0
-22.64576 80.584068 -2.5277703 0
-22.545759 80.584068 -2.6277704 0
-22.595758 80.584068 -2.5277703 0
-22.545759 80.584068 -2.5277703 0
-22.545759 80.584068 -2.4777703 0
-22.695759 80.584068 -2.4277704 0
-22.695759 80.584068 -2.3777704 0
-22.64576 80.584068 -2.3777704 0
-22.695759 80.584068 -2.3277702 0
-22.695759 80.584068 -2.2777703 0
-22.595758 80.584068 -2.4277704 0
-22.595758 80.584068 -2.3777704 0
-22.545759 80.584068 -2.4277704 0
-22.545759 80.584068 -2.3777704 0
-22.595758 80.584068 -2.3277702 0
-22.595758 80.584068 -2.2777703 0
-22.545759 80.584068 -2.2777703 0
-22.89576 80.584068 -2.1777704 0
-22.845758 80.584068 -2.2277703 0
-22.845758 80.584068 -2.1777704 0
-22.89576 80.584068 -2.1277704 0
-22.845758 80.584068 -2.0777702 0
-22.795759 80.584068 -2.1777704 0
-22.745758 80.584068 -2.2277703 0
-22.795759 80.584068 -2.0777702 0
-22.795759 80.634064 -2.1277704 0
-22.745758 80.584068 -2.1277704 0
-22.745758 80.584068 -2.0777702 0
-22.89576 80.584068 -1.9777703 0
-22.845758 80.584068 -2.0277703 0
-22.845758 80.584068 -1.9777703 0
-22.89576 80.584068 -1.8777703 0
-22.795759 80.584068 -1.9777703 0
-22.795759 80.634064 -1.9777703 0
-22.745758 80.584068 -2.0277703 0
-22.745758 80.634064 -1.9777703 0
-22.795759 80.634064 -1.9277704 0
-22.795759 80.634064 -1.8777703 0
-22.695759 80.584068 -2.1777704 0
-22.64576 80.584068 -2.2277703 0
-22.64576 80.584068 -2.1777704 0
-22.695759 80.584068 -2.1277704 0
-22.695759 80.584068 -2.0777702 0
-22.695759 80.634064 -2.1277704 0
-22.595758 80.584068 -2.2277703 0
-22.545759 80.584068 -2.2277703 0
-22.545759 80.584068 -2.1777704 0
-22.595758 80.584068 -2.1277704 0
-22.545759 80.584068 -2.0777702 0
-22.64576 80.584068 -1.9777703 0
-22.695759 80.584068 -1.9277704 0
-22.695759 80.634064 -1.8777703 0
-22.64576 80.634064 -1.9277704 0
-22.595758 80.634064 -2.0277703 0
-22.545759 80.634064 -1.9777703 0
-22.595758 80.634064 -1.9277704 0
-22.595758 80.634064 -1.8777703 0
-22.445759 80.584068 -2.6277704 0
-22.495758 80.584068 -2.5277703 0
-22.495758 80.584068 -2.4777703 0
-22.445759 80.584068 -2.5277703 0
-22.345758 80.584068 -2.6277704 0
-22.39576 80.584068 -2.5277703 0
-22.39576 80.584068 -2.4777703 0
-22.345758 80.584068 -2.5277703 0
-22.345758 80.584068 -2.4777703 0
-22.495758 80.584068 -2.4277704 0
-22.495758 80.584068 -2.3777704 0
-22.445759 80.584068 -2.4277704 0
-22.445759 80.584068 -2.3777704 0
-22.495758 80.584068 -2.3277702 0
-22.495758 80.584068 -2.2777703 0
-22.345758 80.584068 -2.3777704 0
-22.39576 80.584068 -2.3277702 0
-22.39576 80.584068 -2.2777703 0
-22.245758 80.584068 -2.6277704 0
-22.295759 80.584068 -2.5277703 0
-22.295759 80.584068 -2.4777703 0
-22.245758 80.584068 -2.5277703 0
-22.195759 80.584068 -2.6277704 0
-22.14576 80.584068 -2.6277704 0
-22.195759 80.584068 -2.5277703 0
-22.195759 80.584068 -2.4777703 0
-22.14576 80.584068 -2.5277703 0
-22.14576 80.584068 -2.4777703 0
-22.295759 80.584068 -2.4277704 0
-22.245758 80.584068 -2.4277704 0
-22.245758 80.584068 -2.3777704 0
-22.295759 80.584068 -2.3277702 0
-22.295759 80.584068 -2.2777703 0
-22.245758 80.584068 -2.3277702 0
-22.195759 80.584068 -2.4277704 0
-22.14576 80.584068 -2.3777704 0
-22.195759 80.584068 -2.3277702 0
-22.195759 80.584068 -2.2777703 0
-22.495758 80.584068 -2.2277703 0
-22.445759 80.584068 -2.2277703 0
-22.445759 80.584068 -2.1777704 0
-22.495758 80.584068 -2.1277704 0
-22.495758 80.584068 -2.0777702 0
-22.445759 80.584068 -2.1277704 0
-22.345758 80.584068 -2.2277703 0
