# .PCD v0.7 - Point Cloud Data file format
VERSION 0.7
FIELDS x y z intensity
SIZE 4 4 4 4
TYPE F F F F
COUNT 1 1 1 1
WIDTH 1434
HEIGHT 1
VIEWPOINT 0 0 0 1 0 0 0
POINTS 1434
DATA ascii
-32.59576 27.584064 2.9722297 0
-32.64576 27.634066 3.3222296 0
-32.64576 27.884066 3.2722297 0
-33.045757 29.084064 3.5222297 0
-32.945759 29.334064 3.4722297 0
-32.64576 29.584064 3.0722296 0
-32.64576 29.734066 3.2722297 0
-32.84576 29.484066 3.4722297 0
-32.695759 29.634066 3.4722297 0
-32.64576 29.334064 3.7722297 0
-33.045757 30.284065 3.4722297 0
-32.995758 30.384066 3.5222297 0
-33.045757 30.484066 3.4222298 0
-32.64576 29.884066 2.9722297 0
-32.64576 29.884066 3.0222297 0
-32.64576 29.934065 3.2222297 0
-32.64576 30.084064 2.9722297 0
-32.64576 30.134066 2.9722297 0
-32.64576 30.234066 3.0222297 0
-32.695759 30.184065 3.1722298 0
-32.695759 30.234066 3.3222296 0
-32.84576 30.184065 3.4722297 0
-32.695759 29.934065 3.4222298 0
-32.695759 30.084064 3.5222297 0
-32.64576 30.434065 3.0222297 0
-32.64576 30.384066 3.1222298 0
-32.695759 30.584064 3.0722296 0
-32.64576 30.634066 3.0722296 0
-32.695759 30.534065 3.2722297 0
-32.545757 30.634066 3.9722297 0
-35.695759 30.734066 -0.077770315 0
-35.695759 30.784065 -0.077770315 0
-35.64576 30.834064 -0.077770315 0
-35.59576 30.684065 -0.22777031 0
-35.59576 30.734066 -0.17777032 0
-35.545757 30.784065 -0.22777031 0
-35.64576 30.684065 -0.027770313 0
-35.64576 30.684065 0.022229688 0
-35.64576 30.784065 -0.027770313 0
-35.64576 30.834064 0.022229688 0
-35.59576 30.784065 0.022229688 0
-35.64576 30.884066 -0.077770315 0
-35.64576 30.934065 -0.077770315 0
-35.64576 30.984066 -0.077770315 0
-35.545757 30.984066 -0.17777032 0
-35.695759 30.934065 0.022229688 0
-35.59576 30.934065 -0.027770313 0
-35.545757 30.884066 0.022229688 0
-35.59576 31.034065 -0.027770313 0
-35.59576 31.034065 0.022229688 0
-35.545757 30.984066 0.022229688 0
-35.545757 31.034065 -0.027770313 0
-35.545757 31.034065 0.072229691 0
-35.445759 30.734066 -0.077770315 0
-35.39576 30.834064 -0.077770315 0
-35.495758 30.734066 0.12222969 0
-35.495758 30.834064 0.12222969 0
-35.39576 30.734066 0.072229691 0
-35.495758 30.884066 -0.22777031 0
-35.445759 30.934065 -0.17777032 0
-35.445759 30.884066 -0.077770315 0
-35.495758 30.984066 -0.22777031 0
-35.34576 30.934065 -0.077770315 0
-35.39576 30.984066 -0.12777032 0
-35.445759 30.984066 0.12222969 0
-35.495758 30.684065 0.17222969 0
-35.495758 30.684065 0.32222968 0
-35.495758 30.784065 0.17222969 0
-35.445759 30.834064 0.17222969 0
-35.495758 30.784065 0.32222968 0
-35.34576 30.684065 0.32222968 0
-35.34576 30.784065 0.32222968 0
-35.445759 30.734066 0.3722297 0
-35.34576 30.734066 0.52222967 0
-35.39576 30.834064 0.3722297 0
-35.445759 30.884066 0.32222968 0
-35.445759 30.984066 0.17222969 0
-35.445759 30.984066 0.32222968 0
-35.39576 31.034065 0.17222969 0
-35.34576 30.934065 0.47222969 0
-35.39576 30.984066 0.42222971 0
-35.64576 31.134066 -0.077770315 0
-35.59576 31.084064 -0.077770315 0
-35.59576 31.184065 -0.077770315 0
-35.545757 31.234066 -0.077770315 0
-35.545757 31.134066 -0.027770313 0
-35.59576 31.184065 -0.027770313 0
-35.545757 31.234066 -0.027770313 0
-35.545757 31.284065 -0.22777031 0
-35.495758 31.084064 -0.22777031 0
-35.445759 31.084064 -0.17777032 0
-35.39576 31.134066 -0.12777032 0
-35.39576 31.234066 -0.17777032 0
-35.495758 31.134066 0.072229691 0
-35.445759 31.084064 0.12222969 0
-35.495758 31.234066 -0.027770313 0
-35.34576 31.134066 0.022229688 0
-35.39576 31.184065 0.12222969 0
-35.445759 31.284065 -0.077770315 0
-35.445759 31.384066 -0.22777031 0
-35.34576 31.284065 -0.12777032 0
-35.39576 31.384066 -0.22777031 0
-35.495758 31.284065 -0.027770313 0
-35.445759 31.284065 -0.027770313 0
-35.445759 31.334064 -0.027770313 0
-35.445759 31.384066 -0.027770313 0
-35.39576 31.284065 0.072229691 0
-35.34576 31.284065 0.12222969 0
-35.34576 31.434065 0.072229691 0
-35.39576 31.134066 0.17222969 0
-35.34576 31.134066 0.32222968 0
-35.34576 31.334064 0.17222969 0
-35.295757 30.734066 0.32222968 0
-35.295757 30.784065 0.32222968 0
-35.295757 30.834064 0.32222968 0
-35.295757 30.734066 0.52222967 0
-35.295757 30.834064 0.3722297 0
-35.295757 30.884066 0.32222968 0
-35.245758 30.884066 0.32222968 0
-35.245758 30.934065 0.32222968 0
-35.245758 30.984066 0.32222968 0
-35.245758 31.034065 0.2722297 0
-35.195759 31.034065 0.32222968 0
-35.295757 30.884066 0.3722297 0
-35.295757 30.884066 0.52222967 0
-35.245758 30.934065 0.52222967 0
-35.245758 31.034065 0.47222969 0
-35.14576 31.034065 0.52222967 0
-35.295757 31.134066 -0.027770313 0
-35.195759 31.184065 0.022229688 0
-35.245758 31.334064 -0.12777032 0
-35.295757 31.434065 -0.17777032 0
-35.295757 31.384066 -0.077770315 0
-35.195759 31.434065 -0.12777032 0
-35.245758 31.334064 0.022229688 0
-35.295757 31.384066 0.12222969 0
-35.14576 31.284065 0.022229688 0
-35.09576 31.384066 -0.077770315 0
-35.09576 31.334064 0.022229688 0
-35.09576 31.434065 -0.027770313 0
-35.09576 31.434065 0.022229688 0
-35.045757 31.384066 0.072229691 0
-35.245758 31.134066 0.2722297 0
-35.295757 31.234066 0.22222969 0
-35.14576 31.134066 0.32222968 0
-35.245758 31.084064 0.3722297 0
-35.14576 31.134066 0.3722297 0
-35.195759 31.134066 0.47222969 0
-35.195759 31.134066 0.52222967 0
-35.195759 31.234066 0.3722297 0
-35.195759 31.184065 0.47222969 0
-35.14576 31.184065 0.47222969 0
-35.195759 31.284065 0.2722297 0
-35.195759 31.434065 0.22222969 0
-35.14576 31.384066 0.2722297 0
-35.195759 31.284065 0.3722297 0
-35.14576 31.334064 0.3722297 0
-35.14576 31.284065 0.52222967 0
-35.09576 31.234066 0.32222968 0
-35.045757 31.234066 0.3722297 0
-35.09576 31.234066 0.47222969 0
-35.045757 31.334064 0.32222968 0
-34.945759 31.334064 0.22222969 0
-35.045757 31.284065 0.52222967 0
-35.045757 31.384066 0.3722297 0
-34.995758 31.334064 0.47222969 0
-34.995758 31.334064 0.52222967 0
-34.995758 31.434065 0.3722297 0
-34.945759 31.434065 0.42222971 0
-34.945759 31.434065 0.52222967 0
-35.495758 30.734066 0.72222972 0
-35.445759 30.684065 0.67222971 0
-35.445759 30.734066 0.72222972 0
-35.445759 30.784065 0.6222297 0
-35.39576 30.734066 0.57222968 0
-35.34576 30.784065 0.72222972 0
-35.34576 30.834064 0.72222972 0
-35.34576 30.884066 0.6222297 0
-35.295757 30.734066 0.57222968 0
-35.295757 30.834064 0.72222972 0
-35.14576 30.684065 0.67222971 0
-35.14576 30.784065 0.67222971 0
-35.245758 30.734066 0.92222971 0
-35.245758 30.834064 0.77222967 0
-35.195759 30.834064 0.92222971 0
-35.295757 30.934065 0.57222968 0
-35.295757 30.934065 0.6222297 0
-35.245758 30.884066 0.57222968 0
-35.295757 30.884066 0.72222972 0
-35.245758 30.934065 0.72222972 0
-35.295757 30.984066 0.57222968 0
-35.245758 30.984066 0.6222297 0
-35.195759 30.934065 0.72222972 0
-35.14576 31.034065 0.67222971 0
-35.195759 30.934065 0.8722297 0
-35.14576 31.034065 0.8722297 0
-35.09576 30.734066 0.67222971 0
-35.09576 30.984066 0.72222972 0
-35.09576 31.034065 0.72222972 0
-35.245758 30.784065 0.97222972 0
-35.14576 30.684065 1.0222297 0
-35.195759 30.784065 0.97222972 0
-35.14576 30.784065 1.0222297 0
-35.14576 30.934065 0.97222972 0
-35.195759 30.984066 0.97222972 0
-35.09576 30.734066 1.0222297 0
-35.045757 30.684065 1.1222297 0
-35.09576 30.834064 1.0222297 0
-34.995758 30.734066 1.1222297 0
-35.045757 30.684065 1.1722296 0
-35.045757 30.834064 1.2222297 0
-35.09576 30.784065 1.3222297 0
-34.995758 30.784065 1.1722296 0
-34.945759 30.834064 1.2222297 0
-34.945759 30.784065 1.2722297 0
-35.09576 30.884066 1.0222297 0
-35.09576 30.984066 0.97222972 0
-35.09576 31.034065 0.97222972 0
-35.045757 30.984066 1.0222297 0
-34.945759 30.934065 0.97222972 0
-34.995758 30.884066 1.1222297 0
-34.945759 30.934065 1.1222297 0
-34.995758 31.034065 1.0222297 0
-34.995758 30.984066 1.0722297 0
-34.945759 30.934065 1.1722296 0
-34.995758 30.934065 1.3222297 0
-34.945759 31.034065 1.2222297 0
-35.14576 31.084064 0.67222971 0
-35.14576 31.084064 0.72222972 0
-35.045757 31.184065 0.72222972 0
-34.995758 31.134066 0.72222972 0
-35.09576 31.134066 0.8722297 0
-35.045757 31.184065 0.92222971 0
-34.995758 31.084064 0.77222967 0
-34.945759 31.084064 1.0722297 0
-34.945759 31.134066 1.0722297 0
-35.295757 31.534065 -0.22777031 0
-35.195759 31.534065 -0.12777032 0
-35.14576 31.534065 -0.12777032 0
-35.295757 31.484066 0.12222969 0
-35.245758 31.584064 0.12222969 0
-35.14576 31.684065 -0.12777032 0
-35.09576 31.484066 -0.17777032 0
-34.945759 31.534065 -0.17777032 0
-35.045757 31.534065 0.022229688 0
-35.045757 31.584064 0.022229688 0
-34.995758 31.484066 0.072229691 0
-34.995758 31.534065 0.072229691 0
-34.995758 31.634066 0.022229688 0
-34.995758 31.584064 0.072229691 0
-35.09576 31.734066 -0.12777032 0
-35.09576 31.734066 0.12222969 0
-34.995758 31.684065 0.022229688 0
-34.945759 31.684065 0.022229688 0
-35.295757 31.484066 0.17222969 0
-35.09576 31.484066 0.2722297 0
-35.045757 31.584064 0.2722297 0
-34.945759 31.534065 0.17222969 0
-35.09576 31.484066 0.3722297 0
-34.945759 31.484066 0.42222971 0
-34.945759 31.534065 0.3722297 0
-34.945759 31.484066 0.47222969 0
-34.945759 31.734066 0.17222969 0
-34.89576 31.434065 -0.077770315 0
-34.695759 31.434065 -0.027770313 0
-34.545757 31.384066 -0.027770313 0
-34.89576 31.384066 0.52222967 0
-34.84576 31.434065 0.52222967 0
-34.64576 31.384066 0.22222969 0
-34.495758 31.434065 0.42222971 0
-34.39576 31.434065 0.3722297 0
-34.14576 31.284065 0.32222968 0
-34.195759 31.334064 0.47222969 0
-34.89576 31.034065 1.1222297 0
-34.795757 31.034065 0.97222972 0
-34.89576 30.934065 1.2722297 0
-34.84576 30.934065 1.2722297 0
-34.89576 31.034065 1.1722296 0
-34.84576 30.984066 1.2222297 0
-34.695759 31.034065 1.0222297 0
-34.64576 31.034065 1.0222297 0
-34.89576 31.184065 0.72222972 0
-34.89576 31.234066 0.72222972 0
-34.84576 31.134066 0.77222967 0
-34.795757 31.234066 0.77222967 0
-34.745758 31.184065 0.77222967 0
-34.745758 31.234066 0.77222967 0
-34.795757 31.334064 0.72222972 0
-34.745758 31.434065 0.57222968 0
-34.695759 31.184065 0.82222968 0
-34.64576 31.284065 0.57222968 0
-34.64576 31.384066 0.72222972 0
-34.64576 31.334064 0.77222967 0
-34.545757 31.334064 0.77222967 0
-34.545757 31.284065 0.8722297 0
-34.545757 31.384066 0.77222967 0
-34.89576 31.234066 1.0722297 0
-34.84576 31.184065 1.1222297 0
-34.84576 31.234066 1.0722297 0
-34.89576 31.084064 1.2222297 0
-34.84576 31.134066 1.1722296 0
-34.84576 31.134066 1.2222297 0
-34.84576 31.084064 1.2722297 0
-34.84576 31.134066 1.3222297 0
-34.795757 31.134066 1.1722296 0
-34.745758 31.234066 1.1722296 0
-34.795757 31.234066 1.3222297 0
-34.84576 31.284065 1.1722296 0
-34.745758 31.284065 1.2222297 0
-34.64576 31.084064 1.0222297 0
-34.545757 31.084064 1.0222297 0
-34.545757 31.184065 1.0222297 0
-34.545757 31.134066 1.2222297 0
-34.59576 31.234066 1.2222297 0
-34.545757 31.434065 0.97222972 0
-34.695759 31.284065 1.2722297 0
-34.39576 31.234066 0.6222297 0
-34.39576 31.334064 0.8722297 0
-34.39576 31.434065 0.82222968 0
-34.34576 31.434065 0.82222968 0
-34.39576 31.434065 0.8722297 0
-34.34576 31.384066 0.8722297 0
-34.445759 31.184065 1.0722297 0
-34.39576 31.134066 1.0222297 0
-34.39576 31.234066 0.97222972 0
-34.445759 31.184065 1.2222297 0
-34.445759 31.184065 1.3222297 0
-34.445759 31.334064 0.97222972 0
-34.445759 31.334064 1.0222297 0
-34.445759 31.384066 0.97222972 0
-34.295757 31.234066 1.0722297 0
-34.295757 31.184065 1.2722297 0
-34.295757 31.234066 1.3222297 0
-34.195759 31.184065 1.3222297 0
-34.245758 31.384066 1.0222297 0
-34.84576 31.484066 -0.17777032 0
-34.745758 31.534065 -0.17777032 0
-34.745758 31.634066 0.022229688 0
-34.89576 31.784065 -0.12777032 0
-34.84576 31.834064 0.022229688 0
-34.84576 31.784065 0.072229691 0
-34.59576 31.484066 -0.17777032 0
-34.545757 31.534065 -0.12777032 0
-34.695759 31.584064 0.072229691 0
-34.695759 31.784065 -0.077770315 0
-34.545757 31.684065 -0.077770315 0
-34.545757 31.834064 -0.22777031 0
-34.545757 31.834064 -0.17777032 0
-34.59576 31.734066 0.12222969 0
-34.545757 31.834064 0.072229691 0
-34.745758 31.534065 0.32222968 0
-34.795757 31.534065 0.47222969 0
-34.64576 31.634066 0.17222969 0
-34.695759 31.484066 0.3722297 0
-34.695759 31.584064 0.52222967 0
-34.695759 31.684065 0.17222969 0
-34.39576 31.534065 -0.17777032 0
-34.445759 31.584064 0.072229691 0
-34.39576 31.534065 0.12222969 0
-34.34576 31.834064 -0.22777031 0
-34.445759 31.684065 -0.027770313 0
-34.39576 31.734066 0.12222969 0
-34.39576 31.834064 0.072229691 0
-34.245758 31.484066 -0.12777032 0
-34.245758 31.634066 -0.027770313 0
-34.245758 31.684065 -0.22777031 0
-34.295757 31.734066 -0.12777032 0
-34.295757 31.784065 -0.17777032 0
-34.295757 31.784065 -0.12777032 0
-34.195759 31.734066 0.12222969 0
-34.495758 31.684065 0.22222969 0
-34.295757 31.634066 0.17222969 0
-34.195759 31.534065 0.2722297 0
-34.245758 31.634066 0.52222967 0
-34.64576 31.534065 0.57222968 0
-34.545757 31.584064 0.57222968 0
-34.495758 31.484066 0.72222972 0
-34.39576 31.584064 0.72222972 0
-34.39576 31.484066 0.8722297 0
-34.195759 31.484066 0.57222968 0
-34.295757 31.534065 0.82222968 0
-34.195759 31.584064 0.82222968 0
-35.195759 30.734066 1.4722297 0
-35.14576 30.684065 1.4722297 0
-35.14576 30.784065 1.4722297 0
-35.245758 30.784065 1.7222297 0
-35.195759 30.684065 1.6722298 0
-35.195759 30.684065 1.7222297 0
-35.14576 30.884066 1.5222297 0
-35.14576 30.884066 1.6722298 0
-35.14576 30.934065 1.7222297 0
-35.09576 30.734066 1.3722297 0
-35.045757 30.684065 1.3722297 0
-35.045757 30.784065 1.3722297 0
-35.09576 30.784065 1.5222297 0
-34.995758 30.684065 1.4222298 0
-34.995758 30.734066 1.4722297 0
-35.045757 30.684065 1.6222297 0
-35.045757 30.834064 1.5722297 0
-35.09576 30.884066 1.3722297 0
-35.045757 30.884066 1.3722297 0
-35.09576 30.884066 1.4722297 0
-35.045757 30.934065 1.5222297 0
-35.045757 30.984066 1.4722297 0
-35.045757 31.034065 1.5222297 0
-34.945759 30.884066 1.4722297 0
-34.995758 30.984066 1.5222297 0
-35.09576 31.034065 1.5722297 0
-34.995758 30.934065 1.7222297 0
-34.995758 30.984066 1.6722298 0
-35.045757 30.784065 1.9222298 0
-34.945759 30.684065 1.7722297 0
-34.945759 30.834064 1.9722297 0
-35.09576 30.884066 1.8222297 0
-35.09576 30.934065 1.7722297 0
-34.945759 30.984066 1.7722297 0
-34.945759 30.934065 2.1222298 0
-35.045757 31.084064 1.4722297 0
-34.995758 31.084064 1.4222298 0
-34.945759 31.084064 1.3722297 0
-34.945759 31.084064 1.4222298 0
-34.995758 31.184065 1.3722297 0
-34.945759 31.084064 1.5722297 0
-34.995758 30.784065 2.3222296 0
-34.945759 30.684065 2.4722297 0
-34.945759 30.834064 2.4722297 0
-34.84576 30.734066 1.3722297 0
-34.84576 30.984066 1.3722297 0
-34.795757 30.884066 1.4722297 0
-34.745758 30.934065 1.4722297 0
-34.795757 30.984066 1.7222297 0
-34.89576 30.734066 2.0722296 0
-34.795757 30.784065 2.1222298 0
-34.89576 30.934065 1.8722297 0
-34.795757 31.034065 1.7722297 0
-34.745758 31.034065 1.8722297 0
-34.84576 30.984066 2.0722296 0
-34.795757 30.934065 1.9722297 0
-34.695759 31.034065 1.7722297 0
-34.64576 30.984066 2.0222297 0
-34.695759 31.034065 2.0722296 0
-34.89576 31.134066 1.5222297 0
-34.84576 31.184065 1.4222298 0
-34.795757 31.134066 1.5222297 0
-34.795757 31.084064 1.6222297 0
-34.695759 31.234066 1.4722297 0
-34.59576 31.234066 1.3722297 0
-34.545757 31.234066 1.4722297 0
-34.695759 31.134066 1.5722297 0
-34.545757 31.134066 1.5722297 0
-34.59576 31.084064 1.6722298 0
-34.545757 31.184065 1.5722297 0
-34.64576 31.084064 1.8222297 0
-34.545757 31.084064 1.8722297 0
-34.445759 31.034065 1.8722297 0
-34.445759 30.984066 2.0222297 0
-34.295757 31.034065 1.9222298 0
-34.14576 30.884066 2.1222298 0
-34.495758 31.134066 1.6222297 0
-34.445759 31.184065 1.6722298 0
-34.34576 31.084064 1.6222297 0
-34.295757 31.184065 1.4722297 0
-34.245758 31.184065 1.4722297 0
-34.245758 31.084064 1.6222297 0
-34.245758 31.134066 1.5722297 0
-34.445759 31.084064 1.8222297 0
-34.84576 30.734066 2.2222297 0
-34.84576 30.834064 2.3722298 0
-34.795757 30.984066 2.1722298 0
-34.695759 30.784065 2.5222297 0
-34.545757 30.884066 2.2222297 0
-34.695759 30.934065 2.3722298 0
-34.545757 30.884066 2.5222297 0
-34.545757 30.984066 2.3722298 0
-34.545757 31.034065 2.5222297 0
-34.795757 30.734066 2.5722296 0
-34.745758 30.884066 2.7722297 0
-34.64576 30.834064 2.5722296 0
-34.64576 30.834064 2.9222298 0
-34.495758 30.834064 2.8222296 0
-34.14576 30.784065 2.6722298 0
-34.295757 31.034065 2.5722296 0
-33.945759 31.434065 -0.077770315 0
-33.945759 31.434065 0.22222969 0
-33.84576 31.184065 0.52222967 0
-33.795757 31.384066 0.32222968 0
-33.795757 30.984066 0.72222972 0
-33.995758 31.334064 0.6222297 0
-34.09576 31.234066 1.3222297 0
-33.995758 31.634066 0.022229688 0
-34.09576 31.784065 -0.12777032 0
-33.995758 31.734066 -0.077770315 0
-33.995758 31.784065 -0.12777032 0
-34.045757 31.684065 0.072229691 0
-33.795757 31.534065 -0.12777032 0
-33.795757 31.634066 0.022229688 0
-33.84576 31.684065 -0.22777031 0
-34.09576 31.534065 0.52222967 0
-33.745758 31.534065 0.17222969 0
-33.695759 31.534065 -0.077770315 0
-33.64576 31.684065 -0.17777032 0
-33.695759 31.734066 -0.027770313 0
-33.39576 31.684065 -0.17777032 0
-32.545757 30.784065 0.52222967 0
-32.545757 31.034065 0.2722297 0
-32.545757 30.884066 0.3722297 0
-32.545757 31.034065 0.52222967 0
-32.545757 31.234066 0.22222969 0
-32.545757 31.084064 0.3722297 0
-32.545757 31.384066 0.22222969 0
-32.545757 31.284065 0.3722297 0
-32.545757 31.284065 0.47222969 0
-32.545757 31.384066 0.47222969 0
-32.545757 30.734066 0.77222967 0
-32.545757 30.734066 0.92222971 0
-32.545757 30.884066 0.72222972 0
-32.545757 30.984066 0.6222297 0
-32.545757 31.034065 0.72222972 0
-32.545757 30.934065 0.92222971 0
-32.545757 30.834064 1.0722297 0
-32.59576 30.734066 1.2222297 0
-32.545757 30.684065 1.2722297 0
-32.59576 30.784065 1.3222297 0
-32.545757 30.984066 1.0222297 0
-32.545757 31.034065 1.0722297 0
-32.59576 30.884066 1.2222297 0
-32.545757 31.134066 0.57222968 0
-32.545757 31.234066 0.72222972 0
-32.545757 31.134066 0.8722297 0
-32.545757 31.234066 0.92222971 0
-32.545757 31.284065 0.57222968 0
-32.545757 31.434065 0.57222968 0
-32.545757 31.384066 0.67222971 0
-32.545757 31.334064 0.8722297 0
-32.545757 31.384066 0.92222971 0
-32.545757 31.134066 1.0222297 0
-32.59576 31.084064 1.1722296 0
-32.59576 31.084064 1.2722297 0
-32.59576 31.134066 1.3222297 0
-32.59576 31.234066 1.1722296 0
-32.59576 31.284065 1.0222297 0
-32.545757 31.284065 1.0222297 0
-32.545757 31.434065 1.0222297 0
-32.59576 31.284065 1.3222297 0
-32.59576 31.384066 1.1722296 0
-32.59576 31.384066 1.3222297 0
-32.545757 31.534065 0.12222969 0
-32.545757 31.634066 0.072229691 0
-32.545757 31.834064 -0.17777032 0
-32.545757 31.684065 0.072229691 0
-32.545757 31.734066 0.072229691 0
-32.545757 31.834064 0.12222969 0
-32.545757 31.534065 0.22222969 0
-32.545757 31.484066 0.32222968 0
-32.545757 31.484066 0.47222969 0
-32.545757 31.634066 0.47222969 0
-32.545757 31.684065 0.22222969 0
-32.545757 31.684065 0.32222968 0
-32.545757 31.734066 0.42222971 0
-32.545757 31.684065 0.52222967 0
-32.545757 31.734066 0.47222969 0
-32.59576 31.834064 0.52222967 0
-32.545757 32.034065 -0.17777032 0
-32.545757 31.934065 0.022229688 0
-32.545757 31.884066 0.072229691 0
-32.545757 31.934065 0.12222969 0
-32.545757 31.984066 0.022229688 0
-32.545757 32.084064 0.022229688 0
-32.545757 32.134064 0.022229688 0
-32.545757 32.084064 0.072229691 0
-32.545757 31.884066 0.17222969 0
-32.545757 31.884066 0.32222968 0
-32.545757 32.034065 0.17222969 0
-32.545757 32.034065 0.2722297 0
-32.545757 31.934065 0.42222971 0
-32.545757 31.884066 0.47222969 0
-32.545757 31.984066 0.47222969 0
-32.545757 31.984066 0.52222967 0
-32.545757 32.034065 0.47222969 0
-32.545757 32.084064 0.42222971 0
-32.545757 32.084064 0.52222967 0
-32.545757 32.134064 0.47222969 0
-32.545757 31.534065 0.57222968 0
-32.545757 31.534065 0.67222971 0
-32.545757 31.534065 0.82222968 0
-32.545757 31.534065 0.92222971 0
-32.545757 31.634066 0.8722297 0
-32.545757 31.734066 0.67222971 0
-32.59576 31.684065 0.82222968 0
-32.59576 31.734066 0.8722297 0
-32.59576 31.784065 0.8722297 0
-32.545757 31.834064 0.8722297 0
-32.59576 31.534065 1.0222297 0
-32.545757 31.584064 0.97222972 0
-32.59576 31.584064 1.1222297 0
-32.59576 31.484066 1.2722297 0
-32.59576 31.534065 1.3222297 0
-32.59576 31.634066 1.2722297 0
-32.59576 31.634066 1.3222297 0
-32.59576 31.734066 0.97222972 0
-32.59576 31.734066 1.1222297 0
-32.59576 31.834064 0.97222972 0
-32.59576 31.734066 1.2722297 0
-32.59576 31.734066 1.3222297 0
-32.59576 31.784065 1.3222297 0
-32.59576 31.834064 1.2722297 0
-32.545757 31.884066 0.6222297 0
-32.59576 32.034065 0.6222297 0
-32.59576 31.884066 0.77222967 0
-32.545757 31.884066 0.8722297 0
-32.59576 31.984066 0.8722297 0
-32.59576 32.034065 0.8722297 0
-32.59576 32.034065 0.92222971 0
-32.59576 32.084064 0.77222967 0
-32.59576 32.084064 0.8722297 0
-32.59576 32.134064 0.8722297 0
-32.59576 32.134064 0.92222971 0
-32.545757 32.184067 0.92222971 0
-32.59576 31.884066 1.1222297 0
-32.59576 31.984066 0.97222972 0
-32.59576 32.034065 1.0722297 0
-32.59576 31.884066 1.2722297 0
-32.59576 31.934065 1.2722297 0
-32.59576 31.934065 1.3222297 0
-32.59576 31.984066 1.2722297 0
-32.59576 32.034065 1.2722297 0
-32.545757 32.184067 1.0722297 0
-32.59576 32.084064 1.2722297 0
-32.59576 32.084064 1.3222297 0
-32.59576 32.184067 1.2722297 0
-34.045757 31.184065 1.3722297 0
-32.59576 30.684065 1.5222297 0
-32.59576 30.734066 1.4722297 0
-32.59576 30.734066 1.5222297 0
-32.59576 30.834064 1.4722297 0
-32.59576 30.684065 1.7222297 0
-32.59576 30.734066 1.7222297 0
-32.59576 30.834064 1.6722298 0
-32.59576 30.934065 1.4222298 0
-32.59576 30.884066 1.5222297 0
-32.59576 31.034065 1.4722297 0
-32.59576 30.934065 1.6722298 0
-32.64576 30.784065 1.9222298 0
-32.64576 30.734066 1.9722297 0
-32.59576 30.734066 1.9722297 0
-32.59576 30.834064 2.0222297 0
-32.59576 30.884066 1.7722297 0
-32.59576 30.934065 1.9222298 0
-32.59576 31.034065 1.7722297 0
-32.59576 31.034065 1.9222298 0
-32.59576 30.884066 1.9722297 0
-32.59576 31.134066 1.3722297 0
-32.59576 31.134066 1.4722297 0
-32.59576 31.084064 1.6222297 0
-32.59576 31.084064 1.6722298 0
-32.59576 31.234066 1.6722298 0
-32.59576 31.234066 1.7222297 0
-32.59576 31.334064 1.3722297 0
-32.59576 31.284065 1.4722297 0
-32.59576 31.434065 1.4222298 0
-32.59576 31.334064 1.5722297 0
-32.59576 31.434065 1.6222297 0
-32.59576 31.384066 1.7222297 0
-32.64576 31.184065 1.9222298 0
-32.59576 31.134066 1.7722297 0
-32.59576 31.184065 1.9222298 0
-32.64576 31.334064 1.8722297 0
-32.64576 31.434065 1.7722297 0
-32.64576 31.434065 1.8722297 0
-32.59576 31.284065 1.7722297 0
-32.59576 31.284065 1.9222298 0
-32.64576 31.284065 2.1222298 0
-32.64576 31.384066 2.1222298 0
-32.64576 31.434065 2.1222298 0
-32.64576 30.684065 2.2222297 0
-32.64576 30.734066 2.2222297 0
-32.64576 30.784065 2.2222297 0
-32.64576 30.834064 2.2222297 0
-32.64576 30.734066 2.4222298 0
-32.64576 30.784065 2.5222297 0
-32.64576 30.834064 2.5222297 0
-32.64576 30.884066 2.2222297 0
-32.64576 31.034065 2.2222297 0
-32.59576 30.934065 2.1722298 0
-32.64576 30.884066 2.4222298 0
-32.64576 31.034065 2.3722298 0
-32.64576 30.984066 2.4722297 0
-32.64576 30.684065 2.7222297 0
-32.695759 30.834064 2.5722296 0
-32.64576 30.784065 2.7222297 0
-32.695759 30.734066 2.9222298 0
-32.64576 30.934065 2.6722298 0
-32.64576 31.034065 2.5722296 0
-32.695759 30.884066 2.8222296 0
-32.64576 30.984066 2.7722297 0
-32.64576 31.084064 2.1722298 0
-32.64576 31.184065 2.2222297 0
-32.695759 31.134066 2.5222297 0
-32.64576 31.184065 2.3722298 0
-32.64576 31.184065 2.4222298 0
-32.64576 31.284065 2.2222297 0
-32.64576 31.334064 2.1722298 0
-32.64576 31.434065 2.1722298 0
-32.64576 31.334064 2.3722298 0
-32.64576 31.384066 2.3722298 0
-32.64576 31.134066 2.6222298 0
-32.695759 31.084064 2.8222296 0
-32.64576 31.134066 2.7722297 0
-32.64576 31.234066 2.8222296 0
-32.64576 31.284065 2.6222298 0
-32.64576 31.334064 2.7222297 0
-32.64576 31.434065 2.5722296 0
-32.695759 31.434065 2.7722297 0
-32.695759 31.384066 2.9222298 0
-32.59576 31.584064 1.4222298 0
-32.64576 31.634066 1.7222297 0
-32.59576 31.534065 1.5722297 0
-32.59576 31.484066 1.7222297 0
-32.59576 31.534065 1.7222297 0
-32.59576 31.584064 1.6222297 0
-32.59576 31.734066 1.4222298 0
-32.59576 31.784065 1.5222297 0
-32.64576 31.784065 1.7222297 0
-32.59576 31.734066 1.5722297 0
-32.59576 31.684065 1.7222297 0
-32.59576 31.734066 1.6722298 0
-32.64576 31.534065 1.8222297 0
-32.59576 31.584064 1.8722297 0
-32.64576 31.534065 2.1222298 0
-32.64576 31.584064 2.0722296 0
-32.64576 31.584064 2.1222298 0
-32.64576 31.634066 2.1222298 0
-32.64576 31.734066 1.8222297 0
-32.64576 31.734066 1.8722297 0
-32.59576 31.684065 1.7722297 0
-32.59576 31.834064 1.7722297 0
-32.64576 31.734066 2.0722296 0
-32.64576 31.734066 2.1222298 0
-32.64576 31.784065 2.0722296 0
-32.59576 31.884066 1.3722297 0
-32.59576 31.984066 1.3722297 0
-32.59576 31.984066 1.4722297 0
-32.64576 31.884066 1.6722298 0
-32.64576 31.934065 1.7222297 0
-32.64576 32.034065 1.7222297 0
-32.59576 31.884066 1.5722297 0
-32.59576 32.034065 1.5722297 0
-32.59576 31.984066 1.6722298 0
-32.59576 32.134064 1.3722297 0
-32.59576 32.184067 1.4722297 0
-32.64576 32.134064 1.6722298 0
-32.64576 32.184067 1.6722298 0
-32.545757 32.184067 1.5722297 0
-32.64576 31.884066 1.8222297 0
-32.64576 31.934065 1.7722297 0
-32.64576 31.984066 1.8222297 0
-32.59576 31.934065 1.7722297 0
-32.64576 31.934065 2.0222297 0
-32.64576 31.884066 2.1222298 0
-32.64576 31.934065 2.1222298 0
-32.64576 32.034065 2.0222297 0
-32.64576 31.984066 2.1222298 0
-32.64576 32.034065 2.1222298 0
-32.64576 32.084064 1.7722297 0
-32.64576 32.134064 1.8222297 0
-32.64576 32.084064 2.0222297 0
-32.64576 32.134064 2.1222298 0
-32.64576 32.184067 2.1222298 0
-32.59576 32.184067 2.0222297 0
-32.545757 32.184067 2.0222297 0
-32.64576 31.534065 2.1722298 0
-32.64576 31.484066 2.3222296 0
-32.64576 31.584064 2.1722298 0
-32.64576 31.584064 2.3222296 0
-32.64576 31.584064 2.3722298 0
-32.64576 31.684065 2.1722298 0
-32.64576 31.734066 2.3222296 0
-32.64576 31.784065 2.1722298 0
-32.64576 31.834064 2.1722298 0
-32.695759 31.784065 2.5222297 0
-32.64576 31.634066 2.5722296 0
-32.64576 31.584064 2.6722298 0
-32.64576 31.484066 2.8222296 0
-32.695759 31.584064 2.8722298 0
-32.695759 31.834064 2.6222298 0
-32.695759 31.784065 2.7222297 0
-32.695759 31.734066 2.8722298 0
-32.64576 31.934065 2.1722298 0
-32.64576 31.884066 2.2722297 0
-32.64576 31.934065 2.3222296 0
-32.64576 32.034065 2.2722297 0
-32.64576 31.934065 2.5222297 0
-32.64576 32.084064 2.1722298 0
-32.64576 32.134064 2.2722297 0
-32.695759 32.084064 2.4722297 0
-32.59576 32.184067 2.4722297 0
-32.695759 32.034065 2.5722296 0
-32.695759 31.934065 2.8222296 0
-32.64576 32.184067 2.5722296 0
-32.695759 32.134064 2.7722297 0
-32.545757 32.234066 2.8222296 0
-34.695759 30.684065 2.9722297 0
-34.445759 30.834064 2.9722297 0
-32.945759 30.684065 3.3722298 0
-32.995758 31.184065 3.4722297 0
-32.995758 31.434065 3.3722298 0
-32.695759 30.784065 3.0222297 0
-32.695759 30.834064 3.0722296 0
-32.695759 30.834064 3.2222297 0
-32.695759 30.984066 3.0222297 0
-32.64576 31.034065 3.1222298 0
-32.59576 31.034065 3.0222297 0
-32.89576 30.834064 3.3722298 0
-32.745758 30.934065 3.3722298 0
-32.695759 31.134066 3.1222298 0
-32.695759 31.184065 2.9722297 0
-32.695759 31.134066 3.3222296 0
-32.695759 31.234066 3.1722298 0
-32.695759 31.434065 3.0722296 0
-32.695759 31.384066 3.2722297 0
-32.84576 31.334064 3.3722298 0
-32.64576 31.084064 3.8222299 0
-33.045757 31.634066 3.3722298 0
-32.945759 31.484066 3.3722298 0
-32.695759 31.484066 3.1722298 0
-32.695759 31.584064 3.2222297 0
-32.695759 31.834064 3.1722298 0
-32.795757 31.584064 3.4222298 0
-32.795757 31.484066 3.6722298 0
-32.745758 31.784065 3.3722298 0
-32.695759 32.034065 3.1222298 0
-32.64576 32.234066 3.1222298 0
-32.445759 27.484066 -0.22777031 0
-32.445759 27.534065 -0.17777032 0
-32.445759 27.484066 -0.12777032 0
-32.445759 27.584064 -0.22777031 0
-32.445759 27.634066 -0.22777031 0
-32.39576 27.634066 -0.22777031 0
-32.445759 27.684065 -0.22777031 0
-32.445759 27.684065 -0.17777032 0
-32.445759 27.734066 -0.22777031 0
-32.445759 27.784065 -0.22777031 0
-32.445759 27.834064 -0.22777031 0
-32.39576 27.684065 -0.22777031 0
-32.445759 27.484066 0.17222969 0
-32.445759 27.534065 0.17222969 0
-32.445759 27.534065 0.32222968 0
-32.445759 27.584064 0.17222969 0
-32.445759 27.584064 0.22222969 0
-32.445759 27.634066 0.17222969 0
-32.445759 27.684065 0.17222969 0
-32.445759 27.684065 0.22222969 0
-32.445759 27.734066 0.17222969 0
-32.445759 27.734066 0.22222969 0
-32.445759 27.684065 0.2722297 0
-32.445759 27.784065 0.17222969 0
-32.445759 27.834064 0.17222969 0
-32.445759 27.834064 0.22222969 0
-32.445759 27.834064 0.2722297 0
-32.445759 27.884066 -0.22777031 0
-32.445759 27.884066 -0.17777032 0
-32.445759 27.934065 -0.22777031 0
-32.445759 27.984066 -0.22777031 0
-32.445759 27.984066 -0.17777032 0
-32.445759 28.034065 -0.22777031 0
-32.445759 28.084064 -0.22777031 0
-32.445759 28.134066 -0.22777031 0
-32.445759 28.134066 -0.17777032 0
-32.445759 28.234066 -0.22777031 0
-32.445759 27.884066 0.17222969 0
-32.445759 27.884066 0.22222969 0
-32.445759 27.984066 0.17222969 0
-32.445759 27.984066 0.22222969 0
-32.445759 28.034065 0.17222969 0
-32.445759 28.034065 0.22222969 0
-32.495758 28.134066 0.17222969 0
-32.495758 28.134066 0.22222969 0
-32.445759 28.084064 0.17222969 0
-32.445759 28.134066 0.17222969 0
-32.495758 28.234066 0.17222969 0
-32.445759 28.234066 0.17222969 0
-32.495758 27.484066 0.57222968 0
-32.495758 27.534065 0.6222297 0
-32.495758 27.484066 0.67222971 0
-32.495758 27.634066 0.57222968 0
-32.445759 27.584064 0.6222297 0
-32.495758 27.584064 0.67222971 0
-32.495758 27.534065 0.77222967 0
-32.495758 27.534065 0.92222971 0
-32.495758 27.734066 0.57222968 0
-32.495758 27.734066 0.6222297 0
-32.495758 27.734066 0.67222971 0
-32.445759 27.734066 0.67222971 0
-32.495758 27.784065 0.57222968 0
-32.495758 27.834064 0.6222297 0
-32.495758 27.834064 0.72222972 0
-32.495758 27.684065 0.77222967 0
-32.495758 27.684065 0.8722297 0
-32.495758 27.484066 1.0222297 0
-32.495758 27.534065 1.0222297 0
-32.495758 27.484066 1.1222297 0
-32.495758 27.584064 1.0222297 0
-32.495758 27.634066 1.0222297 0
-32.495758 27.584064 1.1222297 0
-32.495758 27.634066 1.1222297 0
-32.495758 27.534065 1.2222297 0
-32.495758 27.734066 1.0222297 0
-32.495758 27.734066 1.0722297 0
-32.495758 27.734066 1.1222297 0
-32.495758 27.784065 0.97222972 0
-32.495758 27.784065 1.0222297 0
-32.495758 27.834064 1.0222297 0
-32.495758 27.684065 1.2222297 0
-32.495758 27.884066 0.57222968 0
-32.495758 27.884066 0.67222971 0
-32.495758 27.984066 0.57222968 0
-32.495758 27.984066 0.6222297 0
-32.495758 28.034065 0.57222968 0
-32.495758 28.034065 0.67222971 0
-32.495758 28.034065 0.72222972 0
-32.495758 28.084064 0.6222297 0
-32.495758 28.134066 0.57222968 0
-32.495758 28.134066 0.6222297 0
-32.495758 28.184065 0.57222968 0
-32.495758 28.234066 0.57222968 0
-32.495758 28.234066 0.6222297 0
-32.495758 28.184065 0.67222971 0
-32.495758 28.184065 0.72222972 0
-32.495758 27.884066 0.97222972 0
-32.495758 27.934065 1.0222297 0
-32.495758 27.884066 1.0722297 0
-32.495758 27.884066 1.1222297 0
-32.495758 27.984066 1.0222297 0
-32.495758 28.034065 0.97222972 0
-32.495758 27.984066 1.0722297 0
-32.495758 28.034065 1.1222297 0
-32.495758 28.134066 0.97222972 0
-32.495758 28.134066 1.0222297 0
-32.495758 28.184065 0.97222972 0
-32.495758 28.184065 1.1222297 0
-32.445759 28.284065 -0.17777032 0
-32.445759 28.334064 -0.22777031 0
-32.445759 28.384066 -0.22777031 0
-32.445759 28.434065 -0.17777032 0
-32.445759 28.484066 -0.22777031 0
-32.445759 28.584064 -0.17777032 0
-32.495758 28.634066 0.12222969 0
-32.495758 28.334064 0.17222969 0
-32.445759 28.284065 0.17222969 0
-32.445759 28.284065 0.2722297 0
-32.445759 28.384066 0.17222969 0
-32.495758 28.434065 0.2722297 0
-32.445759 28.484066 0.17222969 0
-32.445759 28.534065 0.17222969 0
-32.445759 28.634066 0.17222969 0
-32.495758 28.584064 0.2722297 0
-32.445759 28.734066 -0.17777032 0
-32.495758 28.784065 0.12222969 0
-32.445759 28.884066 -0.17777032 0
-32.445759 29.034065 -0.22777031 0
-32.445759 29.034065 -0.17777032 0
-32.495758 28.884066 0.12222969 0
-32.495758 28.734066 0.17222969 0
-32.495758 28.734066 0.2722297 0
-32.445759 28.884066 0.17222969 0
-32.495758 28.884066 0.2722297 0
-32.495758 28.984066 0.17222969 0
-32.495758 29.034065 0.17222969 0
-32.445759 29.034065 0.2722297 0
-32.495758 28.934065 0.52222967 0
-32.495758 29.034065 0.52222967 0
-32.495758 28.284065 0.57222968 0
-32.495758 28.284065 0.6222297 0
-32.495758 28.334064 0.67222971 0
-32.495758 28.334064 0.72222972 0
-32.495758 28.384066 0.57222968 0
-32.495758 28.384066 0.6222297 0
-32.495758 28.434065 0.57222968 0
-32.495758 28.484066 0.57222968 0
-32.495758 28.484066 0.6222297 0
-32.495758 28.534065 0.57222968 0
-32.495758 28.534065 0.6222297 0
-32.495758 28.484066 0.72222972 0
-32.495758 28.634066 0.57222968 0
-32.495758 28.584064 0.72222972 0
-32.495758 28.284065 1.0222297 0
-32.495758 28.334064 1.1222297 0
-32.495758 28.384066 0.97222972 0
-32.495758 28.384066 1.0222297 0
-32.495758 28.434065 0.97222972 0
-32.495758 28.434065 1.0222297 0
-32.495758 28.484066 1.0222297 0
-32.495758 28.534065 0.97222972 0
-32.495758 28.534065 1.0222297 0
-32.495758 28.684065 0.57222968 0
-32.495758 28.734066 0.57222968 0
-32.495758 28.734066 0.72222972 0
-32.495758 28.784065 0.57222968 0
-32.495758 28.884066 0.57222968 0
-32.495758 28.884066 0.72222972 0
-32.495758 28.984066 0.57222968 0
-32.495758 29.034065 0.6222297 0
-32.495758 28.784065 0.97222972 0
-32.495758 29.034065 0.97222972 0
-32.495758 27.534065 1.4222298 0
-32.495758 27.484066 1.5722297 0
-32.495758 27.884066 1.4222298 0
-32.495758 28.034065 1.4222298 0
-32.495758 27.884066 1.5722297 0
-32.495758 28.134066 1.4222298 0
-32.445759 29.134066 -0.22777031 0
-32.445759 29.184065 -0.17777032 0
-32.495758 29.134066 0.12222969 0
-32.495758 29.234066 0.12222969 0
-32.445759 29.284065 -0.22777031 0
-32.445759 29.334064 -0.17777032 0
-32.445759 29.434065 -0.22777031 0
-32.495758 29.384066 0.12222969 0
-32.495758 29.134066 0.17222969 0
-32.495758 29.184065 0.2722297 0
-32.495758 29.184065 0.52222967 0
-32.495758 29.284065 0.17222969 0
-32.495758 29.334064 0.2722297 0
-32.495758 29.434065 0.17222969 0
-32.495758 29.484066 -0.17777032 0
-32.495758 29.634066 -0.17777032 0
-32.445759 29.634066 -0.12777032 0
-32.495758 29.834064 -0.17777032 0
-32.445759 29.834064 -0.12777032 0
-32.495758 29.484066 0.2722297 0
-32.495758 29.584064 0.17222969 0
-32.495758 29.634066 0.2722297 0
-32.495758 29.634066 0.3722297 0
-32.495758 29.684065 0.17222969 0
-32.495758 29.834064 0.17222969 0
-32.495758 29.834064 0.2722297 0
-32.495758 29.834064 0.3722297 0
-32.495758 29.134066 0.57222968 0
-32.495758 29.084064 0.72222972 0
-32.495758 29.184065 0.6222297 0
-32.495758 29.184065 0.72222972 0
-32.495758 29.284065 0.57222968 0
-32.495758 29.284065 0.6222297 0
-32.495758 29.384066 0.57222968 0
-32.495758 29.434065 0.6222297 0
-32.495758 29.534065 0.57222968 0
-32.495758 29.584064 0.6222297 0
-32.495758 29.734066 0.6222297 0
-32.495758 30.034065 -0.22777031 0
-32.495758 30.034065 -0.12777032 0
-32.495758 30.234066 -0.22777031 0
-32.495758 30.034065 0.3722297 0
-32.495758 30.384066 -0.22777031 0
-32.495758 29.984066 0.6222297 0
-32.495758 31.034065 -0.027770313 0
-32.495758 31.084064 -0.12777032 0
-32.495758 31.184065 -0.22777031 0
-32.495758 31.234066 -0.077770315 0
-32.495758 31.334064 -0.22777031 0
-32.495758 31.284065 -0.12777032 0
-32.495758 31.384066 0.12222969 0
-32.495758 31.484066 -0.17777032 0
-32.495758 31.534065 -0.22777031 0
-32.495758 31.484066 -0.077770315 0
-32.495758 31.684065 -0.22777031 0
-32.495758 31.684065 -0.17777032 0
-32.495758 31.784065 -0.22777031 0
-32.495758 31.684065 0.12222969 0
-32.495758 31.934065 -0.22777031 0
-32.39576 32.134064 -0.17777032 0
-32.14576 32.134064 -0.22777031 0
-32.195759 32.134064 0.12222969 0
-32.445759 32.134064 0.17222969 0
-32.39576 32.134064 0.32222968 0
-32.195759 32.134064 0.22222969 0
-32.14576 32.134064 0.32222968 0
-31.89576 32.134064 -0.22777031 0
-31.89576 32.134064 -0.12777032 0
-31.89576 32.184067 0.12222969 0
-31.89576 32.184067 0.17222969 0
-31.89576 32.184067 0.2722297 0
-32.495758 32.134064 0.6222297 0
-32.445759 32.134064 0.77222967 0
-32.245758 32.134064 0.57222968 0
-32.195759 32.134064 0.67222971 0
-32.14576 32.134064 0.82222968 0
-32.445759 32.184067 1.2722297 0
-32.245758 32.134064 1.0222297 0
-32.245758 32.184067 1.1222297 0
-32.195759 32.184067 1.3222297 0
-31.945759 32.184067 0.6222297 0
-31.945759 32.184067 0.8722297 0
-31.89576 32.184067 0.57222968 0
-31.89576 32.184067 0.72222972 0
-31.74576 32.184067 1.0222297 0
-31.795759 32.184067 1.0722297 0
-31.89576 32.184067 1.2222297 0
-31.595758 32.184067 -0.17777032 0
-31.39576 32.184067 -0.22777031 0
-31.595758 32.184067 0.2722297 0
-31.445759 32.184067 0.22222969 0
-31.24576 32.184067 -0.12777032 0
-31.045759 32.184067 -0.22777031 0
-30.945759 32.184067 -0.17777032 0
-31.24576 32.184067 0.32222968 0
-31.045759 32.184067 0.2722297 0
-30.945759 32.184067 0.32222968 0
-30.945759 32.234066 0.3722297 0
-31.64576 32.184067 0.77222967 0
-31.695759 32.184067 0.92222971 0
-31.445759 32.184067 0.72222972 0
-31.595758 32.184067 1.2722297 0
-31.345758 32.184067 1.1722296 0
-31.295759 32.184067 0.82222968 0
-30.99576 32.184067 0.77222967 0
-30.945759 32.234066 0.8722297 0
-31.24576 32.184067 1.3222297 0
-32.245758 32.184067 1.4722297 0
-32.245758 32.184067 1.6222297 0
-32.495758 32.184067 1.7722297 0
-32.39576 32.184067 2.0722296 0
-32.245758 32.184067 1.8222297 0
-32.295757 32.184067 1.8722297 0
-32.295757 32.184067 2.0722296 0
-32.14576 32.184067 2.1222298 0
-31.945759 32.184067 1.3722297 0
-31.945759 32.184067 1.6722298 0
-31.795759 32.184067 1.4722297 0
-31.845758 32.184067 1.5722297 0
-31.945759 32.184067 1.8722297 0
-31.795759 32.184067 1.9222298 0
-31.845758 32.184067 2.0222297 0
-32.495758 32.184067 2.2722297 0
-32.295757 32.184067 2.3722298 0
-32.245758 32.184067 2.3722298 0
-32.39576 32.234066 2.6222298 0
-32.295757 32.234066 2.5722296 0
-32.14576 32.234066 2.6722298 0
-32.295757 32.234066 2.8722298 0
-31.945759 32.184067 2.1722298 0
-31.99576 32.234066 2.4222298 0
-31.89576 32.184067 2.4722297 0
-31.99576 32.234066 2.6722298 0
-31.89576 32.234066 2.7222297 0
-31.39576 32.184067 1.6722298 0
-31.595758 32.184067 1.7722297 0
-31.695759 32.184067 1.9722297 0
-31.39576 32.234066 2.0222297 0
-31.39576 32.184067 2.1222298 0
-31.24576 32.184067 1.8222297 0
-31.64576 32.234066 2.2722297 0
-31.695759 32.234066 2.4722297 0
-31.64576 32.234066 2.7722297 0
-31.445759 32.234066 2.5722296 0
-31.445759 32.234066 2.6222298 0
-31.345758 32.234066 2.8722298 0
-31.295759 32.234066 2.3722298 0
-30.945759 32.234066 2.4222298 0
-31.14576 32.234066 2.6222298 0
-30.39576 32.184067 -0.12777032 0
-30.445759 32.184067 0.3722297 0
-30.89576 32.184067 1.4222298 0
-30.845758 32.184067 1.7222297 0
-30.89576 32.184067 1.7722297 0
-30.89576 32.234066 1.9222298 0
-30.545759 32.234066 2.0222297 0
-30.49576 32.184067 1.4722297 0
-30.14576 32.234066 2.1222298 0
-30.89576 32.234066 2.1722298 0
-30.845758 32.234066 2.7222297 0
-30.545759 32.234066 2.5722296 0
-30.195759 32.234066 2.6722298 0
-30.095758 32.234066 1.5722297 0
-30.545759 33.634064 -0.12777032 0
-30.64576 33.734066 -0.22777031 0
-30.64576 33.734066 -0.17777032 0
-30.64576 33.784065 -0.17777032 0
-30.64576 33.834064 -0.17777032 0
-30.295759 33.434067 -0.17777032 0
-30.24576 33.434067 -0.12777032 0
-30.14576 33.334064 -0.12777032 0
-30.195759 33.434067 0.32222968 0
-30.14576 33.334064 0.3722297 0
-30.49576 33.584064 -0.17777032 0
-30.445759 33.584064 -0.17777032 0
-30.39576 33.534065 -0.12777032 0
-30.295759 33.484066 -0.17777032 0
-30.39576 33.734066 0.2722297 0
-30.39576 33.784065 0.32222968 0
-30.295759 33.584064 0.32222968 0
-30.295759 33.634064 0.32222968 0
-30.24576 33.584064 0.3722297 0
-30.195759 33.484066 0.3722297 0
-30.14576 33.484066 0.42222971 0
-30.295759 33.734066 0.3722297 0
-29.99576 33.184067 -0.12777032 0
-29.945759 33.184067 -0.077770315 0
-30.095758 33.284065 -0.12777032 0
-30.095758 33.284065 -0.077770315 0
-30.095758 33.284065 0.32222968 0
-30.095758 33.334064 0.42222971 0
-29.64576 33.834064 1.5722297 0
-32.245758 31.434065 4.2722297 0
-32.39576 32.234066 3.1722298 0
-32.195759 32.234066 3.2222297 0
-31.99576 32.234066 2.9722297 0
-31.945759 32.234066 3.3222296 0
-31.74576 32.234066 3.0222297 0
-32.195759 31.734066 4.22223 0
-31.845758 31.634066 4.3222299 0
-31.445759 32.234066 3.1222298 0
-31.64576 32.234066 3.3722298 0
-31.14576 32.234066 3.1722298 0
-30.945759 32.234066 2.9722297 0
-31.545759 32.384064 3.3722298 0
-30.595758 32.234066 3.0722296 0
-30.845758 32.284065 3.2722297 0
-30.545759 32.284065 3.3722298 0
-30.195759 32.284065 3.2222297 0
-29.795759 32.284065 3.3222296 0
-29.845758 32.334064 3.5222297 0
-29.74576 32.484066 3.5222297 0
-29.49576 32.584064 3.5722296 0
-29.045759 20.884066 -0.22777031 0
-28.995758 20.884066 -0.22777031 0
-29.095758 20.934065 0.3722297 0
-28.64576 20.934065 -0.17777032 0
-28.64576 20.934065 0.3722297 0
-29.14576 20.934065 0.92222971 0
-28.695759 20.934065 0.97222972 0
-28.195759 20.934065 -0.17777032 0
-28.195759 20.934065 0.42222971 0
-27.745758 20.934065 -0.12777032 0
-27.745758 20.934065 0.47222969 0
-28.245758 20.934065 1.0222297 0
-27.795759 20.934065 1.1222297 0
-29.14576 20.934065 1.5222297 0
-29.195759 20.934065 2.0722296 0
-28.695759 20.934065 1.5722297 0
-29.195759 20.984064 2.6722298 0
-29.195759 20.984064 2.8722298 0
-28.745758 20.984064 2.1722298 0
-28.845758 20.984064 2.9222298 0
-28.795759 20.984064 2.7722297 0
-28.295759 20.934065 1.6722298 0
-27.795759 20.984064 1.7222297 0
-28.295759 20.984064 2.2722297 0
-28.345758 20.984064 2.8722298 0
-27.845758 20.984064 2.3722298 0
-27.245758 20.934065 0.52222967 0
-29.245758 20.984064 3.2722297 0
-29.245758 20.984064 3.4722297 0
-28.845758 20.984064 3.3722298 0
-28.845758 20.984064 3.5722296 0
-28.39576 20.984064 3.5222297 0
-28.495758 20.984064 3.6722298 0
-27.89576 20.984064 3.6222298 0
-28.095758 20.984064 3.7722297 0
-27.445759 21.034065 3.7722297 0
-24.295759 16.734064 0.72222972 0
-24.195759 16.934065 0.72222972 0
-23.945759 16.934065 0.72222972 0
-23.89576 16.884066 0.72222972 0
-24.295759 17.184065 0.072229691 0
-23.795759 17.134066 0.72222972 0
-23.64576 17.284065 0.72222972 0
-23.64576 17.334064 0.72222972 0
-23.39576 16.384066 1.9222298 0
-23.195759 16.434065 1.9222298 0
-23.095758 16.634066 1.9222298 0
-25.345758 16.084064 3.9222298 0
-25.345758 16.534065 3.9222298 0
-25.245758 16.284065 3.9722297 0
-25.14576 16.584064 3.9222298 0
-25.045759 16.334064 3.9722297 0
-24.945759 16.634066 3.9222298 0
-24.845758 16.384066 3.9722297 0
-24.745758 16.634066 3.9222298 0
-24.595758 16.634066 3.9222298 0
-24.545759 16.634066 3.9222298 0
-24.39576 16.634066 3.9222298 0
-24.39576 16.834064 3.9722297 0
-24.245758 16.784065 3.9722297 0
-24.195759 16.884066 3.9722297 0
-18.245758 15.034065 2.2222297 0
-18.14576 15.034065 3.4722297 0
-17.595758 15.034065 3.3722298 0
-18.095758 15.084065 3.9222298 0
-16.845758 15.034065 4.3222299 0
-16.595758 15.134065 4.3222299 0
-29.14576 21.084064 3.7222297 0
-27.14576 21.084064 3.8222299 0
-26.245758 24.884066 -0.027770313 0
-26.295759 24.934065 0.6222297 0
-26.245758 25.134066 -0.027770313 0
-26.295759 25.134066 0.6222297 0
-29.295759 24.484066 3.8222299 0
-28.64576 25.784065 4.5222297 0
-27.845758 25.684065 3.2722297 0
-28.14576 25.734066 3.9222298 0
-27.89576 25.734066 3.9722297 0
-28.445759 25.734066 4.5722299 0
-28.195759 25.684065 4.6222296 0
-26.545759 24.634066 3.8722298 0
-26.745758 24.984066 3.8722298 0
-26.695759 24.784065 3.8722298 0
-26.795759 25.184065 3.8722298 0
-26.045759 24.834064 -0.027770313 0
-25.595758 24.884066 -0.077770315 0
-26.045759 24.834064 0.6222297 0
-25.14576 24.884066 -0.027770313 0
-29.095758 33.584064 1.1222297 0
-28.995758 33.784065 1.1222297 0
-26.995758 31.684065 1.5222297 0
-26.995758 31.884066 1.5222297 0
-26.64576 31.984066 1.5722297 0
-24.14576 31.784065 -0.17777032 0
-24.195759 31.784065 0.52222967 0
-24.14576 31.984066 -0.17777032 0
-24.14576 32.184067 -0.17777032 0
-24.195759 31.984066 0.52222967 0
-24.195759 32.234066 0.52222967 0
-24.445759 31.834064 1.2222297 0
-24.245758 32.034065 1.2222297 0
-24.245758 32.234066 1.2222297 0
-16.345758 15.184065 -0.3777703 0
-16.195759 15.334065 -0.3777703 0
-15.995759 15.434065 -0.3777703 0
-16.14576 15.834065 -0.3777703 0
-16.345758 15.884065 -0.3777703 0
-15.945759 15.734065 -0.3777703 0
-15.845758 15.534065 -0.3777703 0
-15.195759 15.334065 -0.32777032 0
-15.645759 15.684065 -0.3777703 0
-15.495759 15.784065 -0.3777703 0
-15.295759 15.884065 -0.3777703 0
-15.145759 16.034065 -0.3777703 0
-16.345758 18.334064 -0.47777033 0
-16.14576 18.284065 -0.42777032 0
-15.945759 18.234064 -0.42777032 0
-15.745759 18.184065 -0.42777032 0
-15.545759 18.134066 -0.42777032 0
-15.295759 18.084064 -0.42777032 0
-15.095758 18.034065 -0.42777032 0
-16.045759 15.034065 4.1222296 0
-15.895759 15.034065 4.1222296 0
-15.645759 15.034065 3.9722297 0
-15.495759 15.034065 3.9722297 0
-15.345758 15.034065 3.9722297 0
-15.695759 15.034065 4.1722298 0
-15.545759 15.034065 4.1722298 0
-15.345758 15.084065 4.22223 0
-15.345758 15.184065 4.3722296 0
-15.145759 15.034065 3.9222298 0
-15.145759 15.034065 3.9722297 0
-15.095758 15.034065 3.8722298 0
-15.145759 15.134065 4.22223 0
-15.095758 15.134065 4.3222299 0
-44.995758 33.934067 -2.0277703 0
-44.945759 33.934067 -2.0277703 0
-44.945759 34.334064 -2.0777702 0
-44.89576 33.884064 -2.0277703 0
-44.795761 33.884064 -2.0277703 0
-44.84576 34.234066 -2.0277703 0
-44.795761 34.184067 -2.0277703 0
-44.745758 34.184067 -2.0277703 0
-44.64576 34.134064 -2.0277703 0
-44.59576 34.084064 -2.0277703 0
-44.545761 34.084064 -2.0277703 0
-44.89576 34.284065 -2.0777702 0
-44.84576 34.634064 -2.0777702 0
-44.795761 34.584064 -2.0777702 0
-44.745758 34.534065 -2.0277703 0
-44.64576 34.434067 -2.0277703 0
-44.545761 34.384064 -2.0277703 0
-44.695759 34.484066 -2.0277703 0
-44.545761 34.634064 -2.0277703 0
-44.945759 34.684067 -2.0777702 0
-44.995758 34.784065 -2.0777702 0
-44.945759 35.034065 -2.0777702 0
-44.995758 35.084064 -2.0777702 0
-44.995758 35.134064 -2.0777702 0
-44.945759 35.134064 -2.0777702 0
-44.995758 35.184067 -2.0777702 0
-44.945759 35.184067 -2.0777702 0
-44.795761 34.834064 -2.0777702 0
-44.745758 34.784065 -2.0777702 0
-44.84576 34.934067 -2.0777702 0
-44.89576 34.984066 -2.0777702 0
-44.695759 34.784065 -2.0777702 0
-44.64576 34.734066 -2.0277703 0
-44.59576 34.684067 -2.0277703 0
-44.64576 35.034065 -2.0777702 0
-44.545761 35.034065 -2.0777702 0
-44.89576 35.134064 -2.0777702 0
-44.84576 35.084064 -2.0777702 0
-44.84576 35.234066 -2.0777702 0
-44.745758 35.084064 -2.0777702 0
-44.795761 35.184067 -2.0777702 0
-44.695759 35.184067 -2.0277703 0
-44.59576 35.134064 -2.0277703 0
-44.445759 34.034065 -2.0277703 0
-44.34576 34.034065 -2.0277703 0
-44.245758 33.984066 -2.0277703 0
-44.14576 33.984066 -2.0277703 0
-44.14576 33.984066 -1.9777703 0
-44.445759 34.334064 -2.0277703 0
-44.495758 34.384064 -2.0277703 0
-44.34576 34.334064 -2.0277703 0
-44.445759 34.584064 -2.0277703 0
-44.34576 34.534065 -2.0277703 0
-44.39576 34.584064 -2.0277703 0
-44.245758 34.284065 -2.0277703 0
-44.14576 34.284065 -2.0277703 0
-44.245758 34.484066 -2.0277703 0
-44.14576 34.484066 -2.0277703 0
-44.045761 33.984066 -1.9777703 0
-43.945759 33.934067 -1.9777703 0
-44.045761 34.234066 -2.0277703 0
-43.945759 34.234066 -1.9777703 0
-43.84576 33.934067 -1.9777703 0
-43.89576 33.984066 -1.9777703 0
-43.745758 33.934067 -1.9777703 0
-43.84576 34.234066 -1.9777703 0
-43.745758 34.234066 -1.9777703 0
-43.945759 34.434067 -2.0277703 0
-44.09576 34.484066 -2.0277703 0
-44.045761 34.484066 -2.0277703 0
-43.995758 34.484066 -2.0277703 0
-43.84576 34.434067 -1.9777703 0
-43.745758 34.484066 -1.9777703 0
-44.445759 34.984066 -2.0277703 0
-44.34576 34.984066 -2.0277703 0
-44.245758 34.984066 -2.0277703 0
