# .PCD v0.7 - Point Cloud Data file format
VERSION 0.7
FIELDS x y z intensity
SIZE 4 4 4 4
TYPE F F F F
COUNT 1 1 1 1
WIDTH 834
HEIGHT 1
VIEWPOINT 0 0 0 1 0 0 0
POINTS 834
DATA ascii
15.154242 -19.115936 4.47223 0
15.404242 -19.165936 4.47223 0
15.004242 -15.165936 0.82222968 0
15.004242 -15.115935 0.92222971 0
15.154242 -15.165936 0.82222968 0
15.204242 -15.165936 0.82222968 0
15.154242 -15.115935 0.8722297 0
15.204242 -15.065935 0.92222971 0
15.304241 -15.165936 0.82222968 0
15.354241 -15.215936 0.82222968 0
15.354241 -15.165936 0.8722297 0
15.454242 -15.115935 0.92222971 0
15.004242 -15.265936 1.4222298 0
15.054241 -15.265936 1.3722297 0
15.004242 -15.265936 1.4722297 0
15.054241 -15.265936 1.9222298 0
15.004242 -15.265936 1.9722297 0
15.004242 -15.265936 2.0722296 0
15.154242 -15.265936 1.4222298 0
15.104241 -15.215936 1.5222297 0
15.204242 -15.315935 1.3722297 0
15.204242 -15.265936 1.4722297 0
15.204242 -15.115935 1.6222297 0
15.354241 -15.265936 1.4222298 0
15.304241 -15.215936 1.5222297 0
15.404242 -15.315935 1.3722297 0
15.404242 -15.265936 1.4722297 0
15.454242 -15.115935 1.6222297 0
15.204242 -15.265936 1.9222298 0
15.204242 -15.265936 1.9722297 0
15.204242 -15.265936 2.0722296 0
15.404242 -15.315935 1.9222298 0
15.354241 -15.265936 1.9722297 0
15.404242 -15.265936 2.0722296 0
15.054241 -15.315935 2.4722297 0
15.104241 -15.215936 2.1722298 0
15.204242 -15.315935 2.4722297 0
15.204242 -15.115935 2.2722297 0
15.104241 -15.065935 2.3722298 0
15.304241 -15.215936 2.1722298 0
15.454242 -15.115935 2.3222296 0
15.354241 -15.065935 2.3722298 0
15.354241 -15.015936 2.4222298 0
15.104241 -16.315935 3.4722297 0
15.354241 -16.415936 3.4722297 0
15.004242 -15.015936 2.9722297 0
15.104241 -15.615935 3.1722298 0
15.304241 -15.665936 3.2222297 0
15.154242 -15.015936 2.9722297 0
15.354241 -15.065935 2.9722297 0
15.354241 -15.015936 3.0722296 0
15.504242 -15.165936 0.82222968 0
15.554242 -15.165936 0.82222968 0
15.654242 -15.165936 0.82222968 0
15.554242 -15.115935 0.8722297 0
15.654242 -15.115935 0.92222971 0
15.704242 -15.165936 0.82222968 0
15.754242 -15.165936 0.8722297 0
15.854241 -15.165936 0.82222968 0
15.954242 -15.165936 0.8722297 0
16.054241 -15.165936 0.82222968 0
15.904242 -15.115935 0.92222971 0
16.204241 -15.165936 0.82222968 0
16.254242 -15.165936 0.82222968 0
16.154242 -15.115935 0.8722297 0
16.154242 -15.115935 0.92222971 0
16.304241 -15.165936 0.82222968 0
16.404242 -15.165936 0.82222968 0
16.454241 -15.215936 0.82222968 0
16.454241 -15.165936 0.8722297 0
16.354242 -15.115935 0.8722297 0
16.354242 -15.065935 0.92222971 0
16.554241 -15.165936 0.82222968 0
16.604242 -15.215936 0.82222968 0
16.604242 -15.165936 0.8722297 0
16.554241 -15.115935 0.8722297 0
16.604242 -15.065935 0.92222971 0
16.754242 -15.165936 0.82222968 0
16.804241 -15.215936 0.82222968 0
16.804241 -15.165936 0.8722297 0
16.804241 -15.115935 0.8722297 0
16.904242 -15.165936 0.82222968 0
16.954241 -15.215936 0.82222968 0
17.004242 -15.165936 0.8722297 0
17.004242 -15.115935 0.92222971 0
16.854242 -15.065935 0.97222972 0
15.554242 -15.265936 1.4222298 0
15.554242 -15.215936 1.3722297 0
15.604241 -15.265936 1.4722297 0
15.554242 -15.215936 1.5722297 0
15.704242 -15.165936 1.3722297 0
15.704242 -15.165936 1.4222298 0
15.854241 -15.165936 1.4222298 0
15.804242 -15.215936 1.4722297 0
15.754242 -15.215936 1.5722297 0
15.704242 -15.115935 1.6722298 0
15.854241 -15.015936 1.7222297 0
15.554242 -15.165936 1.9222298 0
15.554242 -15.265936 1.9722297 0
15.604241 -15.265936 2.0722296 0
15.704242 -15.165936 1.9222298 0
15.704242 -15.165936 1.9722297 0
15.854241 -15.165936 1.9722297 0
15.804242 -15.215936 2.0722296 0
15.904242 -15.165936 1.3722297 0
16.054241 -15.165936 1.3722297 0
16.054241 -15.165936 1.4222298 0
15.954242 -15.165936 1.5722297 0
15.954242 -15.115935 1.4722297 0
15.954242 -15.115935 1.6722298 0
16.254242 -15.165936 1.3722297 0
16.254242 -15.165936 1.4222298 0
16.154242 -15.115935 1.4722297 0
16.154242 -15.065935 1.5722297 0
16.204241 -15.065935 1.6722298 0
15.904242 -15.165936 1.9222298 0
16.054241 -15.165936 1.9222298 0
16.054241 -15.165936 1.9722297 0
15.954242 -15.115935 2.0722296 0
16.254242 -15.165936 1.9222298 0
16.254242 -15.165936 1.9722297 0
16.154242 -15.115935 2.0722296 0
15.554242 -15.215936 2.1722298 0
15.554242 -15.165936 2.4722297 0
15.604241 -15.065935 2.3722298 0
15.754242 -15.215936 2.2222297 0
15.704242 -15.165936 2.4722297 0
15.704242 -15.115935 2.3222296 0
15.954242 -15.165936 2.2222297 0
15.904242 -15.165936 2.4722297 0
16.054241 -15.165936 2.4722297 0
15.954242 -15.115935 2.3222296 0
16.254242 -15.165936 2.4722297 0
16.154242 -15.065935 2.2222297 0
16.204241 -15.065935 2.3722298 0
16.254242 -15.065935 2.4722297 0
16.304241 -15.215936 1.3722297 0
16.404242 -15.165936 1.3722297 0
16.454241 -15.215936 1.3722297 0
16.454241 -15.165936 1.4222298 0
16.354242 -15.115935 1.4722297 0
16.354242 -15.065935 1.5722297 0
16.654242 -15.315935 1.3722297 0
16.604242 -15.165936 1.3722297 0
16.604242 -15.165936 1.4222298 0
16.604242 -15.115935 1.5222297 0
16.604242 -15.065935 1.5722297 0
16.304241 -15.215936 1.9222298 0
16.404242 -15.165936 1.9222298 0
16.454241 -15.165936 1.9222298 0
16.454241 -15.165936 2.0222297 0
16.354242 -15.115935 2.1222298 0
16.604242 -15.165936 1.9222298 0
16.654242 -15.315935 1.9722297 0
16.604242 -15.165936 2.0222297 0
16.604242 -15.115935 2.1222298 0
16.804241 -15.315935 1.3722297 0
16.854242 -15.265936 1.4722297 0
16.804241 -15.115935 1.5222297 0
16.854242 -15.065935 1.6222297 0
16.954241 -15.315935 1.3722297 0
17.004242 -15.315935 1.3722297 0
17.054241 -15.265936 1.4722297 0
16.804241 -15.315935 1.9722297 0
16.854242 -15.265936 2.0222297 0
16.804241 -15.115935 2.1222298 0
16.954241 -15.315935 1.9722297 0
17.004242 -15.315935 1.9722297 0
17.054241 -15.265936 2.0222297 0
16.454241 -15.215936 2.5222297 0
16.354242 -15.065935 2.2222297 0
16.654242 -15.315935 2.5222297 0
16.604242 -15.165936 2.4722297 0
16.604242 -15.065935 2.2222297 0
16.804241 -15.315935 2.5222297 0
16.854242 -15.315935 2.5222297 0
16.854242 -15.065935 2.2722297 0
17.004242 -15.315935 2.5222297 0
17.104242 -15.165936 0.82222968 0
17.154242 -15.215936 0.82222968 0
17.204241 -15.165936 0.8722297 0
17.254242 -15.115935 0.92222971 0
17.304241 -15.215936 0.82222968 0
17.304241 -15.165936 0.82222968 0
17.454241 -15.165936 0.82222968 0
17.404242 -15.165936 0.8722297 0
17.454241 -15.115935 0.92222971 0
17.104242 -15.065935 0.97222972 0
17.354242 -15.065935 0.97222972 0
17.504242 -15.215936 0.82222968 0
17.654242 -15.165936 0.82222968 0
17.604242 -15.165936 0.8722297 0
17.654242 -15.115935 0.92222971 0
17.854242 -15.215936 0.82222968 0
17.804241 -15.165936 0.8722297 0
17.604242 -15.065935 0.97222972 0
17.854242 -15.065935 0.97222972 0
18.004242 -15.215936 0.82222968 0
18.004242 -15.165936 0.82222968 0
18.004242 -15.165936 0.8722297 0
17.904242 -15.115935 0.92222971 0
18.204241 -15.215936 0.82222968 0
18.204241 -15.165936 0.82222968 0
18.204241 -15.165936 0.8722297 0
18.154242 -15.115935 0.92222971 0
18.104242 -15.065935 0.97222972 0
18.354242 -15.215936 0.82222968 0
18.404242 -15.165936 0.82222968 0
18.454241 -15.165936 0.8722297 0
18.354242 -15.115935 0.92222971 0
18.554241 -15.215936 0.82222968 0
18.604242 -15.165936 0.82222968 0
18.654242 -15.165936 0.8722297 0
18.604242 -15.115935 0.92222971 0
18.454241 -15.165936 0.97222972 0
17.154242 -15.315935 1.3722297 0
17.104242 -15.215936 1.5222297 0
17.254242 -15.265936 1.4722297 0
17.104242 -15.065935 1.6222297 0
17.354242 -15.315935 1.4222298 0
17.304241 -15.215936 1.5222297 0
17.454241 -15.265936 1.4722297 0
17.454241 -15.215936 1.6222297 0
17.154242 -15.315935 1.9722297 0
17.254242 -15.265936 2.0722296 0
17.354242 -15.315935 1.9722297 0
17.354242 -15.265936 1.9722297 0
17.454241 -15.265936 2.0722296 0
17.504242 -15.315935 1.4222298 0
17.504242 -15.215936 1.5222297 0
17.654242 -15.265936 1.4722297 0
17.704241 -15.315935 1.4222298 0
17.854242 -15.315935 1.4222298 0
17.854242 -15.265936 1.4722297 0
17.754242 -15.265936 1.5722297 0
17.704241 -15.165936 1.6222297 0
17.504242 -15.315935 1.9722297 0
17.554241 -15.315935 1.9722297 0
17.654242 -15.265936 2.0722296 0
17.704241 -15.315935 1.9722297 0
17.854242 -15.265936 2.0722296 0
17.104242 -15.215936 2.1722298 0
17.154242 -15.315935 2.5222297 0
17.104242 -15.065935 2.2722297 0
17.304241 -15.215936 2.1722298 0
17.404242 -15.165936 2.3222296 0
17.554241 -15.215936 2.1722298 0
17.754242 -15.215936 2.1722298 0
17.704241 -15.215936 2.3222296 0
17.904242 -15.315935 1.4222298 0
18.054241 -15.315935 1.4222298 0
17.954241 -15.165936 1.6722298 0
18.004242 -15.215936 1.5722297 0
18.104242 -15.265936 1.4722297 0
18.254242 -15.315935 1.4222298 0
18.204241 -15.215936 1.5722297 0
18.204241 -15.165936 1.6722298 0
17.904242 -15.315935 1.9722297 0
18.054241 -15.315935 1.9722297 0
18.104242 -15.315935 1.9722297 0
18.104242 -15.265936 2.0722296 0
18.254242 -15.315935 1.9722297 0
18.254242 -15.315935 2.0222297 0
18.304241 -15.265936 1.4722297 0
18.354242 -15.165936 1.4222298 0
18.404242 -15.165936 1.4222298 0
18.454241 -15.165936 1.4722297 0
18.454241 -15.215936 1.5722297 0
18.454241 -15.165936 1.6722298 0
18.554241 -15.165936 1.4222298 0
18.604242 -15.165936 1.4222298 0
18.654242 -15.215936 1.5722297 0
18.654242 -15.115935 1.4722297 0
18.304241 -15.265936 2.1222298 0
18.404242 -15.215936 1.9722297 0
18.404242 -15.165936 1.9722297 0
18.454241 -15.165936 2.1222298 0
18.554241 -15.215936 1.9722297 0
18.604242 -15.165936 2.0222297 0
18.654242 -15.165936 2.1222298 0
17.954241 -15.165936 2.3222296 0
18.004242 -15.215936 2.2222297 0
18.254242 -15.265936 2.2222297 0
18.204241 -15.165936 2.3722298 0
18.454241 -15.215936 2.2222297 0
18.454241 -15.165936 2.3722298 0
18.654242 -15.165936 2.2222297 0
15.854241 -16.615936 3.5722296 0
16.104242 -16.715935 3.6222298 0
15.604241 -16.515936 3.5222297 0
15.754242 -15.815935 3.2722297 0
15.954242 -15.865935 3.2722297 0
16.154242 -15.965936 3.3222296 0
16.404242 -16.815935 3.6222298 0
16.704241 -16.965935 3.6722298 0
16.954241 -17.065935 3.7222297 0
16.404242 -16.015936 3.3222296 0
16.654242 -16.115936 3.3722298 0
16.854242 -16.165936 3.4222298 0
15.504242 -15.715936 3.2222297 0
15.554242 -15.115935 3.0222297 0
15.704242 -15.115935 3.0222297 0
15.904242 -15.165936 3.0222297 0
16.054241 -15.215936 3.0722296 0
16.254242 -15.265936 3.0722296 0
16.204241 -15.065935 3.0722296 0
16.654242 -15.365935 3.1222298 0
16.304241 -15.265936 3.0722296 0
16.454241 -15.315935 3.0722296 0
16.504242 -15.315935 3.0722296 0
16.854242 -15.415936 3.1222298 0
16.854242 -15.365935 3.1222298 0
17.054241 -15.465936 3.1222298 0
17.004242 -15.415936 3.1222298 0
17.104242 -16.265936 3.4222298 0
17.354242 -16.365936 3.4722297 0
17.654242 -16.465935 3.5222297 0
17.904242 -16.565935 3.5222297 0
18.154242 -16.715935 3.5722296 0
18.454241 -16.815935 3.6222298 0
17.904242 -15.765936 3.2222297 0
18.104242 -15.815935 3.2722297 0
18.354242 -15.915936 3.2722297 0
18.554241 -15.965936 3.3222296 0
17.204241 -15.465936 3.1222298 0
17.254242 -15.515936 3.1722298 0
17.454241 -15.615935 3.1722298 0
17.404242 -15.465936 3.1222298 0
17.654242 -15.665936 3.2222297 0
17.554241 -15.515936 3.1722298 0
17.754242 -15.515936 3.1722298 0
17.854242 -15.015936 3.0222297 0
17.954241 -15.565935 3.1722298 0
18.154242 -15.615935 3.2222297 0
18.354242 -15.665936 3.2222297 0
18.554241 -15.715936 3.2222297 0
18.754242 -15.215936 0.82222968 0
18.754242 -15.215936 0.8722297 0
18.804241 -15.165936 0.82222968 0
18.854242 -15.165936 0.8722297 0
18.854242 -15.115935 0.92222971 0
18.904242 -15.215936 0.82222968 0
18.954241 -15.215936 0.8722297 0
19.004242 -15.215936 0.8722297 0
18.754242 -15.165936 1.0222297 0
18.904242 -15.065935 1.0222297 0
19.104242 -15.215936 0.82222968 0
19.104242 -15.215936 0.8722297 0
19.104242 -15.165936 0.8722297 0
19.204241 -15.215936 0.8722297 0
19.104242 -15.115935 0.92222971 0
19.304241 -15.215936 0.82222968 0
19.304241 -15.215936 0.8722297 0
19.304241 -15.165936 0.92222971 0
19.404242 -15.165936 0.8722297 0
19.354242 -15.065935 0.97222972 0
19.504242 -15.215936 0.82222968 0
19.504242 -15.215936 0.8722297 0
19.554241 -15.165936 0.92222971 0
19.654242 -15.215936 0.82222968 0
19.604242 -15.165936 0.8722297 0
19.654242 -15.215936 0.8722297 0
19.754242 -15.165936 0.92222971 0
19.854242 -15.215936 0.82222968 0
19.804241 -15.165936 0.8722297 0
19.854242 -15.215936 0.8722297 0
19.604242 -15.115935 0.97222972 0
19.854242 -15.115935 0.97222972 0
20.054241 -15.215936 0.82222968 0
20.004242 -15.165936 0.8722297 0
20.004242 -15.165936 0.92222971 0
20.054241 -15.215936 0.8722297 0
20.204241 -15.215936 0.8722297 0
20.204241 -15.165936 0.92222971 0
20.254242 -15.215936 0.8722297 0
20.104242 -15.065935 0.97222972 0
18.754242 -15.215936 1.4222298 0
18.754242 -15.165936 1.4222298 0
18.804241 -15.165936 1.4222298 0
18.854242 -15.165936 1.5222297 0
18.754242 -15.165936 1.7222297 0
18.854242 -15.115935 1.5722297 0
18.954241 -15.215936 1.4222298 0
18.954241 -15.165936 1.4722297 0
19.004242 -15.165936 1.4222298 0
18.904242 -15.065935 1.7222297 0
18.754242 -15.215936 1.9722297 0
18.754242 -15.215936 2.0222297 0
18.804241 -15.165936 2.0222297 0
18.854242 -15.115935 2.1222298 0
18.904242 -15.165936 1.9722297 0
18.954241 -15.215936 2.0222297 0
19.004242 -15.165936 2.0222297 0
19.104242 -15.215936 1.4222298 0
19.104242 -15.215936 1.4722297 0
19.104242 -15.165936 1.5222297 0
19.204241 -15.165936 1.4222298 0
19.104242 -15.115935 1.6222297 0
19.304241 -15.215936 1.4222298 0
19.304241 -15.215936 1.4722297 0
19.304241 -15.165936 1.5222297 0
19.404242 -15.165936 1.4222298 0
19.354242 -15.115935 1.6222297 0
19.104242 -15.215936 1.9722297 0
19.104242 -15.165936 2.0222297 0
19.104242 -15.165936 2.1222298 0
19.204241 -15.165936 2.0222297 0
19.304241 -15.215936 1.9722297 0
19.304241 -15.215936 2.0222297 0
19.304241 -15.165936 2.1222298 0
19.404242 -15.165936 2.0222297 0
18.754242 -15.165936 2.4222298 0
18.854242 -15.115935 2.2222297 0
19.104242 -15.115935 2.2722297 0
19.354242 -15.115935 2.2722297 0
19.504242 -15.315935 1.4722297 0
19.504242 -15.215936 1.4222298 0
19.504242 -15.165936 1.5222297 0
19.654242 -15.315935 1.4722297 0
19.604242 -15.115935 1.6222297 0
19.704241 -15.315935 1.4222298 0
19.704241 -15.315935 1.4722297 0
19.854242 -15.315935 1.4722297 0
19.854242 -15.265936 1.5722297 0
19.554241 -15.315935 2.0222297 0
19.504242 -15.315935 2.0722296 0
19.654242 -15.315935 2.0722296 0
19.704241 -15.315935 2.0222297 0
19.704241 -15.315935 2.0722296 0
19.854242 -15.315935 2.0722296 0
19.904242 -15.315935 1.4222298 0
19.904242 -15.315935 1.4722297 0
20.054241 -15.315935 1.4722297 0
19.954241 -15.215936 1.6722298 0
20.054241 -15.265936 1.5722297 0
20.104242 -15.315935 1.4222298 0
20.254242 -15.315935 1.4722297 0
20.204241 -15.215936 1.6722298 0
19.904242 -15.315935 2.0222297 0
19.904242 -15.315935 2.0722296 0
20.054241 -15.315935 2.0722296 0
20.104242 -15.315935 2.0222297 0
20.254242 -15.315935 2.0722296 0
19.554241 -15.165936 2.1722298 0
19.604242 -15.115935 2.2722297 0
19.854242 -15.265936 2.1722298 0
19.954241 -15.215936 2.3222296 0
20.054241 -15.265936 2.2222297 0
20.204241 -15.215936 2.3722298 0
20.404242 -15.215936 0.8722297 0
20.454241 -15.215936 0.8722297 0
20.454241 -15.165936 0.92222971 0
20.604242 -15.215936 0.8722297 0
20.654242 -15.215936 0.8722297 0
20.404242 -15.115935 0.97222972 0
20.704241 -15.165936 0.92222971 0
20.804241 -15.215936 0.8722297 0
20.854242 -15.215936 0.8722297 0
20.954241 -15.165936 0.92222971 0
21.004242 -15.215936 0.8722297 0
21.054241 -15.165936 0.8722297 0
21.154242 -15.215936 0.8722297 0
21.204241 -15.215936 0.8722297 0
21.204241 -15.215936 0.92222971 0
21.204241 -15.165936 0.92222971 0
21.304241 -15.165936 0.8722297 0
21.354242 -15.215936 0.8722297 0
21.354242 -15.215936 0.92222971 0
21.454241 -15.215936 0.8722297 0
21.454241 -15.165936 0.97222972 0
21.504242 -15.165936 0.8722297 0
21.554241 -15.215936 0.8722297 0
21.554241 -15.215936 0.92222971 0
21.654242 -15.215936 0.8722297 0
21.754242 -15.215936 0.8722297 0
21.754242 -15.215936 0.92222971 0
21.754242 -15.165936 0.8722297 0
21.854242 -15.215936 0.8722297 0
21.704241 -15.165936 0.97222972 0
20.304241 -15.315935 1.4722297 0
20.454241 -15.315935 1.4722297 0
20.304241 -15.265936 1.5722297 0
20.454241 -15.215936 1.6722298 0
20.504242 -15.315935 1.4722297 0
20.654242 -15.315935 1.4722297 0
20.554241 -15.265936 1.5722297 0
20.304241 -15.315935 2.0222297 0
20.304241 -15.315935 2.0722296 0
20.454241 -15.315935 2.0722296 0
20.504242 -15.315935 2.0722296 0
20.504242 -15.315935 2.1222298 0
20.654242 -15.315935 2.0722296 0
20.704241 -15.315935 1.4722297 0
20.704241 -15.315935 1.5222297 0
20.854242 -15.315935 1.4722297 0
20.804241 -15.265936 1.5722297 0
20.904242 -15.315935 1.4722297 0
20.904242 -15.315935 1.5222297 0
21.004242 -15.315935 1.4722297 0
21.004242 -15.265936 1.6222297 0
20.704241 -15.315935 2.0722296 0
20.704241 -15.315935 2.1222298 0
20.854242 -15.315935 2.0722296 0
20.904242 -15.315935 2.0722296 0
20.954241 -15.315935 2.1222298 0
21.004242 -15.315935 2.0722296 0
20.304241 -15.265936 2.2222297 0
20.554241 -15.265936 2.2222297 0
20.504242 -15.215936 2.3722298 0
20.804241 -15.265936 2.2722297 0
21.054241 -15.265936 2.2722297 0
21.104242 -15.315935 1.4722297 0
21.154242 -15.315935 1.5222297 0
21.204241 -15.215936 1.4722297 0
21.204241 -15.215936 1.5222297 0
21.254242 -15.215936 1.4722297 0
21.254242 -15.265936 1.6222297 0
21.304241 -15.165936 1.5222297 0
21.354242 -15.215936 1.4722297 0
21.404242 -15.215936 1.5222297 0
21.454241 -15.215936 1.4722297 0
21.454241 -15.165936 1.6222297 0
21.104242 -15.315935 2.0722296 0
21.154242 -15.265936 2.1222298 0
21.204241 -15.215936 2.0722296 0
21.204241 -15.215936 2.1222298 0
21.254242 -15.215936 2.0722296 0
21.304241 -15.215936 2.1222298 0
21.404242 -15.215936 2.0722296 0
21.404242 -15.215936 2.1222298 0
21.454241 -15.215936 2.0722296 0
21.504242 -15.165936 1.5222297 0
21.554241 -15.215936 1.4722297 0
21.604242 -15.215936 1.5222297 0
21.654242 -15.215936 1.4722297 0
21.754242 -15.215936 1.4722297 0
21.754242 -15.215936 1.5222297 0
21.754242 -15.165936 1.5222297 0
21.854242 -15.215936 1.4722297 0
21.704241 -15.165936 1.6222297 0
21.504242 -15.165936 2.1222298 0
21.554241 -15.215936 2.0722296 0
21.604242 -15.215936 2.1222298 0
21.654242 -15.215936 2.0722296 0
21.754242 -15.215936 2.1222298 0
21.854242 -15.165936 2.0722296 0
21.304241 -15.265936 2.2722297 0
21.454241 -15.165936 2.2722297 0
21.754242 -15.165936 2.1722298 0
21.704241 -15.165936 2.2722297 0
19.004242 -17.065935 3.7222297 0
18.704241 -16.915936 3.6722298 0
18.954241 -16.215935 3.4222298 0
19.054241 -16.165936 3.3722298 0
18.754242 -15.765936 3.2722297 0
18.954241 -15.815935 3.2722297 0
18.804241 -16.065935 3.3722298 0
19.154242 -16.215935 3.4222298 0
19.304241 -16.265936 3.4222298 0
19.354242 -16.265936 3.4722297 0
19.154242 -15.865935 3.2722297 0
19.354242 -15.965936 3.3222296 0
20.054241 -16.565935 3.5222297 0
19.554241 -16.365936 3.4722297 0
19.554241 -16.315935 3.4722297 0
19.754242 -16.365936 3.4722297 0
19.804241 -16.465935 3.5222297 0
19.604242 -16.015936 3.3222296 0
19.804241 -16.065935 3.3722298 0
19.954241 -16.415936 3.4722297 0
20.004242 -16.165936 3.3722298 0
20.154242 -16.415936 3.5222297 0
20.254242 -16.215935 3.4222298 0
20.154242 -15.115935 3.0222297 0
20.354242 -16.665936 3.5722296 0
20.654242 -16.815935 3.6222298 0
20.954241 -16.965935 3.6722298 0
20.804241 -16.565935 3.5722296 0
21.054241 -16.615936 3.5722296 0
20.354242 -16.465935 3.5222297 0
20.604242 -16.515936 3.5222297 0
20.504242 -16.315935 3.4222298 0
20.704241 -16.365936 3.4722297 0
20.954241 -16.465935 3.5222297 0
21.254242 -17.065935 3.7222297 0
21.204241 -16.565935 3.5222297 0
21.254242 -16.715935 3.6222298 0
21.454241 -16.665936 3.5722296 0
21.504242 -16.765936 3.6222298 0
21.754242 -16.765936 3.6222298 0
21.704241 -16.815935 3.6722298 0
21.604242 -17.115936 3.7722297 0
21.804241 -17.165936 3.7722297 0
21.854242 -15.015936 2.9722297 0
21.954243 -15.215936 0.8722297 0
21.954243 -15.215936 0.92222971 0
21.954243 -15.165936 0.92222971 0
22.054241 -15.215936 0.8722297 0
22.154242 -15.215936 0.8722297 0
22.154242 -15.215936 0.92222971 0
22.204243 -15.215936 0.92222971 0
22.254242 -15.215936 0.8722297 0
21.954243 -15.165936 0.97222972 0
22.204243 -15.165936 0.97222972 0
22.354242 -15.215936 0.8722297 0
22.354242 -15.215936 0.92222971 0
22.454243 -15.215936 0.92222971 0
22.504242 -15.215936 0.8722297 0
22.554241 -15.215936 0.8722297 0
22.554241 -15.215936 0.92222971 0
22.654242 -15.165936 0.92222971 0
22.504242 -15.165936 0.97222972 0
22.704243 -15.215936 0.8722297 0
22.754242 -15.215936 0.8722297 0
22.754242 -15.215936 0.92222971 0
22.904242 -15.215936 0.8722297 0
22.904242 -15.165936 0.92222971 0
22.954243 -15.215936 0.8722297 0
22.954243 -15.215936 0.92222971 0
22.754242 -15.115935 0.97222972 0
23.154242 -15.215936 0.8722297 0
23.154242 -15.215936 0.92222971 0
23.204243 -15.215936 0.8722297 0
23.354242 -15.215936 0.8722297 0
23.354242 -15.215936 0.92222971 0
23.404242 -15.215936 0.92222971 0
21.954243 -15.215936 1.5222297 0
21.954243 -15.165936 1.4722297 0
21.954243 -15.165936 1.5222297 0
22.054241 -15.215936 1.4722297 0
21.954243 -15.165936 1.6222297 0
22.154242 -15.215936 1.5222297 0
22.204243 -15.165936 1.5222297 0
22.254242 -15.215936 1.4722297 0
22.204243 -15.165936 1.6722298 0
21.954243 -15.215936 2.1222298 0
22.054241 -15.215936 2.1222298 0
22.154242 -15.215936 2.1222298 0
22.254242 -15.215936 2.1222298 0
22.404242 -15.315935 1.5222297 0
22.554241 -15.315935 1.5222297 0
22.604242 -15.315935 1.5222297 0
22.504242 -15.315935 1.5722297 0
22.604242 -15.265936 1.6722298 0
22.404242 -15.315935 2.1222298 0
22.554241 -15.315935 2.1222298 0
22.604242 -15.315935 2.1222298 0
21.954243 -15.215936 2.1722298 0
21.954243 -15.165936 2.3222296 0
22.204243 -15.215936 2.1722298 0
22.204243 -15.165936 2.3222296 0
22.404242 -15.315935 2.1722298 0
22.504242 -15.315935 2.2222297 0
22.604242 -15.315935 2.1722298 0
22.754242 -15.315935 1.5222297 0
22.804241 -15.315935 1.5222297 0
22.754242 -15.315935 1.5722297 0
23.004242 -15.315935 1.5222297 0
23.004242 -15.315935 1.5722297 0
23.204243 -15.315935 1.5222297 0
23.254242 -15.315935 1.5222297 0
23.254242 -15.315935 1.6222297 0
23.454243 -15.315935 1.5222297 0
23.404242 -15.315935 1.5722297 0
22.754242 -15.315935 2.2222297 0
22.804241 -15.315935 2.1722298 0
23.004242 -15.315935 2.1722298 0
23.054241 -15.315935 2.1722298 0
23.004242 -15.315935 2.2722297 0
23.204243 -15.315935 2.1722298 0
23.254242 -15.315935 2.1722298 0
23.254242 -15.315935 2.2722297 0
23.404242 -15.315935 2.1722298 0
23.454243 -15.315935 2.1722298 0
23.554241 -15.215936 0.92222971 0
23.604242 -15.215936 0.92222971 0
23.654242 -15.215936 0.92222971 0
23.754242 -15.215936 0.92222971 0
23.804241 -15.215936 0.92222971 0
23.954243 -15.215936 0.92222971 0
24.054241 -15.215936 0.92222971 0
24.154242 -15.215936 0.92222971 0
24.254242 -15.165936 0.92222971 0
23.954243 -15.215936 0.97222972 0
24.204243 -15.215936 0.97222972 0
24.304241 -15.215936 0.92222971 0
24.404242 -15.215936 0.92222971 0
24.504242 -15.215936 0.92222971 0
24.554241 -15.215936 0.92222971 0
24.604242 -15.215936 0.92222971 0
24.454243 -15.215936 0.97222972 0
24.704243 -15.165936 0.92222971 0
24.754242 -15.215936 0.92222971 0
24.804241 -15.215936 0.92222971 0
24.954243 -15.215936 0.92222971 0
25.004242 -15.215936 0.92222971 0
25.054241 -15.215936 0.92222971 0
24.754242 -15.215936 0.97222972 0
23.654242 -15.315935 1.5222297 0
23.504242 -15.315935 1.6222297 0
23.604242 -15.315935 1.5722297 0
23.654242 -15.315935 1.5722297 0
23.754242 -15.315935 1.6222297 0
23.804241 -15.315935 1.5722297 0
24.054241 -15.215936 1.5222297 0
23.904242 -15.315935 1.5722297 0
24.004242 -15.315935 1.5722297 0
24.054241 -15.315935 1.6222297 0
24.054241 -15.215936 1.5722297 0
24.204243 -15.215936 1.5722297 0
24.204243 -15.165936 1.6222297 0
24.254242 -15.215936 1.5722297 0
23.504242 -15.315935 2.2722297 0
23.604242 -15.315935 2.1722298 0
23.654242 -15.315935 2.1722298 0
23.654242 -15.315935 2.2222297 0
23.804241 -15.315935 2.2222297 0
23.804241 -15.315935 2.3222296 0
23.904242 -15.315935 2.1722298 0
23.904242 -15.315935 2.2222297 0
24.004242 -15.315935 2.2222297 0
24.054241 -15.315935 2.3222296 0
24.054241 -15.215936 2.1722298 0
24.054241 -15.215936 2.2222297 0
24.204243 -15.165936 2.1722298 0
24.254242 -15.165936 2.2222297 0
24.204243 -15.215936 2.3222296 0
24.304241 -15.215936 1.5722297 0
24.404242 -15.215936 1.5722297 0
24.454243 -15.165936 1.6222297 0
24.504242 -15.215936 1.5722297 0
24.554241 -15.215936 1.5722297 0
24.604242 -15.215936 1.5722297 0
24.704243 -15.215936 1.5722297 0
24.754242 -15.215936 1.6722298 0
24.804241 -15.215936 1.5722297 0
24.804241 -15.165936 1.5722297 0
24.954243 -15.215936 1.5722297 0
25.004242 -15.215936 1.5722297 0
25.004242 -15.165936 1.5722297 0
24.304241 -15.215936 2.2222297 0
24.404242 -15.215936 2.2222297 0
24.454243 -15.165936 2.3222296 0
24.504242 -15.215936 2.2222297 0
24.554241 -15.215936 2.2222297 0
24.604242 -15.165936 2.2222297 0
24.704243 -15.215936 2.2222297 0
24.804241 -15.165936 2.2222297 0
24.804241 -15.215936 2.2722297 0
24.754242 -15.215936 2.3722298 0
24.954243 -15.215936 2.2222297 0
25.054241 -15.215936 2.2222297 0
25.054241 -15.215936 2.2722297 0
22.204243 -16.965935 3.7222297 0
21.954243 -16.915936 3.6722298 0
22.004242 -16.865936 3.6722298 0
22.304241 -16.965935 3.6722298 0
22.454243 -17.015936 3.7222297 0
22.054241 -17.165936 3.8222299 0
24.104242 -15.065935 2.9722297 0
25.154242 -15.215936 0.92222971 0
25.254242 -15.215936 0.92222971 0
25.404242 -15.215936 0.92222971 0
25.454243 -15.215936 0.92222971 0
25.504242 -15.215936 0.92222971 0
25.604242 -15.215936 0.92222971 0
25.704243 -15.215936 0.92222971 0
25.804241 -15.215936 0.92222971 0
25.854242 -15.215936 0.92222971 0
25.904242 -15.215936 0.92222971 0
26.104242 -15.215936 0.92222971 0
26.154242 -15.215936 0.92222971 0
26.054241 -15.215936 0.97222972 0
26.354242 -15.215936 0.92222971 0
26.604242 -15.215936 0.92222971 0
26.604242 -15.215936 0.97222972 0
25.154242 -15.215936 1.5722297 0
25.304241 -15.315935 1.5722297 0
25.354242 -15.315935 1.6222297 0
25.454243 -15.315935 1.6222297 0
25.504242 -15.315935 1.5722297 0
25.604242 -15.315935 1.6222297 0
25.704243 -15.315935 1.6222297 0
25.754242 -15.315935 1.5722297 0
25.154242 -15.165936 2.2222297 0
25.304241 -15.315935 2.2722297 0
25.354242 -15.315935 2.3222296 0
25.454243 -15.315935 2.2722297 0
25.504242 -15.315935 2.2722297 0
25.604242 -15.315935 2.3222296 0
25.704243 -15.315935 2.2722297 0
25.754242 -15.315935 2.2722297 0
25.904242 -15.315935 1.6222297 0
25.954243 -15.315935 1.6222297 0
26.204243 -15.315935 1.6222297 0
26.404242 -15.315935 1.6222297 0
26.454243 -15.315935 1.6222297 0
26.654242 -15.315935 1.6222297 0
25.904242 -15.315935 2.3222296 0
25.954243 -15.315935 2.2722297 0
25.954243 -15.315935 2.3222296 0
26.204243 -15.315935 2.2722297 0
26.204243 -15.315935 2.3222296 0
26.454243 -15.315935 2.2722297 0
26.454243 -15.315935 2.3222296 0
26.654242 -15.315935 2.3222296 0
26.854242 -15.215936 0.92222971 0
27.054241 -15.165936 0.92222971 0
26.854242 -15.165936 0.97222972 0
27.304241 -15.215936 0.92222971 0
27.104242 -15.215936 0.97222972 0
27.554241 -15.215936 0.97222972 0
27.804241 -15.215936 0.97222972 0
28.054241 -15.215936 0.97222972 0
26.704243 -15.315935 1.6222297 0
26.904242 -15.315935 1.6222297 0
26.904242 -15.265936 1.6722298 0
27.054241 -15.215936 1.6222297 0
27.104242 -15.165936 1.6722298 0
27.304241 -15.215936 1.6222297 0
26.704243 -15.315935 2.3222296 0
26.904242 -15.315935 2.3222296 0
27.054241 -15.215936 2.3222296 0
26.904242 -15.265936 2.3722298 0
27.104242 -15.165936 2.3722298 0
27.304241 -15.215936 2.3222296 0
27.554241 -15.215936 1.6222297 0
27.804241 -15.215936 1.6222297 0
27.554241 -15.215936 2.3222296 0
27.804241 -15.165936 2.3222296 0
25.704243 -15.065935 2.9722297 0
26.554241 -15.065935 2.9722297 0
26.954243 -15.015936 2.9722297 0
27.254242 -15.065935 3.0222297 0
