# .PCD v0.7 - Point Cloud Data file format
VERSION 0.7
FIELDS x y z intensity
SIZE 4 4 4 4
TYPE F F F F
COUNT 1 1 1 1
WIDTH 1452
HEIGHT 1
VIEWPOINT 0 0 0 1 0 0 0
POINTS 1452
DATA ascii
8.8042412 33.634064 -0.17777032 0
8.7042418 33.534065 0.072229691 0
8.7042418 33.584064 0.022229688 0
9.0042419 33.634064 -0.22777031 0
8.7042418 33.484066 0.22222969 0
8.7042418 33.534065 0.32222968 0
8.7042418 33.584064 0.17222969 0
8.7042418 33.584064 0.32222968 0
8.7042418 33.634064 0.32222968 0
8.7542419 33.634064 0.2722297 0
8.7042418 33.584064 0.42222971 0
8.8542414 33.534065 0.42222971 0
9.0042419 33.584064 0.2722297 0
8.4042416 33.284065 0.57222968 0
8.5042419 33.134064 0.6222297 0
8.5042419 33.134064 0.72222972 0
8.4542418 33.584064 0.6222297 0
8.6042414 33.634064 0.77222967 0
8.6542416 33.684067 0.6222297 0
8.4042416 33.584064 1.0222297 0
8.6542416 33.684067 0.97222972 0
8.6042414 33.684067 1.1222297 0
8.6542416 33.684067 1.2722297 0
8.7042418 33.634064 0.57222968 0
8.7542419 33.584064 0.6222297 0
8.7542419 33.634064 0.57222968 0
8.8042412 33.534065 0.57222968 0
8.7042418 33.584064 0.77222967 0
8.8542414 33.584064 0.77222967 0
8.7542419 33.684067 0.8722297 0
8.9542418 33.534065 0.57222968 0
9.0042419 33.584064 0.57222968 0
9.0042419 33.534065 0.92222971 0
9.0042419 33.584064 0.8722297 0
8.7042418 33.584064 0.97222972 0
8.7042418 33.634064 0.97222972 0
8.7042418 33.634064 1.1222297 0
8.8042412 33.584064 0.97222972 0
8.7542419 33.634064 1.2722297 0
8.7042418 33.684067 1.1722296 0
8.7042418 33.684067 1.3222297 0
8.9042416 33.584064 1.1222297 0
9.0042419 33.584064 1.2222297 0
9.0042419 33.584064 1.3222297 0
7.6542416 33.684067 1.5222297 0
7.7042418 33.634064 1.7222297 0
7.8542414 33.684067 1.4722297 0
7.6042414 33.634064 1.7722297 0
7.6042414 33.634064 1.9722297 0
7.6042414 33.684067 1.9222298 0
7.8042417 33.634064 1.7722297 0
7.8042417 33.634064 1.9222298 0
7.8042417 33.834064 2.0222297 0
8.0542412 33.634064 1.4222298 0
8.0542412 33.634064 1.4722297 0
8.0042419 33.634064 1.6222297 0
8.0542412 33.634064 1.7222297 0
7.9042416 33.684067 1.4722297 0
8.2542419 33.634064 1.4222298 0
8.2542419 33.634064 1.5722297 0
8.2542419 33.634064 1.6722298 0
8.0542412 33.634064 1.8722297 0
8.0042419 33.634064 2.0222297 0
8.0542412 33.684067 1.7722297 0
7.9042416 33.734066 2.0222297 0
8.2542419 33.634064 1.8222297 0
8.2542419 33.684067 1.9722297 0
8.4542418 32.284065 2.1222298 0
8.4542418 32.384064 2.0222297 0
8.4542418 32.534065 2.0222297 0
8.4542418 32.584064 2.0722296 0
8.5542412 32.384064 2.1222298 0
8.6042414 32.334064 2.1222298 0
8.4542418 32.984066 1.6222297 0
8.4542418 32.684067 1.9722297 0
8.4542418 32.734066 2.1222298 0
8.4542418 32.784065 2.0722296 0
8.4542418 33.034065 1.9222298 0
8.4542418 32.884064 1.9722297 0
8.4542418 32.884064 2.0722296 0
8.4042416 32.984066 2.0222297 0
8.5042419 32.934067 2.1222298 0
8.7542419 32.634064 2.1222298 0
8.8542414 32.734066 2.1222298 0
8.9042416 32.834064 2.1222298 0
8.9042416 32.984066 2.1222298 0
8.9042416 32.284065 2.4222298 0
8.9042416 32.484066 2.2222297 0
8.9042416 32.584064 2.3222296 0
8.9042416 32.484066 2.3722298 0
8.9042416 32.784065 2.3222296 0
8.9042416 32.834064 2.2722297 0
8.9042416 32.934067 2.2722297 0
8.4542418 33.134064 1.6222297 0
8.4042416 33.234066 1.6222297 0
8.4542418 33.234066 1.7222297 0
8.4542418 33.334064 1.7222297 0
8.4542418 33.384064 1.5722297 0
8.4542418 33.434067 1.7222297 0
8.4542418 33.184067 1.8722297 0
8.4042416 33.134064 2.0222297 0
8.4542418 33.234066 1.9722297 0
8.4042416 33.234066 2.1222298 0
8.4542418 33.334064 1.8722297 0
8.4542418 33.334064 1.9722297 0
8.4542418 33.384064 1.9722297 0
8.4542418 33.434067 1.9722297 0
8.4542418 33.584064 1.4222298 0
8.4542418 33.534065 1.7222297 0
8.4542418 33.684067 1.6722298 0
8.6042414 33.684067 1.5222297 0
8.4542418 33.484066 1.8222297 0
8.4042416 33.484066 1.9222298 0
8.4042416 33.634064 1.8222297 0
8.4542418 33.634064 1.9222298 0
8.4542418 33.584064 2.0222297 0
8.4542418 33.734066 2.0222297 0
8.4542418 33.834064 2.0222297 0
8.8542414 33.234066 2.1222298 0
8.9042416 33.434067 2.1222298 0
8.7042418 33.534065 1.3722297 0
8.7042418 33.634064 1.4722297 0
8.8542414 33.684067 2.1222298 0
8.8542414 33.784065 2.0722296 0
8.9042416 33.534065 2.1222298 0
8.4542418 33.584064 2.1722298 0
8.6042414 33.634064 2.1722298 0
8.9042416 33.084064 2.2222297 0
8.9042416 33.134064 2.1722298 0
8.9042416 33.234066 2.2222297 0
8.9042416 33.184067 2.3222296 0
8.9042416 33.284065 2.1722298 0
8.9042416 33.384064 2.1722298 0
8.9042416 33.434067 2.2222297 0
8.8542414 33.534065 2.3722298 0
8.8042412 33.734066 2.1722298 0
8.9042416 33.634064 2.2222297 0
8.9042416 33.684067 2.1722298 0
8.9042416 33.784065 2.2722297 0
8.8542414 33.734066 2.5722296 0
13.654242 15.034065 -0.077770315 0
13.554241 15.034065 0.12222969 0
13.654242 15.034065 0.072229691 0
13.654242 15.034065 0.22222969 0
13.604241 15.034065 0.2722297 0
13.654242 15.034065 0.32222968 0
13.554241 15.034065 0.42222971 0
13.654242 15.034065 0.47222969 0
13.554241 15.034065 0.72222972 0
13.604241 15.034065 0.57222968 0
13.654242 15.034065 0.6222297 0
13.554241 15.034065 0.82222968 0
13.554241 15.034065 0.92222971 0
13.654242 15.034065 0.77222967 0
13.654242 15.034065 0.8722297 0
13.704242 15.034065 0.72222972 0
13.554241 15.034065 1.0222297 0
13.654242 15.034065 1.0222297 0
13.554241 15.034065 1.2222297 0
13.604241 15.034065 1.2222297 0
9.2042418 26.484066 0.67222971 0
9.4042416 26.484066 0.67222971 0
9.5542412 26.484066 0.6222297 0
9.7042418 26.484066 0.6222297 0
9.1042414 27.334064 -0.12777032 0
9.1042414 27.334064 -0.077770315 0
9.1542416 27.384066 -0.12777032 0
9.2542419 27.384066 -0.22777031 0
9.1042414 27.334064 0.12222969 0
9.1042414 27.384066 -0.027770313 0
9.1042414 27.384066 0.022229688 0
9.2542419 27.384066 -0.027770313 0
9.2042418 27.384066 0.12222969 0
9.3042412 27.384066 -0.12777032 0
9.3542414 27.384066 -0.12777032 0
9.4542418 27.384066 -0.22777031 0
9.4042416 27.384066 -0.077770315 0
9.3042412 27.384066 0.022229688 0
9.4042416 27.384066 0.022229688 0
9.4042416 27.384066 0.12222969 0
9.5042419 27.334064 -0.17777032 0
9.5042419 27.334064 -0.12777032 0
9.5542412 27.384066 -0.12777032 0
9.5542412 27.384066 -0.077770315 0
9.6542416 27.384066 -0.22777031 0
9.6542416 27.384066 -0.12777032 0
9.5042419 27.334064 0.12222969 0
9.5542412 27.384066 0.12222969 0
9.6042414 27.384066 0.022229688 0
9.7042418 27.384066 -0.077770315 0
9.7542419 27.384066 -0.12777032 0
9.8542414 27.334064 -0.17777032 0
9.8542414 27.434065 -0.22777031 0
9.8542414 27.384066 -0.12777032 0
9.8542414 27.384066 -0.077770315 0
9.7042418 27.384066 0.022229688 0
9.7042418 27.384066 0.12222969 0
9.8542414 27.334064 0.072229691 0
9.8542414 27.384066 0.022229688 0
9.8542414 27.384066 0.12222969 0
9.6542416 27.384066 0.17222969 0
10.554241 26.584064 -0.077770315 0
10.304241 26.534065 0.22222969 0
10.454242 26.634066 0.52222967 0
10.504242 26.534065 0.22222969 0
10.504242 26.534065 0.52222967 0
9.9042416 26.484066 0.6222297 0
10.404242 26.634066 0.82222968 0
10.504242 26.584064 0.82222968 0
10.454242 26.634066 1.1722296 0
10.504242 26.584064 1.1722296 0
10.054241 27.434065 -0.22777031 0
10.004242 27.384066 -0.12777032 0
10.004242 27.384066 -0.077770315 0
9.9542418 27.384066 0.022229688 0
10.004242 27.384066 0.12222969 0
10.004242 27.434065 0.072229691 0
10.154242 27.384066 -0.17777032 0
10.104241 27.384066 -0.077770315 0
10.254242 27.384066 -0.22777031 0
10.204242 27.384066 -0.12777032 0
10.254242 27.384066 -0.077770315 0
10.104241 27.384066 0.022229688 0
10.154242 27.384066 0.072229691 0
10.154242 27.384066 0.12222969 0
10.254242 27.384066 -0.027770313 0
10.554241 26.684065 -0.077770315 0
10.554241 26.834064 -0.12777032 0
10.554241 26.834064 -0.077770315 0
10.554241 26.834064 0.12222969 0
10.554241 26.934065 -0.17777032 0
10.554241 26.934065 -0.077770315 0
10.554241 26.984066 -0.17777032 0
10.504242 27.034065 -0.12777032 0
10.554241 26.934065 0.072229691 0
10.554241 27.034065 0.072229691 0
10.454242 26.734066 0.52222967 0
10.554241 26.834064 0.3722297 0
10.554241 26.934065 0.32222968 0
10.554241 27.034065 0.32222968 0
10.404242 27.284065 -0.22777031 0
10.454242 27.334064 -0.17777032 0
10.454242 27.334064 -0.12777032 0
10.454242 27.384066 -0.22777031 0
10.404242 27.384066 -0.12777032 0
10.354241 27.384066 0.072229691 0
10.404242 27.284065 0.022229688 0
10.404242 27.334064 -0.027770313 0
10.454242 27.334064 0.072229691 0
10.454242 27.384066 0.072229691 0
10.504242 27.084064 -0.22777031 0
10.504242 27.084064 -0.17777032 0
10.504242 27.134066 -0.17777032 0
10.554241 27.134066 -0.22777031 0
10.554241 27.134066 -0.12777032 0
10.504242 27.184065 -0.22777031 0
10.554241 27.234066 -0.17777032 0
10.554241 27.234066 -0.12777032 0
10.554241 27.084064 0.022229688 0
10.554241 27.134066 0.022229688 0
10.554241 27.184065 0.022229688 0
10.504242 27.184065 0.072229691 0
10.554241 27.234066 0.072229691 0
10.504242 27.284065 -0.22777031 0
10.504242 27.334064 -0.22777031 0
10.504242 27.334064 -0.17777032 0
10.554241 27.334064 -0.12777032 0
10.504242 27.384066 -0.22777031 0
10.504242 27.384066 -0.17777032 0
10.554241 27.384066 -0.22777031 0
10.554241 27.434065 -0.17777032 0
10.504242 27.384066 -0.12777032 0
10.554241 27.434065 -0.12777032 0
10.504242 27.334064 0.022229688 0
10.554241 27.334064 0.072229691 0
10.504242 27.384066 -0.027770313 0
10.504242 27.434065 0.022229688 0
10.554241 27.434065 0.022229688 0
10.504242 27.384066 0.072229691 0
10.504242 27.434065 0.072229691 0
10.554241 27.434065 0.072229691 0
10.304241 27.384066 0.22222969 0
10.404242 27.284065 0.2722297 0
10.454242 27.334064 0.32222968 0
10.454242 27.384066 0.17222969 0
10.354241 27.384066 0.47222969 0
10.454242 27.334064 0.47222969 0
10.554241 27.134066 0.22222969 0
10.504242 27.084064 0.32222968 0
10.554241 27.234066 0.22222969 0
10.554241 27.134066 0.47222969 0
10.554241 27.234066 0.47222969 0
10.504242 27.284065 0.22222969 0
10.554241 27.334064 0.22222969 0
10.504242 27.384066 0.17222969 0
10.554241 27.434065 0.22222969 0
10.504242 27.384066 0.32222968 0
10.554241 27.434065 0.32222968 0
10.504242 27.284065 0.47222969 0
10.554241 27.334064 0.47222969 0
10.504242 27.384066 0.47222969 0
10.554241 27.434065 0.47222969 0
10.254242 27.384066 0.8722297 0
10.254242 27.384066 1.0722297 0
10.454242 26.784065 0.82222968 0
10.404242 26.884066 0.82222968 0
10.454242 26.984066 0.77222967 0
10.504242 26.834064 0.6222297 0
10.554241 26.834064 0.8722297 0
10.554241 26.934065 0.6222297 0
10.554241 27.034065 0.6222297 0
10.554241 26.934065 0.8722297 0
10.554241 27.034065 0.8722297 0
10.454242 26.784065 1.1222297 0
10.454242 26.884066 1.1222297 0
10.454242 26.984066 1.0722297 0
10.554241 26.834064 1.1222297 0
10.554241 26.984066 1.1222297 0
10.554241 27.034065 1.1222297 0
10.404242 27.134066 0.6222297 0
10.404242 27.234066 0.6222297 0
10.404242 27.084064 0.77222967 0
10.404242 27.134066 0.8722297 0
10.404242 27.184065 0.77222967 0
10.304241 27.434065 0.67222971 0
10.454242 27.334064 0.57222968 0
10.454242 27.334064 0.67222971 0
10.454242 27.334064 0.72222972 0
10.404242 27.384066 0.57222968 0
10.404242 27.384066 0.72222972 0
10.404242 27.434065 0.72222972 0
10.454242 27.384066 0.67222971 0
10.354241 27.384066 0.8722297 0
10.454242 27.284065 0.77222967 0
10.454242 27.334064 0.77222967 0
10.454242 27.334064 0.82222968 0
10.404242 27.284065 0.8722297 0
10.404242 27.384066 0.82222968 0
10.504242 27.084064 0.6222297 0
10.554241 27.084064 0.72222972 0
10.554241 27.184065 0.72222972 0
10.554241 27.234066 0.67222971 0
10.504242 27.084064 0.8722297 0
10.504242 27.084064 0.92222971 0
10.554241 27.184065 0.92222971 0
10.554241 27.234066 0.92222971 0
10.504242 27.284065 0.72222972 0
10.504242 27.384066 0.57222968 0
10.554241 27.434065 0.57222968 0
10.504242 27.434065 0.67222971 0
10.554241 27.384066 0.67222971 0
10.554241 27.434065 0.67222971 0
10.504242 27.284065 0.92222971 0
10.504242 27.384066 0.77222967 0
10.504242 27.384066 0.82222968 0
10.554241 27.434065 0.82222968 0
10.504242 27.384066 0.8722297 0
10.554241 27.384066 0.92222971 0
10.554241 27.434065 0.92222971 0
10.404242 27.134066 1.1222297 0
10.454242 27.084064 1.0722297 0
10.404242 27.184065 1.0722297 0
10.404242 27.234066 1.1222297 0
10.454242 27.334064 0.97222972 0
10.404242 27.284065 1.0722297 0
10.404242 27.334064 1.1222297 0
10.454242 27.334064 1.1222297 0
10.404242 27.384066 0.97222972 0
10.404242 27.434065 0.97222972 0
10.404242 27.434065 1.0222297 0
10.404242 27.384066 1.1222297 0
10.454242 27.384066 1.0722297 0
10.454242 27.384066 1.1222297 0
10.304241 27.434065 1.1722296 0
10.354241 27.384066 1.2722297 0
10.454242 27.334064 1.1722296 0
10.454242 27.334064 1.3222297 0
10.404242 27.384066 1.2222297 0
10.404242 27.434065 1.1722296 0
10.454242 27.384066 1.3222297 0
10.454242 27.434065 1.3222297 0
10.504242 27.084064 1.1222297 0
10.554241 27.134066 1.1722296 0
10.554241 27.234066 1.1722296 0
10.504242 27.384066 0.97222972 0
10.554241 27.434065 1.0222297 0
10.504242 27.384066 1.0722297 0
10.504242 27.334064 1.1722296 0
10.504242 27.384066 1.1722296 0
10.554241 27.434065 1.1722296 0
10.504242 27.384066 1.2722297 0
10.554241 27.384066 1.3222297 0
10.554241 27.434065 1.3222297 0
9.1042414 27.384066 2.7722297 0
10.454242 26.634066 1.4722297 0
10.354241 26.584064 1.8222297 0
10.504242 26.634066 1.7722297 0
10.254242 27.434065 1.3722297 0
10.454242 26.784065 1.4222298 0
10.454242 26.884066 1.4222298 0
10.454242 27.034065 1.4222298 0
10.554241 26.884066 1.4222298 0
10.554241 26.984066 1.3722297 0
10.554241 27.034065 1.3722297 0
10.454242 27.134066 1.3722297 0
10.454242 27.184065 1.4222298 0
10.454242 27.234066 1.3722297 0
10.404242 27.284065 1.3722297 0
10.454242 27.334064 1.3722297 0
10.404242 27.384066 1.3722297 0
10.454242 27.384066 1.3722297 0
10.304241 27.434065 1.6222297 0
10.354241 27.384066 1.7222297 0
10.454242 27.434065 1.6222297 0
10.454242 27.384066 1.6722298 0
10.504242 27.134066 1.3722297 0
10.554241 27.434065 1.6222297 0
10.504242 27.434065 1.7222297 0
10.554241 27.434065 1.6722298 0
10.304241 27.434065 2.1222298 0
10.354241 27.384066 2.1222298 0
10.454242 27.384066 2.0222297 0
10.454242 27.434065 2.0722296 0
10.554241 27.434065 2.0222297 0
10.504242 27.434065 2.1222298 0
10.504242 27.434065 2.5222297 0
10.304241 27.434065 2.6222298 0
10.354241 27.434065 2.5722296 0
10.504242 27.434065 2.5722296 0
9.1042414 26.834064 2.9722297 0
9.1042414 26.834064 3.1222298 0
9.1542416 26.834064 3.1722298 0
9.1542416 27.034065 3.1222298 0
9.1542416 27.034065 3.1722298 0
9.1042414 26.834064 3.3722298 0
9.2542419 26.934065 3.3722298 0
9.1042414 27.134066 3.0222297 0
9.1542416 27.384066 3.1722298 0
9.2042418 27.284065 3.2222297 0
9.3542414 27.234066 3.4222298 0
10.304241 27.434065 3.1222298 0
10.504242 27.434065 3.0722296 0
9.1542416 27.484066 -0.077770315 0
9.4042416 27.484066 -0.077770315 0
9.4042416 27.534065 0.52222967 0
9.6042414 27.484066 -0.077770315 0
9.8542414 27.484066 -0.077770315 0
9.6042414 27.584064 0.52222967 0
9.8042412 27.534065 0.52222967 0
9.1042414 27.534065 0.57222968 0
9.1542416 27.534065 0.72222972 0
9.2042418 27.534065 0.6222297 0
9.2542419 27.534065 0.57222968 0
9.2042418 27.534065 0.67222971 0
9.1542416 27.534065 0.77222967 0
9.2042418 27.534065 0.77222967 0
9.2542419 27.534065 0.92222971 0
9.2042418 27.584064 0.92222971 0
9.3542414 27.534065 0.57222968 0
9.3042412 27.534065 0.72222972 0
9.3042412 27.534065 0.77222967 0
9.3542414 27.534065 0.92222971 0
9.3542414 27.584064 0.92222971 0
9.4042416 27.534065 0.77222967 0
9.4542418 27.534065 0.77222967 0
9.1042414 27.534065 1.0222297 0
9.2542419 27.534065 0.97222972 0
9.2042418 27.534065 1.0722297 0
9.2542419 27.584064 0.97222972 0
9.1542416 27.534065 1.1722296 0
9.1042414 27.584064 1.2222297 0
9.2542419 27.534065 1.2222297 0
9.2042418 27.584064 1.2722297 0
9.3042412 27.534065 1.1222297 0
9.4042416 27.534065 1.0222297 0
9.4542418 27.534065 1.1222297 0
9.4042416 27.584064 0.97222972 0
9.3042412 27.584064 1.2222297 0
9.3542414 27.634066 1.3222297 0
9.4042416 27.534065 1.3222297 0
9.4042416 27.584064 1.2222297 0
9.5042419 27.534065 0.57222968 0
9.5542412 27.534065 0.72222972 0
9.5042419 27.584064 0.72222972 0
9.6542416 27.534065 0.57222968 0
9.6042414 27.534065 0.72222972 0
9.6542416 27.584064 0.72222972 0
9.5542412 27.534065 0.8722297 0
9.6542416 27.534065 0.8722297 0
9.6042414 27.584064 0.8722297 0
9.7542419 27.534065 0.67222971 0
9.7542419 27.534065 0.72222972 0
9.8542414 27.534065 0.72222972 0
9.7542419 27.584064 0.8722297 0
9.8042412 27.584064 0.8722297 0
9.5542412 27.534065 1.0222297 0
9.5042419 27.584064 1.1222297 0
9.6042414 27.534065 1.1222297 0
9.6042414 27.584064 0.97222972 0
9.5542412 27.534065 1.3222297 0
9.5042419 27.584064 1.2222297 0
9.5542412 27.634066 1.3222297 0
9.6542416 27.584064 1.1722296 0
9.6542416 27.584064 1.2222297 0
9.7542419 27.534065 0.97222972 0
9.7542419 27.534065 1.0722297 0
9.7542419 27.584064 0.97222972 0
9.7042418 27.584064 1.1222297 0
9.8542414 27.584064 1.0722297 0
9.7542419 27.534065 1.2722297 0
9.8042412 27.584064 1.1722296 0
9.8542414 27.584064 1.1722296 0
9.8042412 27.634066 1.3222297 0
10.104241 27.484066 -0.077770315 0
9.9542418 27.534065 0.52222967 0
10.104241 27.584064 0.52222967 0
10.354241 27.484066 -0.077770315 0
10.454242 27.684065 -0.22777031 0
10.454242 27.784065 -0.12777032 0
10.504242 27.534065 -0.22777031 0
10.504242 27.534065 -0.17777032 0
10.554241 27.484066 -0.17777032 0
10.554241 27.534065 -0.22777031 0
10.504242 27.534065 -0.12777032 0
10.554241 27.484066 -0.12777032 0
10.554241 27.484066 -0.077770315 0
10.504242 27.634066 -0.22777031 0
10.504242 27.634066 -0.17777032 0
10.504242 27.634066 -0.12777032 0
10.504242 27.534065 0.022229688 0
10.554241 27.534065 -0.027770313 0
10.554241 27.534065 0.022229688 0
10.554241 27.484066 0.072229691 0
10.554241 27.534065 0.072229691 0
10.504242 27.634066 -0.027770313 0
10.504242 27.634066 0.022229688 0
10.504242 27.584064 0.072229691 0
10.504242 27.634066 0.072229691 0
10.504242 27.684065 -0.22777031 0
10.504242 27.734066 -0.22777031 0
10.504242 27.734066 -0.17777032 0
10.504242 27.684065 -0.077770315 0
10.504242 27.784065 -0.22777031 0
10.504242 27.784065 -0.17777032 0
10.504242 27.834064 -0.22777031 0
10.504242 27.834064 -0.17777032 0
10.504242 27.784065 -0.12777032 0
10.504242 27.834064 -0.077770315 0
10.504242 27.684065 0.022229688 0
10.504242 27.734066 -0.027770313 0
10.504242 27.734066 0.022229688 0
10.504242 27.734066 0.072229691 0
10.504242 27.734066 0.12222969 0
10.504242 27.834064 -0.027770313 0
10.504242 27.834064 0.022229688 0
10.504242 27.784065 0.072229691 0
10.504242 27.834064 0.12222969 0
10.404242 27.734066 0.47222969 0
10.404242 27.834064 0.47222969 0
10.554241 27.484066 0.17222969 0
10.554241 27.534065 0.22222969 0
10.554241 27.534065 0.32222968 0
10.504242 27.584064 0.17222969 0
10.554241 27.484066 0.47222969 0
10.554241 27.534065 0.47222969 0
10.454242 28.034065 -0.22777031 0
10.504242 27.884066 -0.22777031 0
10.504242 27.884066 -0.17777032 0
10.504242 27.934065 -0.22777031 0
10.504242 27.884066 -0.12777032 0
10.504242 27.934065 -0.12777032 0
10.504242 27.984066 -0.22777031 0
10.504242 27.984066 -0.17777032 0
10.504242 28.034065 -0.22777031 0
10.504242 28.034065 -0.12777032 0
10.504242 27.884066 -0.027770313 0
10.504242 27.934065 -0.027770313 0
10.504242 27.934065 0.022229688 0
10.504242 27.934065 0.072229691 0
10.504242 27.984066 -0.027770313 0
10.504242 27.984066 0.022229688 0
10.504242 28.034065 -0.027770313 0
10.504242 28.034065 0.022229688 0
10.504242 27.984066 0.072229691 0
10.504242 27.984066 0.12222969 0
10.504242 28.034065 0.072229691 0
10.504242 28.084064 -0.22777031 0
10.504242 28.084064 -0.17777032 0
10.504242 28.134066 -0.22777031 0
10.504242 28.134066 -0.17777032 0
10.504242 28.084064 -0.12777032 0
10.504242 28.184065 -0.22777031 0
10.504242 28.184065 -0.17777032 0
10.504242 28.234066 -0.22777031 0
10.504242 28.234066 -0.17777032 0
10.504242 28.184065 -0.077770315 0
10.504242 28.234066 -0.12777032 0
10.504242 28.084064 -0.027770313 0
10.504242 28.134066 -0.027770313 0
10.504242 28.134066 0.022229688 0
10.504242 28.084064 0.072229691 0
10.504242 28.134066 0.072229691 0
10.504242 28.184065 -0.027770313 0
10.504242 28.234066 0.022229688 0
10.504242 28.184065 0.072229691 0
10.504242 28.234066 0.072229691 0
10.404242 27.884066 0.52222967 0
10.404242 27.934065 0.47222969 0
10.404242 27.934065 0.52222967 0
10.404242 28.034065 0.47222969 0
10.404242 28.034065 0.52222967 0
10.404242 28.084064 0.52222967 0
10.404242 28.134066 0.47222969 0
10.404242 28.134066 0.52222967 0
10.404242 28.184065 0.52222967 0
10.404242 28.234066 0.52222967 0
9.9042416 27.534065 0.67222971 0
10.004242 27.534065 0.72222972 0
10.004242 27.584064 0.67222971 0
9.9542418 27.584064 0.82222968 0
9.9042416 27.584064 0.92222971 0
9.9542418 27.584064 0.8722297 0
10.054241 27.584064 0.92222971 0
10.154242 27.584064 0.67222971 0
10.104241 27.584064 0.82222968 0
9.9042416 27.534065 0.97222972 0
9.9542418 27.584064 1.1222297 0
10.004242 27.584064 1.0722297 0
9.9042416 27.534065 1.2222297 0
9.9542418 27.584064 1.1722296 0
10.004242 27.584064 1.1722296 0
10.054241 27.584064 1.3222297 0
10.054241 27.634066 1.3222297 0
10.154242 27.534065 1.0222297 0
10.104241 27.584064 1.1222297 0
10.404242 27.534065 0.57222968 0
10.454242 27.484066 0.57222968 0
10.404242 27.484066 0.72222972 0
10.404242 27.534065 0.72222972 0
10.404242 27.634066 0.57222968 0
10.404242 27.584064 0.72222972 0
10.404242 27.634066 0.72222972 0
10.454242 27.634066 0.72222972 0
10.404242 27.484066 0.82222968 0
10.404242 27.534065 0.82222968 0
10.404242 27.634066 0.92222971 0
10.404242 27.684065 0.57222968 0
10.404242 27.734066 0.57222968 0
10.404242 27.734066 0.6222297 0
10.404242 27.684065 0.72222972 0
10.404242 27.734066 0.72222972 0
10.454242 27.734066 0.72222972 0
10.404242 27.784065 0.57222968 0
10.404242 27.834064 0.6222297 0
10.404242 27.834064 0.67222971 0
10.404242 27.834064 0.72222972 0
10.404242 27.684065 0.82222968 0
10.404242 27.734066 0.8722297 0
10.404242 27.734066 0.92222971 0
10.404242 27.784065 0.77222967 0
10.404242 27.784065 0.82222968 0
10.404242 27.784065 0.92222971 0
10.554241 27.534065 0.57222968 0
10.554241 27.534065 0.67222971 0
10.554241 27.534065 0.72222972 0
10.504242 27.584064 0.67222971 0
10.554241 27.484066 0.77222967 0
10.554241 27.534065 0.82222968 0
10.554241 27.484066 0.8722297 0
10.554241 27.484066 0.92222971 0
10.504242 27.584064 0.92222971 0
10.404242 27.534065 0.97222972 0
10.454242 27.534065 1.0222297 0
10.404242 27.484066 1.0722297 0
10.404242 27.634066 0.97222972 0
10.404242 27.634066 1.0222297 0
10.404242 27.584064 1.0722297 0
10.354241 27.484066 1.2722297 0
10.404242 27.534065 1.1722296 0
10.404242 27.534065 1.3222297 0
10.404242 27.634066 1.1722296 0
10.404242 27.634066 1.2722297 0
10.404242 27.634066 1.3222297 0
10.404242 27.684065 0.97222972 0
10.454242 27.734066 0.97222972 0
10.404242 27.684065 1.0722297 0
10.404242 27.734066 1.1222297 0
10.404242 27.784065 0.97222972 0
10.404242 27.834064 0.97222972 0
10.404242 27.784065 1.0722297 0
10.404242 27.784065 1.1222297 0
10.404242 27.684065 1.2222297 0
10.404242 27.734066 1.1722296 0
10.404242 27.684065 1.3222297 0
10.404242 27.734066 1.2722297 0
10.404242 27.784065 1.1722296 0
10.404242 27.784065 1.2222297 0
10.404242 27.834064 1.2222297 0
10.404242 27.784065 1.3222297 0
10.454242 27.834064 1.2722297 0
10.554241 27.534065 1.0222297 0
10.554241 27.484066 1.0722297 0
10.554241 27.534065 1.0722297 0
10.504242 27.584064 1.1222297 0
10.554241 27.534065 1.1722296 0
10.554241 27.484066 1.3222297 0
10.554241 27.534065 1.2722297 0
10.554241 27.584064 1.3222297 0
10.404242 27.884066 0.57222968 0
10.404242 27.884066 0.67222971 0
10.404242 27.934065 0.72222972 0
10.404242 27.984066 0.6222297 0
10.404242 28.034065 0.67222971 0
10.404242 27.884066 0.77222967 0
10.404242 27.934065 0.77222967 0
10.404242 27.934065 0.82222968 0
10.404242 27.884066 0.8722297 0
10.404242 27.884066 0.92222971 0
10.404242 28.034065 0.77222967 0
10.404242 28.034065 0.82222968 0
10.404242 27.984066 0.8722297 0
10.404242 27.984066 0.92222971 0
10.404242 28.034065 0.8722297 0
10.404242 28.084064 0.6222297 0
10.404242 28.084064 0.67222971 0
10.404242 28.084064 0.72222972 0
10.404242 28.134066 0.67222971 0
10.404242 28.134066 0.72222972 0
10.404242 28.184065 0.6222297 0
10.404242 28.184065 0.67222971 0
10.404242 28.234066 0.67222971 0
10.404242 28.084064 0.77222967 0
10.404242 28.084064 0.92222971 0
10.404242 28.134066 0.92222971 0
10.404242 28.184065 0.77222967 0
10.404242 28.184065 0.82222968 0
10.404242 28.234066 0.77222967 0
10.404242 28.184065 0.92222971 0
10.404242 28.234066 0.92222971 0
10.404242 27.934065 1.0222297 0
10.454242 27.934065 0.97222972 0
10.404242 27.884066 1.0722297 0
10.404242 27.884066 1.1222297 0
10.404242 27.934065 1.0722297 0
10.404242 27.984066 0.97222972 0
10.404242 28.034065 0.97222972 0
10.404242 28.034065 1.0222297 0
10.404242 28.034065 1.1222297 0
10.404242 27.884066 1.1722296 0
10.404242 27.934065 1.2222297 0
10.404242 27.884066 1.3222297 0
10.404242 27.934065 1.2722297 0
10.404242 27.984066 1.1722296 0
10.404242 27.984066 1.2222297 0
10.404242 28.034065 1.1722296 0
10.404242 28.034065 1.2222297 0
10.404242 27.984066 1.3222297 0
10.404242 28.034065 1.3222297 0
10.404242 28.084064 0.97222972 0
10.404242 28.134066 0.97222972 0
10.404242 28.134066 1.0222297 0
10.404242 28.134066 1.0722297 0
10.404242 28.184065 1.0222297 0
10.404242 28.234066 0.97222972 0
10.354241 28.134066 1.2222297 0
10.404242 28.084064 1.1722296 0
10.404242 28.084064 1.2222297 0
10.404242 28.134066 1.1722296 0
10.404242 28.134066 1.2222297 0
10.404242 28.134066 1.2722297 0
10.404242 28.184065 1.1722296 0
10.404242 28.234066 1.1722296 0
10.404242 28.234066 1.2222297 0
10.404242 28.184065 1.2722297 0
10.404242 28.284065 -0.12777032 0
10.454242 28.434065 -0.22777031 0
10.504242 28.284065 -0.22777031 0
10.504242 28.284065 -0.17777032 0
10.504242 28.334064 -0.22777031 0
10.554241 28.334064 -0.17777032 0
10.504242 28.334064 -0.12777032 0
10.504242 28.334064 -0.077770315 0
10.504242 28.384066 -0.22777031 0
10.504242 28.384066 -0.17777032 0
10.504242 28.434065 -0.22777031 0
10.504242 28.434065 -0.12777032 0
10.504242 28.434065 -0.077770315 0
10.504242 28.334064 -0.027770313 0
10.504242 28.334064 0.022229688 0
10.504242 28.284065 0.072229691 0
10.504242 28.334064 0.072229691 0
10.504242 28.434065 -0.027770313 0
10.504242 28.434065 0.022229688 0
10.504242 28.434065 0.072229691 0
10.504242 28.484066 -0.22777031 0
10.504242 28.484066 -0.17777032 0
10.504242 28.584064 -0.22777031 0
10.504242 28.634066 -0.22777031 0
10.504242 28.634066 -0.17777032 0
10.504242 28.584064 -0.12777032 0
10.504242 28.584064 -0.077770315 0
10.504242 28.534065 -0.027770313 0
10.504242 28.534065 0.022229688 0
10.504242 28.484066 0.072229691 0
10.504242 28.534065 0.12222969 0
10.504242 28.634066 -0.027770313 0
10.504242 28.634066 0.022229688 0
10.504242 28.584064 0.072229691 0
10.504242 28.634066 0.12222969 0
10.404242 28.284065 0.52222967 0
10.404242 28.334064 0.52222967 0
10.404242 28.384066 0.47222969 0
10.404242 28.384066 0.52222967 0
10.404242 28.434065 0.52222967 0
10.404242 28.484066 0.47222969 0
10.404242 28.484066 0.52222967 0
10.404242 28.534065 0.52222967 0
10.404242 28.584064 0.52222967 0
10.404242 28.634066 0.47222969 0
10.404242 28.634066 0.52222967 0
10.404242 28.734066 -0.12777032 0
10.454242 28.884066 -0.22777031 0
10.504242 28.684065 -0.22777031 0
10.504242 28.684065 -0.17777032 0
10.504242 28.734066 -0.17777032 0
10.504242 28.734066 -0.077770315 0
10.504242 28.784065 -0.22777031 0
10.504242 28.784065 -0.17777032 0
10.504242 28.834064 -0.22777031 0
10.504242 28.834064 -0.17777032 0
10.504242 28.734066 -0.027770313 0
10.504242 28.734066 0.022229688 0
10.504242 28.684065 0.072229691 0
10.504242 28.734066 0.12222969 0
10.504242 28.784065 -0.027770313 0
10.504242 28.784065 0.022229688 0
10.504242 28.834064 -0.027770313 0
10.504242 28.834064 0.12222969 0
10.504242 28.884066 -0.22777031 0
10.504242 28.934065 -0.22777031 0
10.504242 28.934065 -0.17777032 0
10.504242 28.884066 -0.077770315 0
10.504242 29.034065 -0.22777031 0
10.504242 29.034065 -0.17777032 0
10.504242 28.884066 0.022229688 0
10.504242 28.934065 -0.027770313 0
10.504242 28.934065 0.022229688 0
10.504242 28.984066 0.022229688 0
10.504242 29.034065 -0.027770313 0
10.504242 29.034065 0.022229688 0
10.404242 28.734066 0.47222969 0
10.404242 28.834064 0.42222971 0
10.404242 28.784065 0.52222967 0
10.404242 28.834064 0.47222969 0
10.404242 28.934065 0.42222971 0
10.404242 28.884066 0.52222967 0
10.404242 28.934065 0.47222969 0
10.404242 28.934065 0.52222967 0
10.404242 29.034065 0.42222971 0
10.404242 28.984066 0.47222969 0
10.404242 29.034065 0.52222967 0
10.404242 28.284065 0.6222297 0
10.404242 28.284065 0.72222972 0
10.404242 28.334064 0.67222971 0
10.404242 28.334064 0.72222972 0
10.404242 28.434065 0.6222297 0
10.404242 28.384066 0.67222971 0
10.404242 28.434065 0.67222971 0
10.354241 28.334064 0.8722297 0
10.404242 28.284065 0.82222968 0
10.404242 28.334064 0.82222968 0
10.404242 28.284065 0.92222971 0
10.404242 28.334064 0.92222971 0
10.404242 28.384066 0.77222967 0
10.404242 28.384066 0.82222968 0
10.404242 28.384066 0.92222971 0
10.404242 28.434065 0.8722297 0
10.404242 28.434065 0.92222971 0
10.354241 28.484066 0.72222972 0
10.404242 28.484066 0.67222971 0
10.404242 28.484066 0.72222972 0
10.404242 28.534065 0.67222971 0
10.404242 28.534065 0.72222972 0
10.404242 28.584064 0.6222297 0
10.404242 28.634066 0.6222297 0
10.404242 28.634066 0.67222971 0
10.404242 28.484066 0.77222967 0
10.404242 28.534065 0.77222967 0
10.404242 28.534065 0.92222971 0
10.404242 28.634066 0.77222967 0
10.404242 28.584064 0.8722297 0
10.404242 28.584064 0.92222971 0
10.404242 28.634066 0.92222971 0
10.404242 28.284065 0.97222972 0
10.404242 28.284065 1.0222297 0
10.404242 28.284065 1.1222297 0
10.404242 28.334064 1.0722297 0
10.404242 28.384066 0.97222972 0
10.404242 28.384066 1.0222297 0
10.404242 28.434065 1.1222297 0
10.404242 28.284065 1.2222297 0
10.404242 28.334064 1.1722296 0
10.404242 28.334064 1.2222297 0
10.454242 28.334064 1.1722296 0
10.404242 28.284065 1.2722297 0
10.404242 28.384066 1.1722296 0
10.404242 28.434065 1.1722296 0
10.404242 28.434065 1.2222297 0
10.404242 28.384066 1.2722297 0
10.404242 28.484066 0.97222972 0
10.404242 28.484066 1.0222297 0
10.404242 28.534065 1.0222297 0
10.404242 28.534065 1.1222297 0
10.404242 28.634066 1.0722297 0
10.354241 28.484066 1.2222297 0
10.404242 28.484066 1.1722296 0
10.404242 28.534065 1.2222297 0
10.404242 28.484066 1.2722297 0
10.404242 28.534065 1.2722297 0
10.404242 28.584064 1.1722296 0
10.404242 28.634066 1.1722296 0
10.404242 28.634066 1.2222297 0
10.404242 28.634066 1.2722297 0
10.354241 28.784065 0.57222968 0
10.354241 28.784065 0.72222972 0
10.404242 28.734066 0.57222968 0
10.404242 28.734066 0.67222971 0
10.404242 28.834064 0.57222968 0
10.404242 28.834064 0.67222971 0
10.404242 28.834064 0.72222972 0
10.354241 28.734066 0.92222971 0
10.404242 28.684065 0.77222967 0
10.404242 28.734066 0.77222967 0
10.404242 28.684065 0.8722297 0
10.404242 28.684065 0.92222971 0
10.404242 28.734066 0.8722297 0
10.404242 28.784065 0.77222967 0
10.404242 28.784065 0.92222971 0
10.404242 28.834064 0.8722297 0
10.404242 28.834064 0.92222971 0
10.404242 28.884066 0.57222968 0
10.404242 28.934065 0.57222968 0
10.404242 28.884066 0.72222972 0
10.404242 28.934065 0.67222971 0
10.404242 28.984066 0.57222968 0
10.404242 29.034065 0.57222968 0
10.404242 28.984066 0.72222972 0
10.404242 28.884066 0.77222967 0
10.404242 28.934065 0.77222967 0
10.404242 28.934065 0.82222968 0
10.404242 28.934065 0.92222971 0
10.404242 29.034065 0.77222967 0
10.404242 29.034065 0.82222968 0
10.404242 28.984066 0.92222971 0
10.354241 28.784065 1.0222297 0
10.404242 28.684065 1.0222297 0
10.404242 28.734066 0.97222972 0
10.404242 28.684065 1.1222297 0
10.404242 28.734066 1.1222297 0
10.404242 28.784065 1.0222297 0
10.404242 28.834064 0.97222972 0
10.404242 28.784065 1.0722297 0
10.404242 28.784065 1.1222297 0
10.404242 28.834064 1.1222297 0
10.354241 28.784065 1.2722297 0
10.404242 28.734066 1.1722296 0
10.404242 28.734066 1.2222297 0
10.404242 28.784065 1.1722296 0
10.404242 28.784065 1.2222297 0
10.404242 28.784065 1.2722297 0
10.404242 28.834064 1.2722297 0
10.404242 28.884066 0.97222972 0
10.404242 28.884066 1.0222297 0
10.404242 28.934065 0.97222972 0
10.404242 28.884066 1.0722297 0
10.404242 28.934065 1.1222297 0
10.404242 28.984066 0.97222972 0
10.404242 28.984066 1.0222297 0
10.404242 29.034065 1.0222297 0
10.404242 29.034065 1.1222297 0
10.404242 28.884066 1.1722296 0
10.404242 28.884066 1.2222297 0
10.404242 28.934065 1.2222297 0
10.404242 28.884066 1.2722297 0
10.404242 28.984066 1.1722296 0
10.404242 29.034065 1.2222297 0
10.404242 28.984066 1.2722297 0
10.404242 28.984066 1.3222297 0
10.404242 29.034065 1.3222297 0
9.1042414 27.584064 1.4222298 0
9.1542416 27.584064 1.5222297 0
9.2042418 27.534065 1.3722297 0
9.2542419 27.534065 1.5222297 0
9.2542419 27.584064 1.4222298 0
9.2042418 27.584064 1.4722297 0
9.3042412 27.584064 1.5222297 0
9.4542418 27.584064 1.4222298 0
9.4042416 27.584064 1.4722297 0
9.4542418 27.584064 1.4722297 0
9.5042419 27.584064 1.5222297 0
9.6042414 27.584064 1.3722297 0
9.6042414 27.584064 1.4722297 0
9.7542419 27.584064 1.3722297 0
9.7042418 27.584064 1.5222297 0
9.7542419 27.584064 1.4722297 0
9.8042412 27.584064 1.4222298 0
9.8542414 27.584064 1.4722297 0
9.1542416 27.534065 2.7722297 0
9.1542416 27.584064 2.7722297 0
9.1542416 27.734066 2.8222296 0
9.1542416 27.834064 2.8222296 0
9.1542416 27.984066 2.8722298 0
9.1542416 28.134066 2.8722298 0
9.1542416 28.184065 2.9222298 0
9.1042414 28.434065 2.7722297 0
9.1542416 28.434065 2.9222298 0
9.4542418 28.784065 2.2722297 0
9.3042412 28.984066 2.2722297 0
9.4042416 28.884066 2.2722297 0
9.1042414 28.734066 2.8222296 0
9.9042416 27.584064 1.3722297 0
9.9042416 27.584064 1.4222298 0
9.9542418 27.634066 1.4222298 0
9.9042416 27.584064 1.5222297 0
9.9542418 27.584064 1.4722297 0
10.004242 27.584064 1.4222298 0
10.104241 27.584064 1.4222298 0
10.154242 27.584064 1.3722297 0
10.454242 27.484066 1.3722297 0
10.404242 27.584064 1.3722297 0
10.454242 27.734066 1.4222298 0
10.404242 27.784065 1.4222298 0
10.404242 27.834064 1.4222298 0
10.554241 27.534065 1.3722297 0
10.554241 27.534065 1.6722298 0
10.554241 27.534065 1.7222297 0
10.554241 27.584064 1.6222297 0
10.554241 27.584064 1.6722298 0
10.554241 27.534065 2.1222298 0
10.554241 27.584064 2.0722296 0
10.554241 27.634066 2.1222298 0
10.404242 27.934065 1.4222298 0
10.404242 27.984066 1.3722297 0
10.404242 28.034065 1.4222298 0
10.404242 28.134066 1.4222298 0
10.404242 28.134066 1.4722297 0
10.404242 28.234066 1.3722297 0
10.404242 28.184065 1.4722297 0
10.404242 28.234066 1.4722297 0
10.404242 28.234066 1.5222297 0
10.554241 27.534065 2.5722296 0
10.504242 27.634066 2.6222298 0
10.354241 28.334064 1.4722297 0
10.404242 28.334064 1.4722297 0
10.404242 28.384066 1.4722297 0
10.404242 28.434065 1.4722297 0
10.404242 28.534065 1.4222298 0
10.404242 28.484066 1.5222297 0
10.404242 28.534065 1.4722297 0
10.404242 28.534065 1.5222297 0
10.354241 28.734066 1.5222297 0
10.404242 28.684065 1.4222298 0
10.404242 28.734066 1.5222297 0
10.404242 28.784065 1.3722297 0
10.404242 28.784065 1.4222298 0
10.404242 28.834064 1.4222298 0
10.404242 28.884066 1.3722297 0
10.404242 28.934065 1.3722297 0
10.404242 28.984066 1.3722297 0
10.404242 29.034065 1.3722297 0
10.404242 29.034065 1.4722297 0
10.454242 29.284065 -0.22777031 0
10.454242 29.384066 -0.077770315 0
10.454242 29.384066 0.12222969 0
10.504242 29.084064 -0.22777031 0
10.504242 29.134066 -0.22777031 0
10.504242 29.134066 -0.17777032 0
10.504242 29.084064 -0.077770315 0
10.504242 29.184065 -0.22777031 0
10.504242 29.184065 -0.17777032 0
10.504242 29.234066 -0.22777031 0
10.504242 29.234066 -0.17777032 0
10.504242 29.234066 -0.077770315 0
10.504242 29.084064 -0.027770313 0
10.504242 29.084064 0.022229688 0
10.504242 29.134066 -0.027770313 0
10.504242 29.134066 0.022229688 0
10.504242 29.134066 0.12222969 0
10.504242 29.184065 0.022229688 0
10.504242 29.234066 -0.027770313 0
10.504242 29.234066 0.022229688 0
10.504242 29.284065 -0.22777031 0
10.504242 29.284065 -0.17777032 0
10.504242 29.334064 -0.22777031 0
10.504242 29.384066 -0.22777031 0
10.504242 29.384066 -0.17777032 0
10.504242 29.434065 -0.22777031 0
10.504242 29.284065 -0.027770313 0
10.504242 29.284065 0.022229688 0
10.504242 29.334064 -0.027770313 0
10.504242 29.384066 0.022229688 0
10.504242 29.434065 -0.027770313 0
10.504242 29.434065 0.022229688 0
10.354241 29.184065 0.42222971 0
10.404242 29.134066 0.42222971 0
10.404242 29.084064 0.47222969 0
10.404242 29.134066 0.52222967 0
10.404242 29.184065 0.47222969 0
10.404242 29.184065 0.52222967 0
10.354241 29.284065 0.47222969 0
10.404242 29.284065 0.42222971 0
10.404242 29.334064 0.42222971 0
10.404242 29.284065 0.52222967 0
10.404242 29.334064 0.47222969 0
10.404242 29.334064 0.52222967 0
10.404242 29.434065 0.42222971 0
10.404242 29.384066 0.52222967 0
10.404242 29.434065 0.52222967 0
10.454242 29.584064 -0.077770315 0
10.454242 29.634066 -0.12777032 0
10.454242 29.534065 -0.027770313 0
10.404242 29.784065 -0.22777031 0
10.454242 29.784065 -0.17777032 0
10.454242 29.784065 -0.077770315 0
10.454242 29.734066 -0.027770313 0
10.504242 29.484066 -0.22777031 0
10.504242 29.534065 -0.22777031 0
10.504242 29.534065 -0.17777032 0
10.504242 29.634066 -0.22777031 0
10.504242 29.634066 -0.077770315 0
10.504242 29.484066 0.022229688 0
10.504242 29.534065 -0.027770313 0
10.504242 29.584064 -0.027770313 0
10.504242 29.634066 0.022229688 0
10.504242 29.684065 -0.17777032 0
10.504242 29.734066 -0.22777031 0
10.504242 29.734066 -0.077770315 0
10.504242 29.784065 -0.22777031 0
10.504242 29.784065 -0.17777032 0
10.504242 29.834064 -0.22777031 0
10.504242 29.834064 -0.077770315 0
10.504242 29.684065 -0.027770313 0
10.504242 29.684065 0.022229688 0
10.504242 29.784065 -0.027770313 0
10.504242 29.784065 0.022229688 0
10.504242 29.834064 -0.027770313 0
10.354241 29.584064 0.42222971 0
10.404242 29.484066 0.42222971 0
10.404242 29.484066 0.52222967 0
10.404242 29.584064 0.42222971 0
10.404242 29.634066 0.42222971 0
10.404242 29.584064 0.52222967 0
10.404242 29.634066 0.52222967 0
10.354241 29.784065 0.47222969 0
10.354241 29.834064 0.47222969 0
10.404242 29.684065 0.42222971 0
10.404242 29.734066 0.47222969 0
10.404242 29.734066 0.52222967 0
10.404242 29.784065 0.42222971 0
10.404242 29.834064 0.47222969 0
10.354241 29.234066 0.57222968 0
10.404242 29.084064 0.57222968 0
10.404242 29.134066 0.57222968 0
10.404242 29.084064 0.67222971 0
10.404242 29.084064 0.72222972 0
10.404242 29.134066 0.67222971 0
10.404242 29.184065 0.72222972 0
10.404242 29.234066 0.67222971 0
10.354241 29.134066 0.77222967 0
10.354241 29.134066 0.92222971 0
10.404242 29.134066 0.77222967 0
10.404242 29.134066 0.82222968 0
10.404242 29.084064 0.92222971 0
10.404242 29.134066 0.92222971 0
10.404242 29.184065 0.77222967 0
10.404242 29.184065 0.92222971 0
10.404242 29.234066 0.92222971 0
10.354241 29.334064 0.57222968 0
10.354241 29.384066 0.6222297 0
10.404242 29.284065 0.67222971 0
10.404242 29.284065 0.72222972 0
10.404242 29.334064 0.67222971 0
10.404242 29.384066 0.67222971 0
10.404242 29.434065 0.67222971 0
10.404242 29.434065 0.72222972 0
10.404242 29.284065 0.82222968 0
10.404242 29.334064 0.77222967 0
10.404242 29.284065 0.92222971 0
10.404242 29.384066 0.82222968 0
10.404242 29.434065 0.77222967 0
10.404242 29.384066 0.92222971 0
10.404242 29.434065 0.92222971 0
10.404242 29.084064 0.97222972 0
10.404242 29.084064 1.0222297 0
10.404242 29.134066 1.0722297 0
10.404242 29.184065 1.0222297 0
10.404242 29.234066 1.0222297 0
10.354241 29.134066 1.2722297 0
10.404242 29.084064 1.1722296 0
10.404242 29.084064 1.2222297 0
10.404242 29.134066 1.1722296 0
10.404242 29.084064 1.2722297 0
10.404242 29.134066 1.3222297 0
10.404242 29.184065 1.1722296 0
10.404242 29.184065 1.3222297 0
10.404242 29.234066 1.2722297 0
10.404242 29.234066 1.3222297 0
10.354241 29.334064 1.0222297 0
10.404242 29.284065 1.0222297 0
10.404242 29.334064 0.97222972 0
10.404242 29.284065 1.0722297 0
10.404242 29.334064 1.0722297 0
10.404242 29.434065 0.97222972 0
10.404242 29.434065 1.0222297 0
10.404242 29.434065 1.0722297 0
10.354241 29.434065 1.2222297 0
10.404242 29.284065 1.1722296 0
10.404242 29.284065 1.3222297 0
10.404242 29.334064 1.2722297 0
10.404242 29.334064 1.3222297 0
10.404242 29.384066 1.1722296 0
10.404242 29.434065 1.1722296 0
10.404242 29.384066 1.3222297 0
10.404242 29.434065 1.2722297 0
10.404242 29.434065 1.3222297 0
10.354241 29.584064 0.6222297 0
10.354241 29.634066 0.6222297 0
10.354241 29.584064 0.67222971 0
10.354241 29.634066 0.67222971 0
10.404242 29.484066 0.57222968 0
10.404242 29.484066 0.67222971 0
10.404242 29.534065 0.72222972 0
10.404242 29.584064 0.57222968 0
10.354241 29.484066 0.77222967 0
10.354241 29.634066 0.82222968 0
10.354241 29.584064 0.8722297 0
10.404242 29.484066 0.82222968 0
10.404242 29.534065 0.77222967 0
10.404242 29.484066 0.92222971 0
10.404242 29.534065 0.92222971 0
10.404242 29.584064 0.82222968 0
10.404242 29.634066 0.77222967 0
10.404242 29.584064 0.92222971 0
10.404242 29.634066 0.92222971 0
10.354241 29.734066 0.6222297 0
10.354241 29.684065 0.67222971 0
10.354241 29.734066 0.72222972 0
10.354241 29.834064 0.67222971 0
10.404242 29.684065 0.57222968 0
10.404242 29.734066 0.57222968 0
10.404242 29.734066 0.6222297 0
10.404242 29.684065 0.67222971 0
10.404242 29.684065 0.72222972 0
10.404242 29.834064 0.57222968 0
10.404242 29.834064 0.6222297 0
10.404242 29.784065 0.67222971 0
10.404242 29.834064 0.72222972 0
10.354241 29.734066 0.8722297 0
10.354241 29.784065 0.82222968 0
10.404242 29.684065 0.82222968 0
10.404242 29.734066 0.77222967 0
10.404242 29.684065 0.92222971 0
10.404242 29.734066 0.92222971 0
10.404242 29.784065 0.77222967 0
10.404242 29.784065 0.92222971 0
10.404242 29.834064 0.92222971 0
10.304241 29.584064 0.97222972 0
10.354241 29.584064 0.97222972 0
10.354241 29.634066 1.0722297 0
10.404242 29.534065 0.97222972 0
10.404242 29.534065 1.0222297 0
10.404242 29.484066 1.0722297 0
10.404242 29.634066 1.0222297 0
10.404242 29.584064 1.0722297 0
10.354241 29.484066 1.3222297 0
10.354241 29.584064 1.1722296 0
10.354241 29.634066 1.2222297 0
10.404242 29.484066 1.1722296 0
10.404242 29.534065 1.1722296 0
10.404242 29.534065 1.2722297 0
10.404242 29.534065 1.3222297 0
10.404242 29.584064 1.1722296 0
10.404242 29.634066 1.2222297 0
10.404242 29.584064 1.3222297 0
10.404242 29.634066 1.2722297 0
10.354241 29.784065 0.97222972 0
10.354241 29.834064 0.97222972 0
10.404242 29.684065 1.0222297 0
10.404242 29.684065 1.0722297 0
10.404242 29.684065 1.1222297 0
10.404242 29.784065 1.0222297 0
10.404242 29.834064 1.0222297 0
10.404242 29.784065 1.0722297 0
10.404242 29.784065 1.1222297 0
10.354241 29.784065 1.3222297 0
10.404242 29.684065 1.1722296 0
10.404242 29.734066 1.1722296 0
10.404242 29.734066 1.2222297 0
10.404242 29.834064 1.1722296 0
10.404242 29.834064 1.2222297 0
10.404242 29.784065 1.2722297 0
10.404242 29.834064 1.2722297 0
10.454242 29.934065 -0.17777032 0
10.454242 29.934065 -0.077770315 0
10.454242 30.034065 -0.17777032 0
10.454242 29.884066 -0.027770313 0
10.454242 29.934065 0.022229688 0
10.454242 29.984066 -0.027770313 0
10.454242 30.034065 0.12222969 0
10.454242 30.134066 -0.22777031 0
10.454242 30.134066 -0.077770315 0
10.454242 30.184065 -0.17777032 0
10.454242 30.084064 -0.027770313 0
10.404242 30.084064 0.12222969 0
10.454242 30.184065 0.022229688 0
10.454242 30.234066 0.022229688 0
10.504242 29.934065 -0.22777031 0
10.504242 29.934065 -0.077770315 0
10.504242 30.034065 -0.22777031 0
10.504242 30.034065 -0.17777032 0
10.504242 29.984066 -0.077770315 0
10.504242 30.034065 -0.077770315 0
10.504242 29.884066 0.022229688 0
10.504242 29.934065 -0.027770313 0
10.504242 29.934065 0.022229688 0
10.504242 30.034065 -0.027770313 0
10.504242 30.134066 -0.077770315 0
10.504242 30.184065 -0.17777032 0
10.504242 30.234066 -0.22777031 0
10.504242 30.234066 -0.077770315 0
10.504242 30.084064 0.022229688 0
10.504242 30.134066 -0.027770313 0
10.504242 30.134066 0.022229688 0
10.504242 30.184065 -0.027770313 0
10.504242 30.234066 -0.027770313 0
10.504242 30.234066 0.022229688 0
10.454242 29.984066 0.22222969 0
10.454242 30.034065 0.32222968 0
10.354241 29.934065 0.47222969 0
10.354241 30.034065 0.47222969 0
10.404242 29.884066 0.42222971 0
10.404242 29.884066 0.47222969 0
10.404242 29.934065 0.47222969 0
10.404242 29.984066 0.42222971 0
10.454242 29.984066 0.47222969 0
10.454242 30.034065 0.47222969 0
10.454242 30.084064 0.22222969 0
10.404242 30.134066 0.32222968 0
10.354241 30.134066 0.47222969 0
10.354241 30.184065 0.42222971 0
10.354241 30.234066 0.47222969 0
10.404242 30.084064 0.42222971 0
10.404242 30.134066 0.47222969 0
10.454242 30.084064 0.47222969 0
10.404242 30.184065 0.47222969 0
10.404242 30.234066 0.47222969 0
10.454242 30.334064 -0.17777032 0
10.454242 30.334064 -0.077770315 0
10.454242 30.384066 -0.22777031 0
10.454242 30.434065 -0.22777031 0
10.454242 30.334064 0.022229688 0
10.454242 30.384066 0.022229688 0
10.454242 30.484066 -0.17777032 0
10.454242 30.534065 -0.22777031 0
10.454242 30.534065 -0.077770315 0
10.454242 30.634066 -0.22777031 0
10.454242 30.634066 -0.17777032 0
10.454242 30.634066 -0.077770315 0
10.454242 30.484066 0.022229688 0
10.454242 30.534065 -0.027770313 0
10.504242 30.284065 -0.17777032 0
10.504242 30.284065 -0.077770315 0
10.504242 30.434065 -0.22777031 0
10.504242 30.384066 -0.077770315 0
10.504242 30.434065 -0.077770315 0
10.504242 30.334064 -0.027770313 0
10.504242 30.434065 -0.027770313 0
10.504242 30.534065 -0.22777031 0
10.504242 30.484066 -0.077770315 0
10.504242 30.534065 -0.077770315 0
10.504242 30.584064 -0.077770315 0
10.504242 30.534065 -0.027770313 0
10.504242 30.584064 0.022229688 0
10.504242 30.634066 -0.027770313 0
10.354241 30.334064 0.42222971 0
10.354241 30.334064 0.47222969 0
10.354241 30.384066 0.42222971 0
10.354241 30.434065 0.42222971 0
10.354241 30.434065 0.47222969 0
10.404242 30.284065 0.42222971 0
10.404242 30.284065 0.47222969 0
10.404242 30.334064 0.47222969 0
10.404242 30.434065 0.42222971 0
10.454242 30.484066 0.17222969 0
10.454242 30.584064 0.17222969 0
10.354241 30.484066 0.42222971 0
10.354241 30.534065 0.42222971 0
10.354241 30.484066 0.47222969 0
10.354241 30.534065 0.47222969 0
10.354241 30.584064 0.42222971 0
10.354241 30.634066 0.42222971 0
10.354241 30.584064 0.52222967 0
10.354241 30.634066 0.52222967 0
10.454242 30.484066 0.3722297 0
10.404242 30.584064 0.42222971 0
10.454242 30.584064 0.42222971 0
10.404242 30.584064 0.47222969 0
10.354241 29.934065 0.6222297 0
10.354241 30.034065 0.57222968 0
10.354241 30.034065 0.72222972 0
10.404242 29.934065 0.57222968 0
10.404242 29.934065 0.6222297 0
10.404242 29.884066 0.67222971 0
10.404242 29.934065 0.72222972 0
10.454242 30.034065 0.57222968 0
10.404242 29.984066 0.67222971 0
10.404242 29.984066 0.72222972 0
10.454242 30.034065 0.72222972 0
10.354241 29.884066 0.82222968 0
10.354241 29.934065 0.77222967 0
10.354241 29.884066 0.8722297 0
10.404242 29.884066 0.82222968 0
10.404242 29.884066 0.92222971 0
10.404242 29.934065 0.92222971 0
10.404242 29.984066 0.82222968 0
10.454242 30.034065 0.77222967 0
10.404242 29.984066 0.92222971 0
10.354241 30.084064 0.67222971 0
10.354241 30.234066 0.57222968 0
10.404242 30.134066 0.57222968 0
10.404242 30.084064 0.67222971 0
10.404242 30.134066 0.72222972 0
10.454242 30.084064 0.72222972 0
10.404242 30.234066 0.57222968 0
10.404242 30.184065 0.67222971 0
10.404242 30.184065 0.72222972 0
10.404242 30.234066 0.72222972 0
10.354241 30.084064 0.77222967 0
10.354241 30.084064 0.8722297 0
10.354241 30.084064 0.92222971 0
10.354241 30.234066 0.77222967 0
10.354241 30.184065 0.8722297 0
10.404242 30.134066 0.77222967 0
10.454242 30.084064 0.8722297 0
10.454242 30.134066 0.8722297 0
10.404242 30.184065 0.77222967 0
10.404242 30.184065 0.8722297 0
10.404242 30.184065 0.92222971 0
10.404242 30.234066 0.8722297 0
10.354241 29.934065 1.0222297 0
10.354241 29.934065 1.1222297 0
10.304241 30.034065 0.97222972 0
