# .PCD v0.7 - Point Cloud Data file format
VERSION 0.7
FIELDS x y z intensity
SIZE 4 4 4 4
TYPE F F F F
COUNT 1 1 1 1
WIDTH 1426
HEIGHT 1
VIEWPOINT 0 0 0 1 0 0 0
POINTS 1426
DATA ascii
-53.195759 82.784065 -4.4777703 0
-53.14576 82.684067 -4.4277706 0
-53.245758 82.884064 -4.4777703 0
-53.295761 83.034065 -4.4777703 0
-50.14576 80.634064 -4.1777701 0
-50.34576 80.934067 -4.1777701 0
-50.39576 81.034065 -4.2277703 0
-50.245758 80.734062 -4.1777701 0
-50.295761 80.834068 -4.1777701 0
-50.745758 81.734062 -4.2777705 0
-50.795761 81.834068 -4.2777705 0
-50.695759 81.584068 -4.2777705 0
-50.59576 81.384064 -4.2277703 0
-50.59576 81.484062 -4.2277703 0
-50.495758 81.134064 -4.2277703 0
-50.495758 81.284065 -4.2277703 0
-49.34576 79.384064 -4.0777702 0
-49.745758 79.984062 -4.1277704 0
-49.84576 80.084068 -4.1277704 0
-49.64576 79.784065 -4.0777702 0
-49.545761 79.684067 -4.0777702 0
-49.495758 79.584068 -4.0777702 0
-49.39576 79.484062 -4.0777702 0
-49.695759 79.884064 -4.1277704 0
-49.045761 78.984062 -4.0277705 0
-48.945759 78.884064 -4.0277705 0
-49.195759 79.184067 -4.0277705 0
-49.245758 79.284065 -4.0277705 0
-49.09576 79.084068 -4.0277705 0
-48.89576 78.784065 -3.9777703 0
-48.795761 78.734062 -3.9777703 0
-50.045761 80.384064 -4.1277704 0
-49.995758 80.284065 -4.1277704 0
-50.09576 80.534065 -4.1777701 0
-48.545761 81.334068 -4.1277704 0
-48.59576 81.434067 -4.1277704 0
-48.745758 81.784065 -4.1777701 0
-48.64576 81.584068 -4.1277704 0
-48.695759 81.684067 -4.1777701 0
-50.945759 82.284065 -4.3277702 0
-50.995758 82.434067 -4.3277702 0
-51.045761 82.534065 -4.3277702 0
-51.09576 82.634064 -4.3277702 0
-51.495758 83.184067 -4.3777704 0
-51.14576 82.784065 -4.3277702 0
-51.195759 82.884064 -4.3777704 0
-51.195759 82.984062 -4.3777704 0
-51.245758 83.134064 -4.3777704 0
-50.84576 81.934067 -4.2777705 0
-50.84576 82.084068 -4.2777705 0
-50.89576 82.184067 -4.2777705 0
-49.695759 83.234062 -4.3277702 0
-49.34576 83.334068 -4.4777703 0
-49.34576 83.434067 -4.4777703 0
-48.945759 82.234062 -4.2277703 0
-48.995758 82.334068 -4.2277703 0
-49.045761 82.484062 -4.2277703 0
-49.09576 82.584068 -4.2277703 0
-48.84576 82.034065 -4.1777701 0
-48.795761 81.884064 -4.1777701 0
-48.89576 82.134064 -4.1777701 0
-49.195759 82.934067 -4.2777705 0
-49.245758 83.234062 -4.4777703 0
-49.245758 83.084068 -4.2777705 0
-49.295761 83.184067 -4.2777705 0
-49.295761 83.284065 -4.4777703 0
-48.795761 83.234062 -4.4277706 0
-49.14576 82.734062 -4.2277703 0
-49.14576 82.834068 -4.2277703 0
-49.34576 83.534065 -4.4777703 0
-49.34576 83.634064 -4.5277705 0
-49.39576 83.684067 -4.5277705 0
-49.39576 83.734062 -4.5277705 0
-49.34576 83.734062 -4.5277705 0
-49.39576 83.834068 -4.5277705 0
-49.34576 83.784065 -4.5277705 0
-49.39576 83.934067 -4.5277705 0
-49.34576 83.934067 -4.5277705 0
-49.39576 84.034065 -4.5277705 0
-49.39576 84.134064 -4.5277705 0
-49.39576 84.234062 -4.5277705 0
-49.39576 84.334068 -4.5277705 0
-49.39576 84.434067 -4.5777702 0
-49.39576 84.534065 -4.5777702 0
-49.39576 84.634064 -4.5777702 0
-49.39576 84.734062 -4.5777702 0
-49.39576 84.784065 -4.5777702 0
-49.39576 84.884064 -4.5777702 0
-49.39576 84.934067 -4.5777702 0
-49.34576 85.034065 -4.5777702 0
-49.295761 84.034065 -4.5277705 0
-49.245758 84.134064 -4.5277705 0
-49.245758 84.234062 -4.5277705 0
-49.195759 84.284065 -4.5277705 0
-49.195759 84.384064 -4.5277705 0
-49.14576 84.434067 -4.5277705 0
-49.14576 84.484062 -4.5277705 0
-49.09576 84.584068 -4.5277705 0
-49.09576 84.734062 -4.5777702 0
-49.045761 84.784065 -4.5777702 0
-48.995758 84.884064 -4.5777702 0
-48.995758 84.984062 -4.5777702 0
-48.545761 84.334068 -4.5277705 0
-48.59576 84.434067 -4.5277705 0
-48.59576 84.534065 -4.5277705 0
-48.59576 84.584068 -4.5277705 0
-48.64576 84.684067 -4.5277705 0
-48.64576 84.734062 -4.5277705 0
-48.64576 84.834068 -4.5277705 0
-48.695759 84.934067 -4.5277705 0
-48.695759 85.034065 -4.5777702 0
-46.84576 75.034065 -3.7277703 0
-46.795761 75.084068 -3.8777704 0
-46.795761 75.184067 -3.8777704 0
-46.795761 75.284065 -3.8777704 0
-46.795761 75.384064 -3.8777704 0
-46.84576 75.084068 -3.7277703 0
-46.84576 75.234062 -3.7277703 0
-46.84576 75.334068 -3.7277703 0
-45.945759 75.084068 -3.8777704 0
-45.945759 75.134064 -3.8777704 0
-45.945759 75.184067 -3.8777704 0
-45.84576 75.384064 -3.8777704 0
-45.795761 75.284065 -3.8777704 0
-45.745758 75.184067 -3.8277705 0
-45.745758 75.234062 -3.8277705 0
-45.64576 75.034065 -3.8277705 0
-45.34576 75.034065 -3.8277705 0
-45.695759 75.084068 -3.8277705 0
-45.495758 75.134064 -3.8277705 0
-45.445759 75.084068 -3.8277705 0
-45.39576 75.084068 -3.8277705 0
-45.64576 75.284065 -2.2777703 0
-45.34576 75.234062 -2.2777703 0
-45.495758 75.284065 -2.2777703 0
-48.295761 76.584068 -3.8277705 0
-48.195759 76.484062 -3.8277705 0
-48.495758 76.684067 -3.8777704 0
-48.39576 76.684067 -3.8277705 0
-48.09576 76.434067 -3.8277705 0
-47.995758 76.384064 -3.8277705 0
-47.89576 76.334068 -3.8277705 0
-47.745758 76.284065 -3.7777703 0
-47.64576 76.234062 -3.7777703 0
-47.545761 76.134064 -3.7777703 0
-47.34576 76.034065 -3.7777703 0
-47.445759 76.134064 -3.7777703 0
-47.195759 75.984062 -3.7777703 0
-47.09576 75.934067 -3.7277703 0
-46.945759 76.634064 -3.8277705 0
-46.945759 76.834068 -3.8277705 0
-46.945759 76.884064 -3.8277705 0
-47.945759 77.834068 -3.8777704 0
-47.84576 77.784065 -3.8777704 0
-47.745758 77.684067 -3.8777704 0
-48.295761 78.184067 -3.9277704 0
-48.195759 78.084068 -3.9277704 0
-48.445759 78.334068 -3.9277704 0
-48.39576 78.284065 -3.9277704 0
-48.09576 78.034065 -3.9277704 0
-47.995758 77.934067 -3.9277704 0
-47.445759 77.434067 -3.8277705 0
-47.34576 77.384064 -3.8277705 0
-47.64576 77.584068 -3.8777704 0
-47.545761 77.484062 -3.8777704 0
-47.195759 77.184067 -3.8277705 0
-47.245758 77.284065 -3.8277705 0
-47.045761 77.134064 -3.8277705 0
-46.945759 77.084068 -3.8277705 0
-46.945759 77.134064 -3.8277705 0
-46.945759 77.284065 -3.8277705 0
-46.945759 77.334068 -3.8277705 0
-46.945759 77.684067 -3.8777704 0
-46.945759 77.734062 -3.8777704 0
-46.945759 77.784065 -3.9277704 0
-46.945759 77.784065 -3.8777704 0
-46.945759 77.534065 -3.8277705 0
-46.945759 77.584068 -3.8277705 0
-46.945759 77.884064 -3.9277704 0
-46.945759 77.934067 -3.8777704 0
-46.945759 77.984062 -3.9277704 0
-46.945759 78.034065 -3.9277704 0
-46.945759 78.034065 -3.8777704 0
-46.995758 78.084068 -3.9277704 0
-46.945759 78.134064 -3.8777704 0
-46.995758 78.184067 -3.9277704 0
-46.945759 78.234062 -3.8777704 0
-46.995758 78.284065 -3.9277704 0
-46.945759 78.334068 -3.8777704 0
-46.995758 78.384064 -3.9277704 0
-46.995758 78.484062 -3.9777703 0
-46.945759 78.484062 -3.8777704 0
-46.945759 78.534065 -3.9277704 0
-46.995758 78.584068 -3.9777703 0
-46.795761 75.534065 -3.8777704 0
-46.84576 75.484062 -3.7277703 0
-46.84576 75.534065 -3.7277703 0
-46.84576 75.684067 -3.7777703 0
-46.245758 75.834068 -3.9277704 0
-46.195759 75.784065 -3.9277704 0
-46.39576 75.984062 -3.9277704 0
-46.39576 76.034065 -3.9277704 0
-46.445759 76.134064 -3.9277704 0
-46.445759 76.184067 -3.9277704 0
-46.295761 75.884064 -3.9277704 0
-46.295761 75.934067 -3.9277704 0
-46.34576 76.234062 -3.7277703 0
-46.795761 76.484062 -3.8777704 0
-46.795761 76.534065 -3.8777704 0
-46.745758 76.634064 -3.9777703 0
-46.795761 76.634064 -3.8777704 0
-46.695759 76.534065 -3.9777703 0
-46.695759 76.584068 -3.9777703 0
-46.89576 76.584068 -3.7777703 0
-46.84576 76.584068 -3.7777703 0
-46.84576 76.634064 -3.7777703 0
-46.695759 76.534065 -3.7777703 0
-46.64576 76.584068 -3.7777703 0
-46.795761 76.684067 -3.9777703 0
-46.795761 76.734062 -3.9277704 0
-46.795761 76.784065 -3.9777703 0
-46.795761 76.784065 -3.9277704 0
-46.84576 76.884064 -3.8777704 0
-46.795761 76.884064 -3.9777703 0
-46.745758 76.934067 -3.9777703 0
-46.795761 76.884064 -3.9277704 0
-46.795761 76.934067 -3.9277704 0
-46.795761 76.984062 -3.9777703 0
-46.795761 77.034065 -3.9777703 0
-46.795761 76.984062 -3.8777704 0
-46.795761 77.034065 -3.9277704 0
-46.545761 76.684067 -3.8777704 0
-46.545761 76.834068 -3.9777703 0
-46.64576 76.884064 -3.9777703 0
-46.89576 76.784065 -3.8277705 0
-46.84576 76.784065 -3.7777703 0
-46.84576 76.834068 -3.8277705 0
-46.84576 76.834068 -3.7777703 0
-46.795761 76.834068 -3.8277705 0
-46.89576 76.984062 -3.8277705 0
-46.84576 76.984062 -3.8277705 0
-46.84576 76.984062 -3.7777703 0
-46.84576 77.034065 -3.8277705 0
-46.795761 76.884064 -3.8277705 0
-46.59576 76.684067 -3.7777703 0
-46.59576 76.734062 -3.7777703 0
-46.545761 76.684067 -3.7777703 0
-46.495758 76.584068 -3.9277704 0
-46.34576 76.584068 -3.9277704 0
-46.295761 76.284065 -3.8777704 0
-46.295761 76.384064 -3.9277704 0
-46.295761 76.384064 -3.8777704 0
-46.295761 76.434067 -3.8777704 0
-46.295761 76.484062 -3.9277704 0
-46.295761 76.534065 -3.8777704 0
-46.295761 76.584068 -3.9277704 0
-46.295761 76.634064 -3.8777704 0
-46.245758 76.634064 -3.9277704 0
-46.14576 76.534065 -3.9277704 0
-46.39576 76.284065 -3.7777703 0
-46.34576 76.284065 -3.7777703 0
-46.34576 76.334068 -3.7777703 0
-46.34576 76.334068 -3.7277703 0
-46.445759 76.534065 -3.7777703 0
-46.495758 76.634064 -3.7777703 0
-46.34576 76.484062 -3.7777703 0
-46.34576 76.534065 -3.7777703 0
-46.34576 76.484062 -3.7277703 0
-46.295761 76.534065 -3.7277703 0
-46.445759 76.684067 -3.8777704 0
-46.445759 76.784065 -3.9777703 0
-46.39576 76.734062 -3.9777703 0
-46.39576 76.684067 -3.8777704 0
-46.295761 76.684067 -3.9277704 0
-46.295761 76.684067 -3.8777704 0
-46.495758 76.684067 -3.7777703 0
-46.495758 76.684067 -3.7277703 0
-46.34576 76.684067 -3.7777703 0
-46.34576 76.684067 -3.7277703 0
-46.495758 76.984062 -3.7277703 0
-46.495758 77.034065 -3.4777703 0
-46.295761 76.734062 -3.7777703 0
-45.945759 75.734062 -3.8777704 0
-45.945759 75.834068 -3.8777704 0
-45.84576 75.484062 -3.8777704 0
-45.89576 75.584068 -3.8777704 0
-45.89576 75.684067 -3.8777704 0
-45.945759 75.884064 -3.8777704 0
-45.995758 75.984062 -3.9277704 0
-45.995758 76.084068 -3.9277704 0
-45.445759 76.234062 -3.8777704 0
-45.34576 76.084068 -3.8777704 0
-45.39576 76.184067 -3.8777704 0
-45.34576 76.184067 -3.8777704 0
-46.045761 76.534065 -3.9277704 0
-45.995758 76.484062 -3.9277704 0
-45.89576 76.434067 -3.9277704 0
-45.84576 76.384064 -3.9277704 0
-45.745758 76.334068 -3.9277704 0
-45.64576 76.284065 -3.8777704 0
-45.545761 76.284065 -3.8777704 0
-45.34576 76.634064 -3.9277704 0
-45.64576 77.034065 -3.9277704 0
-45.545761 76.934067 -3.9277704 0
-45.59576 76.984062 -3.9277704 0
-45.445759 76.734062 -3.9277704 0
-45.495758 76.834068 -3.9277704 0
-45.39576 76.684067 -3.9277704 0
-45.495758 76.884064 -3.9277704 0
-46.795761 77.084068 -3.9777703 0
-46.795761 77.134064 -3.9777703 0
-46.795761 77.084068 -3.8777704 0
-46.795761 77.134064 -3.9277704 0
-46.795761 77.184067 -4.0277705 0
-46.795761 77.234062 -4.0277705 0
-46.795761 77.234062 -3.9777703 0
-46.795761 77.184067 -3.8777704 0
-46.795761 77.234062 -3.9277704 0
-46.84576 77.284065 -3.8777704 0
-46.84576 77.384064 -3.8777704 0
-46.795761 77.284065 -4.0277705 0
-46.795761 77.334068 -3.9777703 0
-46.795761 77.334068 -3.9277704 0
-46.795761 77.384064 -4.0277705 0
-46.795761 77.434067 -3.9277704 0
-46.89576 77.184067 -3.8277705 0
-46.84576 77.184067 -3.8277705 0
-46.84576 77.234062 -3.8277705 0
-46.89576 77.384064 -3.8277705 0
-46.84576 77.384064 -3.8277705 0
-46.84576 77.434067 -3.8277705 0
-46.84576 77.484062 -4.0277705 0
-46.84576 77.484062 -3.9777703 0
-46.89576 77.484062 -3.8777704 0
-46.84576 77.584068 -3.9777703 0
-46.89576 77.584068 -3.8777704 0
-46.795761 77.534065 -4.0277705 0
-46.795761 77.534065 -3.9277704 0
-46.795761 77.584068 -4.0277705 0
-46.795761 77.634064 -3.9277704 0
-46.89576 77.784065 -3.8777704 0
-46.84576 77.784065 -3.8777704 0
-46.84576 77.834068 -3.9277704 0
-46.795761 77.684067 -4.0277705 0
-46.795761 77.684067 -3.9277704 0
-46.795761 77.784065 -4.0277705 0
-46.795761 77.784065 -3.9277704 0
-46.84576 77.534065 -3.8277705 0
-46.89576 77.584068 -3.8277705 0
-46.84576 77.584068 -3.8277705 0
-46.84576 77.734062 -3.8277705 0
-46.34576 77.134064 -3.7277703 0
-46.34576 77.184067 -3.7277703 0
-46.445759 77.084068 -3.5277703 0
-46.34576 77.184067 -3.5777705 0
-46.34576 77.184067 -3.4777703 0
-46.295761 77.134064 -3.7277703 0
-46.295761 77.184067 -3.7277703 0
-46.195759 77.184067 -3.7277703 0
-46.195759 77.184067 -3.6777704 0
-46.14576 77.184067 -3.7277703 0
-46.245758 77.184067 -3.5777705 0
-46.295761 77.184067 -3.5277703 0
-46.195759 77.234062 -3.5777705 0
-46.14576 77.234062 -3.5777705 0
-46.195759 77.234062 -3.5277703 0
-46.195759 77.234062 -3.4777703 0
-46.195759 77.834068 -4.0277705 0
-46.14576 77.784065 -4.0277705 0
-46.84576 77.884064 -4.0277705 0
-46.84576 77.884064 -3.8777704 0
-46.89576 77.984062 -3.8777704 0
-46.84576 77.984062 -3.8777704 0
-46.84576 78.034065 -3.9277704 0
-46.795761 77.884064 -4.0277705 0
-46.795761 77.934067 -3.9277704 0
-46.795761 77.984062 -4.0277705 0
-46.84576 78.084068 -3.9277704 0
-46.84576 78.084068 -3.8777704 0
-46.84576 78.134064 -3.8777704 0
-46.84576 78.184067 -4.0277705 0
-46.89576 78.184067 -3.8777704 0
-46.795761 78.084068 -4.0277705 0
-46.795761 78.184067 -4.0277705 0
-46.795761 78.184067 -3.9277704 0
-46.84576 78.284065 -4.0777702 0
-46.795761 78.384064 -4.0777702 0
-46.89576 78.334068 -3.8777704 0
-46.84576 78.284065 -3.9277704 0
-46.84576 78.284065 -3.8777704 0
-46.84576 78.434067 -4.0277705 0
-46.89576 78.384064 -3.8777704 0
-46.84576 78.434067 -3.8777704 0
-46.795761 78.334068 -4.0277705 0
-46.795761 78.384064 -3.9277704 0
-46.84576 78.484062 -4.0777702 0
-46.795761 78.584068 -4.0777702 0
-46.84576 78.484062 -4.0277705 0
-46.84576 78.484062 -3.9777703 0
-46.84576 78.534065 -3.9777703 0
-46.89576 78.534065 -3.8777704 0
-46.84576 78.534065 -3.8777704 0
-46.84576 78.584068 -3.9777703 0
-46.84576 78.584068 -3.8777704 0
-46.795761 78.584068 -4.0277705 0
-46.545761 78.284065 -4.0777702 0
-46.59576 78.434067 -4.0777702 0
-46.64576 78.534065 -4.0777702 0
-46.695759 78.584068 -4.0777702 0
-46.34576 77.984062 -4.0277705 0
-46.445759 78.184067 -4.0777702 0
-46.39576 78.084068 -4.0277705 0
-46.295761 77.934067 -4.0277705 0
-46.195759 77.884064 -4.0277705 0
-45.89576 77.084068 -3.9777703 0
-45.89576 77.184067 -3.9777703 0
-45.84576 77.184067 -3.9777703 0
-45.745758 77.234062 -3.9777703 0
-45.745758 77.334068 -3.9777703 0
-45.795761 77.434067 -3.9777703 0
-45.745758 77.384064 -3.9777703 0
-46.09576 77.184067 -3.7277703 0
-46.045761 77.234062 -3.6777704 0
-45.995758 77.184067 -3.7277703 0
-45.995758 77.234062 -3.7277703 0
-45.995758 77.234062 -3.6777704 0
-45.945759 77.234062 -3.6777704 0
-46.09576 77.234062 -3.5277703 0
-46.09576 77.234062 -3.4777703 0
-46.045761 77.234062 -3.5277703 0
-45.945759 77.234062 -3.5777705 0
-45.995758 77.234062 -3.4777703 0
-45.945759 77.234062 -3.5277703 0
-45.89576 77.234062 -3.7277703 0
-45.89576 77.234062 -3.6777704 0
-45.84576 77.184067 -3.7277703 0
-45.84576 77.234062 -3.6777704 0
-45.745758 77.234062 -3.7777703 0
-45.795761 77.234062 -3.7277703 0
-45.795761 77.234062 -3.6777704 0
-45.745758 77.234062 -3.7277703 0
-45.745758 77.234062 -3.6777704 0
-45.89576 77.234062 -3.5277703 0
-45.89576 77.234062 -3.4777703 0
-45.795761 77.234062 -3.4777703 0
-45.84576 77.284065 -3.5777705 0
-45.84576 77.284065 -3.5277703 0
-45.84576 77.284065 -3.4777703 0
-45.745758 77.284065 -3.5777705 0
-45.795761 77.284065 -3.4777703 0
-45.745758 77.284065 -3.5277703 0
-45.745758 77.284065 -3.4777703 0
-45.945759 77.584068 -3.9777703 0
-46.09576 77.734062 -4.0277705 0
-46.045761 77.684067 -4.0277705 0
-45.89576 77.534065 -3.9777703 0
-45.84576 77.484062 -3.9777703 0
-45.84576 77.534065 -3.9777703 0
-45.84576 77.634064 -3.9777703 0
-45.795761 77.484062 -3.9777703 0
-45.89576 77.684067 -4.0277705 0
-45.89576 77.734062 -4.0277705 0
-45.89576 77.834068 -4.0277705 0
-45.64576 77.134064 -3.9777703 0
-45.59576 77.234062 -3.9777703 0
-45.545761 77.184067 -3.9777703 0
-45.695759 77.334068 -3.9777703 0
-45.64576 77.284065 -3.9777703 0
-45.445759 77.134064 -3.9277704 0
-45.34576 77.084068 -3.9277704 0
-45.64576 77.234062 -3.7777703 0
-45.695759 77.234062 -3.7277703 0
-45.695759 77.234062 -3.6777704 0
-45.64576 77.234062 -3.7277703 0
-45.64576 77.234062 -3.6777704 0
-45.59576 77.234062 -3.6777704 0
-45.545761 77.184067 -3.7277703 0
-45.545761 77.234062 -3.7277703 0
-45.545761 77.234062 -3.6777704 0
-45.64576 77.284065 -3.6777704 0
-45.64576 77.284065 -3.5777705 0
-45.695759 77.284065 -3.5277703 0
-45.695759 77.284065 -3.4777703 0
-45.64576 77.284065 -3.4777703 0
-45.59576 77.284065 -3.5777705 0
-45.59576 77.284065 -3.5277703 0
-45.59576 77.284065 -3.4777703 0
-45.495758 77.234062 -3.6777704 0
-45.445759 77.184067 -3.7277703 0
-45.445759 77.234062 -3.7277703 0
-45.39576 77.234062 -3.6777704 0
-45.34576 77.234062 -3.6777704 0
-45.445759 77.234062 -3.6277704 0
-45.39576 77.234062 -3.5277703 0
-45.39576 77.234062 -3.4777703 0
-45.445759 77.284065 -3.5777705 0
-45.495758 77.284065 -3.5277703 0
-45.495758 77.284065 -3.4777703 0
-45.445759 77.284065 -3.4777703 0
-45.39576 77.284065 -3.5277703 0
-45.34576 77.284065 -3.4777703 0
-45.945759 78.034065 -4.0277705 0
-45.945759 78.134064 -4.0277705 0
-45.945759 78.234062 -4.0277705 0
-45.89576 77.934067 -4.0277705 0
-45.945759 78.334068 -4.0277705 0
-45.945759 78.434067 -4.0277705 0
-45.945759 78.534065 -4.0777702 0
-45.945759 78.634064 -4.0777702 0
-46.09576 78.634064 -4.0277705 0
-45.945759 78.534065 -4.0277705 0
-45.995758 78.584068 -4.0277705 0
-45.795761 78.434067 -4.0277705 0
-45.89576 78.484062 -4.0277705 0
-45.34576 78.234062 -3.9777703 0
-45.695759 78.384064 -4.0277705 0
-45.545761 78.334068 -3.9777703 0
-45.59576 78.384064 -4.0277705 0
-45.445759 78.284065 -3.9777703 0
-45.34576 78.634064 -4.0277705 0
-46.195759 76.034065 -2.6777704 0
-46.295761 76.134064 -2.7277703 0
-46.295761 76.234062 -2.7777703 0
-46.195759 76.184067 -2.7277703 0
-46.245758 75.534065 -2.3777704 0
-46.295761 75.784065 -2.5277703 0
-46.195759 75.834068 -2.5277703 0
-46.34576 75.984062 -2.6277704 0
-46.195759 76.284065 -2.7777703 0
-46.495758 76.884064 -3.1777704 0
-46.34576 76.784065 -2.9777703 0
-46.34576 76.834068 -3.0277703 0
-46.34576 76.934067 -3.0277703 0
-46.245758 76.834068 -3.0277703 0
-46.14576 76.834068 -3.0277703 0
-46.14576 76.834068 -2.9777703 0
-46.195759 76.934067 -3.0277703 0
-46.14576 76.884064 -3.0277703 0
-46.09576 76.084068 -2.6777704 0
-46.045761 76.234062 -2.7777703 0
-45.995758 76.134064 -2.6777704 0
-45.89576 76.184067 -2.6777704 0
-45.745758 76.234062 -2.6777704 0
-45.59576 76.234062 -2.6777704 0
-45.545761 76.234062 -2.6777704 0
-45.445759 76.234062 -2.6777704 0
-45.34576 76.134064 -2.6777704 0
-45.39576 76.234062 -2.6777704 0
-46.045761 75.634064 -2.3777704 0
-45.995758 75.484062 -2.3777704 0
-45.795761 75.734062 -2.4777703 0
-45.84576 75.734062 -2.4277704 0
-46.045761 75.884064 -2.5277703 0
-45.89576 75.934067 -2.5277703 0
-45.745758 75.934067 -2.5277703 0
-45.695759 75.834068 -2.4777703 0
-45.59576 75.834068 -2.4777703 0
-45.64576 75.784065 -2.4277704 0
-45.545761 75.734062 -2.4277704 0
-45.39576 75.734062 -2.4277704 0
-45.64576 75.934067 -2.5277703 0
-45.59576 76.034065 -2.5777702 0
-45.59576 75.884064 -2.3777704 0
-45.59576 76.084068 -2.5277703 0
-45.495758 75.934067 -2.5277703 0
-45.445759 75.884064 -2.5277703 0
-45.39576 75.884064 -2.5277703 0
-45.39576 75.934067 -2.5277703 0
-45.495758 76.084068 -2.6277704 0
-46.045761 76.334068 -2.7777703 0
-46.09576 76.384064 -2.7777703 0
-45.945759 76.334068 -2.7777703 0
-45.945759 76.384064 -2.7777703 0
-45.945759 76.634064 -2.8777704 0
-45.84576 76.384064 -2.7777703 0
-45.84576 76.434067 -2.7777703 0
-45.745758 76.434067 -2.8277705 0
-45.745758 76.434067 -2.7777703 0
-45.745758 76.484062 -2.7777703 0
-45.795761 76.984062 -3.0777705 0
-45.745758 76.984062 -3.0777705 0
-45.995758 76.834068 -2.9777703 0
-46.09576 76.934067 -3.0277703 0
-46.045761 76.884064 -3.0277703 0
-46.045761 76.934067 -3.0277703 0
-45.995758 76.934067 -3.0277703 0
-45.945759 76.934067 -3.0277703 0
-45.89576 76.934067 -3.0277703 0
-45.84576 76.884064 -2.9777703 0
-45.84576 76.934067 -3.0277703 0
-45.84576 76.984062 -3.0277703 0
-45.745758 76.984062 -3.0277703 0
-45.695759 76.334068 -2.6777704 0
-45.64576 76.434067 -2.8277705 0
-45.64576 76.434067 -2.7777703 0
-45.545761 76.434067 -2.7777703 0
-45.545761 76.484062 -2.8277705 0
-45.545761 76.484062 -2.7777703 0
-45.495758 76.284065 -2.6777704 0
-45.495758 76.434067 -2.8277705 0
-45.445759 76.434067 -2.8277705 0
-45.445759 76.434067 -2.7777703 0
-45.34576 76.434067 -2.8277705 0
-45.34576 76.434067 -2.7777703 0
-45.39576 76.484062 -2.7777703 0
-45.64576 77.034065 -3.0777705 0
-45.495758 77.034065 -3.0777705 0
-45.445759 77.034065 -3.0777705 0
-45.695759 76.734062 -2.8777704 0
-45.545761 76.734062 -2.8777704 0
-45.695759 76.884064 -2.9777703 0
-45.695759 76.984062 -3.0277703 0
-45.545761 76.884064 -2.9777703 0
-45.545761 76.934067 -3.0277703 0
-45.59576 76.984062 -3.0277703 0
-45.39576 76.684067 -2.8777704 0
-45.445759 76.884064 -2.9777703 0
-45.495758 76.984062 -3.0277703 0
-45.445759 76.984062 -3.0277703 0
-45.39576 76.984062 -3.0277703 0
-45.34576 76.984062 -3.0277703 0
-46.445759 77.084068 -3.4277704 0
-46.34576 77.134064 -3.3777704 0
-46.39576 77.084068 -3.2277703 0
-46.295761 77.084068 -3.2777703 0
-46.295761 77.184067 -3.4277704 0
-46.295761 77.184067 -3.3777704 0
-46.195759 77.134064 -3.2777703 0
-46.195759 77.234062 -3.3777704 0
-46.14576 77.234062 -3.4277704 0
-46.14576 77.234062 -3.3777704 0
-46.295761 77.084068 -3.2277703 0
-46.295761 77.084068 -3.1777704 0
-46.195759 77.134064 -3.1777704 0
-46.14576 77.134064 -3.2277703 0
-46.09576 77.234062 -3.3777704 0
-46.045761 77.234062 -3.4277704 0
-46.09576 77.184067 -3.3277705 0
-46.09576 77.184067 -3.2777703 0
-45.995758 77.234062 -3.3777704 0
-45.945759 77.234062 -3.3777704 0
-45.995758 77.184067 -3.2777703 0
-45.995758 77.234062 -3.3277705 0
-45.945759 77.184067 -3.3277705 0
-45.945759 77.184067 -3.2777703 0
-46.09576 77.134064 -3.2277703 0
-46.09576 77.134064 -3.1777704 0
-45.995758 77.134064 -3.1777704 0
-45.995758 77.184067 -3.2277703 0
-45.89576 77.234062 -3.4277704 0
-45.84576 77.234062 -3.3777704 0
-45.84576 77.184067 -3.2777703 0
-45.84576 77.234062 -3.3277705 0
-45.795761 77.234062 -3.3777704 0
-45.795761 77.234062 -3.2777703 0
-45.745758 77.234062 -3.3277705 0
-45.745758 77.234062 -3.2777703 0
-45.89576 77.134064 -3.1777704 0
-45.89576 77.184067 -3.2277703 0
-45.84576 77.184067 -3.2277703 0
-45.795761 77.184067 -3.2277703 0
-45.795761 77.184067 -3.1777704 0
-45.745758 77.234062 -3.2277703 0
-45.84576 77.284065 -3.3777704 0
-45.795761 77.284065 -3.3777704 0
-45.745758 77.284065 -3.3777704 0
-45.695759 77.234062 -3.3777704 0
-45.695759 77.234062 -3.2777703 0
-45.59576 77.234062 -3.3777704 0
-45.545761 77.234062 -3.4277704 0
-45.59576 77.184067 -3.2777703 0
-45.59576 77.234062 -3.3277705 0
-45.545761 77.234062 -3.3277705 0
-45.545761 77.234062 -3.2777703 0
-45.695759 77.134064 -3.1277704 0
-45.64576 77.184067 -3.2277703 0
-45.64576 77.184067 -3.1777704 0
-45.64576 77.184067 -3.1277704 0
-45.59576 77.134064 -3.1777704 0
-45.545761 77.184067 -3.2277703 0
-45.695759 77.284065 -3.3777704 0
-45.64576 77.284065 -3.4277704 0
-45.59576 77.284065 -3.3777704 0
-45.495758 77.234062 -3.3777704 0
-45.445759 77.234062 -3.3777704 0
-45.495758 77.184067 -3.2777703 0
-45.445759 77.234062 -3.3277705 0
-45.39576 77.234062 -3.3777704 0
-45.34576 77.234062 -3.4277704 0
-45.34576 77.234062 -3.3777704 0
-45.39576 77.184067 -3.2777703 0
-45.34576 77.234062 -3.2777703 0
-45.495758 77.134064 -3.1777704 0
-45.445759 77.134064 -3.1777704 0
-45.495758 77.184067 -3.1777704 0
-45.445759 77.184067 -3.2277703 0
-45.39576 77.134064 -3.1777704 0
-45.34576 77.134064 -3.1777704 0
-45.34576 77.084068 -3.0777705 0
-45.34576 77.134064 -3.1277704 0
-45.39576 77.184067 -3.2277703 0
-45.34576 77.184067 -3.2277703 0
-45.495758 77.284065 -3.3777704 0
-45.445759 77.284065 -3.4277704 0
-45.39576 77.284065 -3.3777704 0
-45.14576 75.384064 -3.8277705 0
-45.045761 75.234062 -3.8277705 0
-45.09576 75.284065 -3.8277705 0
-45.09576 75.034065 -2.3777704 0
-45.195759 75.184067 -2.2777703 0
-45.14576 75.234062 -2.3277702 0
-45.09576 75.084068 -2.4277704 0
-45.09576 75.134064 -2.3277702 0
-45.045761 75.184067 -2.4277704 0
-45.09576 75.184067 -2.3277702 0
-45.09576 75.334068 -2.4777703 0
-45.045761 75.334068 -2.4777703 0
-45.045761 75.384064 -2.4777703 0
-45.09576 75.334068 -2.3777704 0
-45.045761 75.284065 -2.4277704 0
-45.09576 75.434067 -2.3777704 0
-45.295761 75.784065 -3.8777704 0
-45.14576 75.484062 -3.8277705 0
-45.195759 75.584068 -3.8277705 0
-45.245758 75.684067 -3.8277705 0
-45.295761 75.884064 -3.8777704 0
-45.295761 75.984062 -3.8777704 0
-45.295761 76.134064 -3.8777704 0
-45.045761 76.134064 -3.6277704 0
-45.045761 76.134064 -3.5277703 0
-45.195759 76.434067 -3.8777704 0
-45.295761 76.534065 -3.9277704 0
-45.245758 76.484062 -3.8777704 0
-45.045761 76.634064 -3.7277703 0
-45.295761 76.884064 -3.9277704 0
-45.245758 76.984062 -3.9277704 0
-45.245758 77.034065 -3.9277704 0
-45.14576 76.934067 -3.9277704 0
-45.195759 76.984062 -3.9277704 0
-45.09576 76.884064 -3.9277704 0
-45.045761 76.734062 -3.7777703 0
-45.045761 76.734062 -3.7277703 0
-45.045761 77.334068 -3.9277704 0
-45.09576 77.434067 -3.9277704 0
-45.045761 77.384064 -3.9277704 0
-45.295761 77.184067 -3.6777704 0
-45.295761 77.234062 -3.6777704 0
-45.245758 77.234062 -3.6777704 0
-45.195759 77.184067 -3.6777704 0
-45.14576 77.184067 -3.6777704 0
-45.295761 77.234062 -3.4777703 0
-45.245758 77.234062 -3.5277703 0
-45.14576 77.234062 -3.6277704 0
-45.195759 77.234062 -3.5277703 0
-45.195759 77.234062 -3.4777703 0
-45.14576 77.234062 -3.5277703 0
-45.295761 77.284065 -3.5277703 0
-45.09576 77.184067 -3.6777704 0
-45.045761 77.184067 -3.6777704 0
-45.045761 77.184067 -3.6277704 0
-45.09576 77.234062 -3.4777703 0
-45.045761 77.184067 -3.5277703 0
-45.045761 77.184067 -3.4777703 0
-45.045761 77.234062 -3.5277703 0
-45.14576 77.634064 -3.9777703 0
-45.245758 77.834068 -3.9777703 0
-45.195759 77.684067 -3.9777703 0
-45.195759 77.734062 -3.9777703 0
-45.09576 77.534065 -3.9777703 0
-45.245758 77.934067 -3.9777703 0
-45.245758 77.984062 -3.9777703 0
-45.295761 78.084068 -3.9777703 0
-45.295761 78.134064 -3.9777703 0
-45.295761 78.234062 -4.0277705 0
-45.245758 78.184067 -3.9777703 0
-45.14576 78.134064 -3.9777703 0
-45.045761 78.134064 -3.9777703 0
-45.295761 78.334068 -4.0277705 0
-45.295761 78.434067 -4.0277705 0
-45.14576 78.434067 -4.0277705 0
-45.295761 78.484062 -4.0277705 0
-45.245758 78.534065 -4.0277705 0
-45.295761 78.584068 -4.0277705 0
-45.295761 78.634064 -4.0277705 0
-45.195759 78.484062 -4.0277705 0
-45.09576 78.334068 -3.9777703 0
-45.295761 76.184067 -2.6777704 0
-45.245758 76.184067 -2.6777704 0
-45.14576 76.184067 -2.6777704 0
-45.14576 76.234062 -2.7277703 0
-45.045761 76.134064 -2.6777704 0
-45.045761 76.234062 -2.7277703 0
-45.14576 75.484062 -2.3777704 0
-45.245758 75.734062 -2.4277704 0
-45.14576 75.734062 -2.3777704 0
-45.09576 75.534065 -2.4777703 0
-45.045761 75.484062 -2.5277703 0
-45.045761 75.584068 -2.5277703 0
-45.09576 75.484062 -2.4277704 0
-45.09576 75.684067 -2.4777703 0
-45.09576 75.734062 -2.4777703 0
-45.09576 75.784065 -2.5277703 0
-45.09576 75.734062 -2.4277704 0
-45.295761 75.884064 -2.5277703 0
-45.245758 75.934067 -2.5277703 0
-45.195759 75.884064 -2.5277703 0
-45.14576 75.884064 -2.5277703 0
-45.14576 75.934067 -2.4777703 0
-45.14576 75.984062 -2.5277703 0
-45.245758 75.884064 -2.3777704 0
-45.295761 76.084068 -2.5277703 0
-45.09576 75.884064 -2.5277703 0
-45.045761 76.034065 -2.6277704 0
-45.09576 76.234062 -2.6277704 0
-45.245758 76.284065 -2.6777704 0
-45.245758 76.384064 -2.7777703 0
-45.245758 76.434067 -2.8277705 0
-45.195759 76.384064 -2.7777703 0
-45.195759 76.434067 -2.7777703 0
-45.14576 76.384064 -2.8277705 0
-45.045761 76.334068 -2.7777703 0
-45.045761 76.434067 -2.8277705 0
-45.045761 76.434067 -2.7777703 0
-45.245758 77.034065 -3.0777705 0
-45.09576 77.034065 -3.0777705 0
-45.245758 76.684067 -2.8777704 0
-45.295761 76.884064 -2.9777703 0
-45.295761 76.984062 -3.0277703 0
-45.245758 76.984062 -3.0277703 0
-45.195759 76.884064 -2.9777703 0
-45.195759 76.984062 -3.0277703 0
-45.14576 76.984062 -3.0277703 0
-45.09576 76.684067 -2.8777704 0
-45.045761 76.884064 -2.9777703 0
-45.045761 76.934067 -3.0277703 0
-45.09576 76.984062 -3.0277703 0
-45.045761 76.984062 -3.0277703 0
-45.245758 77.234062 -3.3777704 0
-45.295761 77.184067 -3.2777703 0
-45.295761 77.234062 -3.3277705 0
-45.245758 77.184067 -3.2777703 0
-45.14576 77.134064 -3.2777703 0
-45.195759 77.234062 -3.4277704 0
-45.195759 77.234062 -3.3777704 0
-45.14576 77.184067 -3.4277704 0
-45.14576 77.184067 -3.3777704 0
-45.14576 77.234062 -3.3777704 0
-45.195759 77.184067 -3.2777703 0
-45.14576 77.234062 -3.3277705 0
-45.295761 77.134064 -3.1777704 0
-45.245758 77.134064 -3.1777704 0
-45.295761 77.084068 -3.0777705 0
-45.245758 77.184067 -3.2277703 0
-45.195759 77.134064 -3.1777704 0
-45.14576 77.134064 -3.2277703 0
-45.195759 77.084068 -3.0777705 0
-45.195759 77.134064 -3.1277704 0
-45.295761 77.284065 -3.3777704 0
-45.09576 77.134064 -3.2777703 0
-45.045761 77.084068 -3.2777703 0
-45.045761 77.134064 -3.3277705 0
-45.045761 77.134064 -3.2777703 0
-45.09576 77.184067 -3.3777704 0
-45.045761 77.184067 -3.4277704 0
-45.045761 77.184067 -3.3777704 0
-45.09576 77.184067 -3.3277705 0
-45.09576 77.134064 -3.2277703 0
-45.09576 77.134064 -3.1777704 0
-45.045761 77.084068 -3.1777704 0
-45.09576 77.084068 -3.1277704 0
-45.045761 77.084068 -3.1277704 0
-47.745758 79.934067 -4.0277705 0
-47.795761 80.034065 -4.0277705 0
-47.84576 80.184067 -4.0277705 0
-47.34576 79.434067 -3.9777703 0
-46.945759 78.684067 -3.9777703 0
-46.945759 78.684067 -3.9277704 0
-46.945759 78.734062 -3.9277704 0
-46.945759 78.784065 -3.9777703 0
-46.945759 78.884064 -3.9777703 0
-46.945759 78.884064 -3.9277704 0
-46.945759 78.934067 -3.9277704 0
-46.945759 78.984062 -3.9777703 0
-46.995758 78.984062 -3.9277704 0
-47.14576 79.184067 -3.9277704 0
-47.295761 79.334068 -3.9777703 0
-47.195759 79.284065 -3.9277704 0
-47.045761 79.084068 -3.9277704 0
-46.945759 79.084068 -3.9777703 0
-46.945759 79.134064 -3.9277704 0
-46.945759 79.334068 -3.9277704 0
-47.64576 79.834068 -4.0277705 0
-47.59576 79.734062 -3.9777703 0
-47.445759 79.534065 -3.9777703 0
-47.495758 79.634064 -3.9777703 0
-46.945759 79.484062 -3.9777703 0
-46.945759 79.534065 -3.9777703 0
-46.945759 79.684067 -3.9777703 0
-46.945759 79.734062 -3.9777703 0
-46.995758 79.934067 -3.9777703 0
-46.945759 79.884064 -3.9777703 0
-46.945759 80.034065 -4.0277705 0
-46.995758 80.134064 -3.9777703 0
-46.945759 80.084068 -3.9777703 0
-46.945759 80.134064 -4.0277705 0
-46.945759 80.234062 -4.0277705 0
-48.14576 80.584068 -4.0777702 0
-48.39576 81.034065 -4.1277704 0
-48.245758 80.784065 -4.0777702 0
-48.195759 80.684067 -4.0777702 0
-48.295761 80.884064 -4.0777702 0
-47.945759 80.284065 -4.0277705 0
-47.995758 80.384064 -4.0277705 0
-48.045761 80.484062 -4.0777702 0
-48.445759 81.134064 -4.1277704 0
-48.495758 81.234062 -4.1277704 0
-46.945759 80.334068 -4.0777702 0
-46.945759 80.434067 -4.0777702 0
-46.945759 80.284065 -3.9777703 0
-46.945759 80.334068 -3.9777703 0
-46.945759 80.434067 -4.0277705 0
-46.945759 80.534065 -4.0777702 0
-46.945759 80.634064 -4.0777702 0
-46.995758 80.534065 -4.0277705 0
-46.995758 80.634064 -4.0277705 0
-46.945759 80.734062 -4.0777702 0
-46.945759 80.834068 -4.0777702 0
-46.995758 80.734062 -4.0277705 0
-46.995758 80.784065 -4.0277705 0
-46.945759 80.934067 -4.0777702 0
-46.995758 80.934067 -4.0277705 0
-46.945759 80.984062 -4.0277705 0
-46.995758 81.134064 -4.0277705 0
-46.945759 81.084068 -4.0277705 0
-46.995758 81.184067 -4.0277705 0
-46.995758 81.334068 -4.0777702 0
-46.945759 81.334068 -4.0777702 0
-46.945759 81.434067 -4.0777702 0
-46.995758 81.534065 -4.0777702 0
-46.945759 81.534065 -4.0777702 0
-46.945759 81.584068 -4.0777702 0
-46.995758 81.684067 -4.0777702 0
-46.995758 81.734062 -4.0777702 0
-46.84576 78.684067 -4.0777702 0
-46.745758 78.734062 -4.0777702 0
-46.795761 78.784065 -4.1277704 0
-46.795761 78.784065 -4.0777702 0
-46.84576 78.684067 -4.0277705 0
-46.84576 78.684067 -3.9777703 0
-46.89576 78.734062 -3.9277704 0
-46.84576 78.684067 -3.9277704 0
-46.84576 78.734062 -3.8777704 0
-46.84576 78.784065 -3.9777703 0
-46.84576 78.834068 -4.0277705 0
-46.84576 78.834068 -3.9277704 0
-46.84576 78.884064 -4.0777702 0
-46.795761 78.884064 -4.1277704 0
-46.795761 78.984062 -4.1277704 0
-46.795761 78.984062 -4.0777702 0
-46.745758 79.034065 -4.0777702 0
-46.84576 78.884064 -4.0277705 0
-46.84576 78.884064 -3.9777703 0
-46.89576 78.884064 -3.9277704 0
-46.89576 78.934067 -3.9277704 0
-46.84576 78.984062 -4.0277705 0
-46.84576 78.984062 -3.9777703 0
-46.84576 79.034065 -4.0277705 0
-46.84576 79.034065 -3.9777703 0
-46.84576 79.034065 -3.9277704 0
-46.695759 78.684067 -4.0777702 0
-46.64576 78.984062 -4.0777702 0
-46.545761 78.884064 -4.0777702 0
-46.84576 79.084068 -4.1277704 0
-46.84576 79.134064 -4.1277704 0
-46.84576 79.184067 -4.1277704 0
-46.84576 79.234062 -4.1277704 0
-46.795761 79.184067 -4.1277704 0
-46.84576 79.084068 -3.9777703 0
-46.84576 79.134064 -4.0277705 0
-46.89576 79.084068 -3.9277704 0
-46.89576 79.184067 -3.9777703 0
-46.84576 79.184067 -3.9777703 0
-46.84576 79.234062 -4.0277705 0
-46.89576 79.184067 -3.9277704 0
-46.84576 79.284065 -4.1277704 0
-46.84576 79.334068 -4.1277704 0
-46.84576 79.384064 -4.1277704 0
-46.84576 79.434067 -4.1277704 0
-46.795761 79.284065 -4.1277704 0
-46.89576 79.284065 -3.9777703 0
-46.84576 79.284065 -3.9777703 0
-46.84576 79.334068 -4.0277705 0
-46.89576 79.284065 -3.9277704 0
-46.89576 79.334068 -3.9277704 0
-46.84576 79.384064 -3.9777703 0
-46.84576 79.434067 -4.0277705 0
-46.89576 79.434067 -3.9277704 0
-46.445759 78.834068 -4.0777702 0
-46.34576 78.784065 -4.0777702 0
-46.495758 78.884064 -4.0777702 0
-46.195759 78.684067 -4.0777702 0
-46.84576 79.484062 -4.1277704 0
-46.84576 79.534065 -4.1277704 0
-46.84576 79.584068 -4.1277704 0
-46.84576 79.634064 -4.0777702 0
-46.84576 79.484062 -4.0277705 0
-46.84576 79.484062 -3.9777703 0
-46.84576 79.534065 -4.0277705 0
-46.89576 79.484062 -3.9277704 0
-46.89576 79.584068 -4.0277705 0
-46.89576 79.634064 -3.9777703 0
-46.84576 79.684067 -4.1277704 0
-46.84576 79.734062 -4.1277704 0
-46.84576 79.734062 -4.0777702 0
-46.84576 79.784065 -4.1277704 0
-46.84576 79.834068 -4.1277704 0
-46.84576 79.834068 -4.0777702 0
-46.89576 79.684067 -4.0277705 0
-46.89576 79.734062 -4.0277705 0
-46.84576 79.684067 -3.9777703 0
-46.89576 79.784065 -4.0277705 0
-46.89576 79.784065 -3.9777703 0
-46.89576 79.834068 -3.9777703 0
-46.84576 79.884064 -4.1277704 0
-46.84576 79.934067 -4.1277704 0
-46.84576 79.934067 -4.0777702 0
-46.84576 79.984062 -4.1777701 0
-46.84576 80.034065 -4.1277704 0
-46.84576 80.034065 -4.0777702 0
-46.89576 79.934067 -4.0277705 0
-46.89576 79.984062 -3.9777703 0
-46.84576 79.984062 -3.9777703 0
-46.84576 80.084068 -4.1777701 0
-46.84576 80.134064 -4.1277704 0
-46.84576 80.134064 -4.0777702 0
-46.84576 80.184067 -4.1777701 0
-46.84576 80.234062 -4.1277704 0
-46.84576 80.234062 -4.0777702 0
-46.89576 80.134064 -3.9777703 0
-46.14576 80.184067 -4.1777701 0
-45.945759 78.734062 -4.0777702 0
-45.89576 78.834068 -4.0777702 0
-45.89576 78.934067 -4.0777702 0
-45.84576 79.034065 -4.0777702 0
-45.84576 79.134064 -4.0777702 0
-45.795761 79.234062 -4.0777702 0
-45.745758 79.384064 -4.0777702 0
-45.545761 78.934067 -4.0777702 0
-45.59576 78.984062 -4.0777702 0
-45.59576 79.034065 -4.0777702 0
-45.445759 78.734062 -4.0277705 0
-45.495758 78.784065 -4.0277705 0
-45.39576 78.684067 -4.0277705 0
-45.495758 78.884064 -4.0277705 0
-45.64576 79.134064 -4.0777702 0
-45.695759 79.184067 -4.0777702 0
-45.695759 79.234062 -4.0777702 0
-45.495758 79.384064 -4.0777702 0
-45.495758 79.434067 -4.0777702 0
-45.39576 79.334068 -4.0777702 0
-45.84576 79.584068 -4.1277704 0
-45.795761 79.484062 -4.0777702 0
-45.84576 79.684067 -4.1277704 0
-45.89576 79.784065 -4.1277704 0
-45.89576 79.834068 -4.1277704 0
-45.84576 79.784065 -4.1277704 0
-45.795761 79.734062 -4.1277704 0
-45.745758 79.684067 -4.1277704 0
-46.045761 80.034065 -4.1277704 0
-45.995758 79.934067 -4.1277704 0
-46.09576 80.084068 -4.1277704 0
-45.945759 80.134064 -4.1277704 0
-45.945759 80.234062 -4.1277704 0
-45.89576 79.884064 -4.1277704 0
-45.89576 79.934067 -4.1277704 0
-45.89576 79.984062 -4.1277704 0
-45.89576 80.034065 -4.1277704 0
-45.695759 79.634064 -4.0777702 0
-45.64576 79.584068 -4.0777702 0
-45.59576 79.534065 -4.0777702 0
-45.545761 79.484062 -4.0777702 0
-46.84576 80.284065 -4.1777701 0
-46.84576 80.284065 -4.1277704 0
-46.84576 80.334068 -4.0777702 0
-46.84576 80.434067 -4.1777701 0
-46.84576 80.384064 -4.0777702 0
-46.84576 80.434067 -4.1277704 0
-46.795761 80.384064 -4.1777701 0
-46.89576 80.284065 -3.9777703 0
-46.89576 80.434067 -4.0277705 0
-46.89576 80.434067 -3.9777703 0
-46.84576 80.484062 -4.1777701 0
-46.84576 80.484062 -4.0777702 0
-46.84576 80.534065 -4.0777702 0
-46.84576 80.584068 -4.1777701 0
-46.84576 80.584068 -4.1277704 0
-46.84576 80.634064 -4.1277704 0
-46.84576 80.634064 -4.0777702 0
-46.89576 80.584068 -4.0277705 0
-46.89576 80.634064 -4.0277705 0
-46.84576 80.734062 -4.1777701 0
-46.84576 80.734062 -4.1277704 0
-46.84576 80.734062 -4.0777702 0
-46.84576 80.784065 -4.2277703 0
-46.84576 80.834068 -4.2277703 0
-46.84576 80.834068 -4.1277704 0
-46.84576 80.834068 -4.0777702 0
-46.84576 80.734062 -4.0277705 0
-46.89576 80.784065 -4.0277705 0
-46.84576 80.934067 -4.2277703 0
-46.84576 80.934067 -4.1777701 0
-46.84576 80.934067 -4.1277704 0
-46.84576 81.034065 -4.2277703 0
-46.89576 81.034065 -4.0777702 0
-46.84576 81.034065 -4.1277704 0
-46.89576 80.884064 -4.0277705 0
-46.89576 80.934067 -4.0277705 0
-46.89576 80.984062 -4.0277705 0
-46.545761 80.984062 -4.2277703 0
-46.34576 80.534065 -4.1777701 0
-46.39576 80.634064 -4.1777701 0
-46.245758 80.334068 -4.1777701 0
-46.295761 80.434067 -4.1777701 0
-46.295761 80.484062 -4.1777701 0
-46.445759 80.684067 -4.1777701 0
-46.445759 80.784065 -4.1777701 0
-46.495758 80.884064 -4.2277703 0
-46.195759 80.984062 -4.1777701 0
-46.84576 81.534065 -4.2777705 0
-46.84576 81.634064 -4.2777705 0
-46.745758 81.634064 -4.2777705 0
-46.84576 81.684067 -4.2777705 0
-46.84576 81.734062 -4.2777705 0
-46.89576 81.784065 -4.2777705 0
-46.84576 81.784065 -4.2777705 0
-46.745758 81.684067 -4.2777705 0
-46.745758 81.734062 -4.2777705 0
-46.745758 81.834068 -4.2777705 0
-46.695759 81.534065 -4.2777705 0
-46.84576 81.084068 -4.2277703 0
-46.84576 81.084068 -4.1777701 0
-46.84576 81.134064 -4.2277703 0
-46.89576 81.084068 -4.0777702 0
-46.89576 81.134064 -4.0777702 0
-46.84576 81.134064 -4.1277704 0
-46.84576 81.184067 -4.2277703 0
-46.84576 81.184067 -4.1777701 0
-46.84576 81.234062 -4.2277703 0
-46.84576 81.234062 -4.1777701 0
-46.84576 81.234062 -4.1277704 0
-46.84576 81.234062 -4.0777702 0
-46.89576 81.134064 -4.0277705 0
-46.84576 81.334068 -4.2277703 0
-46.84576 81.334068 -4.1777701 0
-46.89576 81.284065 -4.1277704 0
-46.84576 81.334068 -4.1277704 0
-46.84576 81.434067 -4.2277703 0
-46.84576 81.434067 -4.1777701 0
-46.89576 81.434067 -4.0777702 0
-46.84576 81.384064 -4.1277704 0
-46.84576 81.434067 -4.1277704 0
-46.89576 81.284065 -4.0277705 0
-46.64576 81.234062 -4.2277703 0
-46.59576 81.084068 -4.2277703 0
-46.59576 81.184067 -4.2277703 0
-46.64576 81.284065 -4.2277703 0
-46.695759 81.384064 -4.2277703 0
-46.64576 81.384064 -4.2277703 0
-46.59576 81.284065 -4.2277703 0
-46.84576 81.534065 -4.1777701 0
-46.84576 81.484062 -4.1277704 0
-46.84576 81.534065 -4.1277704 0
-46.84576 81.584068 -4.2277703 0
-46.84576 81.584068 -4.1777701 0
-46.89576 81.584068 -4.0777702 0
-46.84576 81.584068 -4.1277704 0
-46.84576 81.634064 -4.1277704 0
-46.795761 81.484062 -4.2277703 0
-46.84576 81.684067 -4.1777701 0
-46.89576 81.684067 -4.0777702 0
-46.89576 81.734062 -4.0777702 0
-46.84576 81.734062 -4.1277704 0
-46.84576 81.784065 -4.1777701 0
-46.89576 81.834068 -4.0777702 0
-46.84576 81.784065 -4.1277704 0
-46.84576 81.834068 -4.1277704 0
-46.495758 81.184067 -4.2277703 0
-46.39576 81.134064 -4.1777701 0
-46.295761 81.084068 -4.1777701 0
-45.945759 80.284065 -4.1777701 0
-45.945759 80.334068 -4.1777701 0
-45.945759 80.434067 -4.1777701 0
-45.945759 80.534065 -4.1777701 0
-45.945759 80.634064 -4.1777701 0
-45.745758 80.634064 -4.1277704 0
-46.045761 80.834068 -4.1777701 0
-46.09576 80.884064 -4.1777701 0
-45.89576 80.734062 -4.1777701 0
-45.89576 80.834068 -4.1777701 0
-45.795761 80.684067 -4.1277704 0
-45.89576 80.934067 -4.1777701 0
-45.89576 81.034065 -4.1777701 0
-45.59576 80.584068 -4.1277704 0
-45.39576 80.434067 -4.1277704 0
-45.34576 80.384064 -4.1277704 0
-45.495758 80.484062 -4.1277704 0
-45.84576 81.134064 -4.1777701 0
-45.795761 81.234062 -4.2277703 0
-45.795761 81.284065 -4.2277703 0
-45.745758 81.384064 -4.2277703 0
-45.795761 81.784065 -4.2277703 0
-45.39576 81.234062 -4.1777701 0
-45.34576 81.184067 -4.1777701 0
-45.495758 81.434067 -4.1777701 0
-45.445759 81.384064 -4.1777701 0
-45.445759 81.434067 -4.1777701 0
-45.39576 81.284065 -4.1777701 0
-45.39576 81.434067 -4.1777701 0
-45.34576 81.384064 -4.1777701 0
-45.695759 81.484062 -4.2277703 0
-45.695759 81.584068 -4.2277703 0
-45.545761 81.534065 -4.2277703 0
-45.59576 81.584068 -4.2277703 0
-45.695759 81.734062 -4.2277703 0
-45.64576 81.684067 -4.2277703 0
-45.545761 81.734062 -4.2277703 0
-45.545761 81.834068 -4.2277703 0
-45.495758 81.484062 -4.2277703 0
-45.495758 81.484062 -4.1777701 0
-45.495758 81.634064 -4.2277703 0
-48.445759 83.234062 -4.3777704 0
-48.14576 83.234062 -4.3777704 0
-48.14576 83.334068 -4.4277706 0
-48.195759 83.434067 -4.4277706 0
-48.14576 83.384064 -4.4277706 0
-48.09576 83.234062 -4.4277706 0
-48.045761 83.234062 -4.4277706 0
-47.84576 83.234062 -4.3777704 0
-47.84576 83.234062 -4.3277702 0
-46.995758 81.884064 -4.0777702 0
-46.995758 81.934067 -4.0777702 0
-46.945759 81.884064 -4.0777702 0
-46.995758 82.034065 -4.0777702 0
-46.945759 82.034065 -4.0777702 0
-46.995758 82.134064 -4.0777702 0
-46.995758 82.184067 -4.1277704 0
-46.945759 82.184067 -4.0777702 0
-46.995758 82.284065 -4.1277704 0
-46.995758 82.334068 -4.0777702 0
-46.945759 82.334068 -4.1277704 0
-46.995758 82.384064 -4.1277704 0
-46.995758 82.484062 -4.1277704 0
-46.995758 82.534065 -4.1277704 0
-46.945759 82.484062 -4.1277704 0
-46.995758 82.584068 -4.1277704 0
-46.945759 82.634064 -4.1277704 0
-47.695759 83.234062 -4.3777704 0
-47.545761 83.234062 -4.3777704 0
-47.59576 83.234062 -4.3277702 0
-47.445759 83.234062 -4.3777704 0
-47.34576 83.234062 -4.2777705 0
-46.995758 83.034065 -4.3277702 0
-46.945759 82.984062 -4.2777705 0
-47.295761 83.234062 -4.3277702 0
-47.245758 83.234062 -4.2777705 0
-47.195759 83.184067 -4.3277702 0
-47.14576 83.184067 -4.3277702 0
-47.14576 83.184067 -4.2777705 0
-47.09576 83.134064 -4.3277702 0
-47.045761 83.084068 -4.3277702 0
-47.045761 83.134064 -4.2777705 0
-47.09576 83.184067 -4.2777705 0
-47.445759 83.234062 -4.1777701 0
-47.34576 83.184067 -4.1777701 0
-47.14576 83.034065 -4.1777701 0
-46.995758 82.684067 -4.1277704 0
-46.995758 82.734062 -4.1277704 0
-46.995758 82.784065 -4.1277704 0
-46.945759 82.784065 -4.1277704 0
-47.045761 82.884064 -4.1277704 0
-47.045761 83.034065 -4.1777701 0
-47.09576 82.984062 -4.1277704 0
-46.995758 82.884064 -4.1277704 0
-46.995758 82.934067 -4.1277704 0
-46.945759 82.884064 -4.1277704 0
-46.945759 82.984062 -4.2277703 0
-46.995758 82.984062 -4.1277704 0
-47.295761 83.184067 -4.1777701 0
-47.245758 83.184067 -4.1777701 0
-47.195759 83.184067 -4.1777701 0
-47.045761 83.084068 -4.1777701 0
-47.045761 83.134064 -4.2277703 0
-46.995758 83.084068 -4.2277703 0
-48.34576 83.734062 -4.4777703 0
-48.39576 83.834068 -4.4777703 0
-48.245758 83.534065 -4.4277706 0
-48.295761 83.634064 -4.4277706 0
-48.445759 84.034065 -4.4777703 0
-48.39576 83.934067 -4.4777703 0
-48.495758 84.134064 -4.4777703 0
-48.495758 84.234062 -4.4777703 0
-46.89576 81.934067 -4.2777705 0
-46.84576 81.884064 -4.2777705 0
-46.795761 81.884064 -4.2777705 0
-46.795761 81.934067 -4.2777705 0
-46.745758 81.934067 -4.2777705 0
-46.745758 82.034065 -4.2777705 0
-46.84576 82.084068 -4.2777705 0
-46.89576 82.234062 -4.2777705 0
-46.795761 82.134064 -4.2777705 0
-46.795761 82.234062 -4.3277702 0
-46.695759 82.134064 -4.2777705 0
-46.89576 82.334068 -4.2777705 0
-46.89576 82.384064 -4.2777705 0
-46.795761 82.334068 -4.3277702 0
-46.795761 82.434067 -4.3277702 0
-46.84576 82.484062 -4.2777705 0
-46.89576 82.584068 -4.2777705 0
-46.795761 82.534065 -4.3277702 0
-46.795761 82.634064 -4.3277702 0
-46.14576 82.334068 -4.2777705 0
-46.195759 82.384064 -4.2777705 0
-46.195759 82.434067 -4.2777705 0
-46.245758 82.534065 -4.2777705 0
-46.295761 82.584068 -4.2777705 0
-46.295761 82.634064 -4.3277702 0
-46.84576 81.884064 -4.1777701 0
-46.84576 81.884064 -4.1277704 0
-46.84576 81.934067 -4.1277704 0
-46.84576 81.984062 -4.1777701 0
-46.84576 82.034065 -4.1777701 0
-46.89576 81.984062 -4.0777702 0
-46.84576 82.084068 -4.1777701 0
-46.84576 82.134064 -4.1777701 0
-46.89576 82.084068 -4.0777702 0
-46.84576 82.184067 -4.1777701 0
-46.84576 82.234062 -4.1777701 0
-46.89576 82.234062 -4.0777702 0
-46.84576 82.284065 -4.1777701 0
-46.84576 82.334068 -4.1777701 0
-46.84576 82.384064 -4.2277703 0
-46.89576 82.384064 -4.1277704 0
-46.84576 82.484062 -4.2277703 0
-46.84576 82.484062 -4.1777701 0
-46.84576 82.534065 -4.2277703 0
-46.89576 82.484062 -4.1277704 0
-46.84576 82.584068 -4.1777701 0
-46.84576 82.634064 -4.2277703 0
-46.84576 82.634064 -4.1777701 0
-46.89576 82.634064 -4.1277704 0
-46.89576 82.684067 -4.2777705 0
-46.89576 82.784065 -4.2777705 0
-46.795761 82.734062 -4.3277702 0
-46.745758 82.834068 -4.3277702 0
-46.89576 82.884064 -4.2777705 0
-46.745758 82.934067 -4.3277702 0
-46.745758 83.034065 -4.3277702 0
-46.695759 83.134064 -4.3777704 0
-46.695759 83.234062 -4.3777704 0
-46.545761 83.184067 -4.3277702 0
-46.695759 83.334068 -4.3777704 0
-46.64576 83.434067 -4.3777704 0
-46.545761 83.284065 -4.3777704 0
-46.59576 83.384064 -4.3777704 0
-46.59576 83.434067 -4.3777704 0
-46.34576 82.734062 -4.3277702 0
-46.39576 82.834068 -4.3277702 0
-46.445759 82.884064 -4.3277702 0
-46.445759 82.984062 -4.3277702 0
-46.495758 83.084068 -4.3277702 0
-46.14576 83.334068 -4.3277702 0
-46.14576 83.434067 -4.3277702 0
-46.84576 82.684067 -4.1777701 0
-46.84576 82.734062 -4.2277703 0
-46.89576 82.734062 -4.1277704 0
-46.89576 82.784065 -4.2277703 0
-46.89576 82.834068 -4.2277703 0
-46.89576 82.884064 -4.2277703 0
-46.89576 82.984062 -4.2277703 0
-46.09576 82.234062 -4.2777705 0
-46.045761 82.184067 -4.2777705 0
-45.995758 82.084068 -4.2777705 0
-45.745758 82.634064 -4.2777705 0
-45.64576 82.234062 -4.2777705 0
-45.64576 82.334068 -4.2777705 0
-45.64576 82.434067 -4.2777705 0
-45.64576 82.534065 -4.2777705 0
-45.695759 82.584068 -4.2777705 0
-45.59576 82.634064 -4.2777705 0
-45.945759 81.984062 -4.2277703 0
-45.84576 81.884064 -4.2277703 0
-45.59576 81.934067 -4.2277703 0
-45.59576 82.034065 -4.2277703 0
-45.64576 82.184067 -4.2277703 0
-45.59576 82.134064 -4.2277703 0
-45.34576 82.034065 -4.2277703 0
-45.445759 82.234062 -4.2277703 0
-45.34576 82.134064 -4.2277703 0
-45.39576 82.184067 -4.2277703 0
-45.545761 82.384064 -4.2277703 0
-45.64576 82.534065 -4.2277703 0
-45.59576 82.484062 -4.2277703 0
-45.495758 82.284065 -4.2277703 0
-45.945759 83.034065 -4.2777705 0
-45.84576 82.834068 -4.2777705 0
-45.795761 82.734062 -4.2777705 0
-45.795761 82.784065 -4.2777705 0
-45.89576 82.934067 -4.2777705 0
-45.89576 82.984062 -4.2777705 0
-46.045761 83.234062 -4.3277702 0
-45.995758 83.084068 -4.2777705 0
-45.995758 83.134064 -4.3277702 0
-46.09576 83.284065 -4.3277702 0
-45.59576 82.734062 -4.2777705 0
-45.59576 82.834068 -4.2777705 0
-45.59576 82.934067 -4.2777705 0
-45.545761 83.034065 -4.2777705 0
-45.545761 83.134064 -4.3277702 0
-45.495758 83.234062 -4.3277702 0
-45.34576 83.234062 -4.2777705 0
-45.445759 83.334068 -4.3277702 0
-45.445759 83.434067 -4.3277702 0
-45.34576 83.334068 -4.3277702 0
-45.39576 83.384064 -4.3277702 0
-45.39576 83.434067 -4.3277702 0
-46.64576 83.584068 -4.3777704 0
