# .PCD v0.7 - Point Cloud Data file format
VERSION 0.7
FIELDS x y z intensity
SIZE 4 4 4 4
TYPE F F F F
COUNT 1 1 1 1
WIDTH 198
HEIGHT 1
VIEWPOINT 0 0 0 1 0 0 0
POINTS 198
DATA ascii
-0.94575858 105.08407 -4.4277706 0
-0.74575859 105.13406 -4.4277706 0
-0.54575861 105.23407 -4.4277706 0
-0.34575859 105.28407 -4.4277706 0
-0.14575857 105.38406 -4.4277706 0
0.054241426 105.43407 -4.4277706 0
0.25424144 105.48407 -4.4777703 0
0.45424142 105.53407 -4.4777703 0
0.65424144 105.63406 -4.4777703 0
0.85424143 105.68407 -4.4777703 0
1.1042415 105.73407 -4.4777703 0
1.3042414 105.78407 -4.4777703 0
1.5042415 105.88406 -4.4777703 0
1.7042414 105.88406 -4.4777703 0
1.9042414 105.98407 -4.4777703 0
2.1042414 106.03407 -4.4777703 0
2.3042414 106.03407 -4.5277705 0
2.5542414 106.08407 -4.5277705 0
-0.39575857 105.53407 -1.6777704 0
-0.29575858 105.53407 -1.6777704 0
-0.19575858 105.53407 -1.6777704 0
-0.095758572 105.53407 -1.6777704 0
0.054241426 105.53407 -1.6777704 0
0.10424143 105.53407 -1.6777704 0
0.25424144 105.53407 -1.7277703 0
0.30424142 105.58407 -1.7277703 0
0.45424142 105.68407 -1.6777704 0
0.50424141 105.68407 -1.7277703 0
1.1542414 105.63406 -2.3777704 0
1.2542415 105.58407 -2.3277702 0
1.1042415 105.68407 -2.4277704 0
1.1542414 105.68407 -2.4277704 0
1.3042414 105.58407 -2.4277704 0
1.4042414 105.58407 -2.4277704 0
1.4542414 105.58407 -2.3777704 0
1.5042415 105.58407 -2.4277704 0
1.6042415 105.58407 -2.4277704 0
1.7042414 105.58407 -2.4277704 0
1.7042414 105.58407 -2.3777704 0
1.8042414 105.58407 -2.4277704 0
2.6042414 105.73407 -3.1277704 0
2.6042414 105.78407 -3.1277704 0
1.9542415 105.63406 -2.4277704 0
2.0042415 105.63406 -2.4277704 0
1.9042414 105.68407 -2.3777704 0
2.0042415 105.68407 -2.4277704 0
3.2542415 105.03407 -4.3777704 0
3.4542415 105.13406 -4.3777704 0
3.6042414 105.23407 -4.3777704 0
3.8042414 105.33407 -4.3777704 0
4.0042415 105.43407 -4.4277706 0
4.2042413 105.53407 -4.4277706 0
4.1042414 105.83407 -3.7277703 0
4.2042413 105.78407 -3.7777703 0
2.7542415 106.13406 -4.5277705 0
2.9542415 106.18407 -4.5277705 0
3.1542416 106.18407 -4.5277705 0
3.3542414 106.23407 -4.5277705 0
3.6042414 106.28407 -4.5277705 0
3.8042414 106.33407 -4.5277705 0
4.0042415 106.33407 -4.5277705 0
4.4042416 105.63406 -4.4277706 0
4.6042414 105.73407 -4.4277706 0
4.9542413 105.08407 -4.3777704 0
4.8042417 105.78407 -4.4277706 0
5.0542417 105.68407 -4.4277706 0
4.3542414 105.68407 -3.7277703 0
4.3542414 105.73407 -3.7277703 0
4.3042417 105.78407 -3.8277705 0
4.4542413 105.68407 -3.7777703 0
4.5042415 105.63406 -3.8277705 0
4.5542417 105.68407 -3.7777703 0
4.6542416 105.68407 -3.7777703 0
4.6042414 105.68407 -3.7277703 0
4.7042413 105.63406 -3.8277705 0
4.8042417 105.68407 -3.7777703 0
4.8542414 105.68407 -3.7777703 0
4.8542414 105.73407 -3.7277703 0
4.9042416 105.63406 -3.8277705 0
5.0042415 105.73407 -3.7777703 0
5.2042413 105.58407 -4.4277706 0
5.3042417 105.58407 -4.4777703 0
5.3042417 105.63406 -4.4277706 0
5.4542413 105.63406 -4.4277706 0
5.5042415 105.73407 -4.4277706 0
5.1042414 105.63406 -3.7777703 0
5.1042414 105.63406 -3.7277703 0
5.2542415 105.58407 -3.7777703 0
5.3042417 105.58407 -3.8277705 0
5.3042417 105.68407 -3.7277703 0
5.4542413 105.68407 -3.7777703 0
5.5042415 105.63406 -3.8277705 0
5.5042415 105.83407 -3.7277703 0
5.6042414 105.88406 -4.4777703 0
5.5542417 106.13406 -4.4777703 0
5.7542415 106.18407 -4.4777703 0
2.8542414 105.63406 -3.1277704 0
2.8542414 105.68407 -3.1277704 0
3.0542414 105.63406 -3.1277704 0
2.8042414 105.63406 -3.0277703 0
3.0542414 105.63406 -3.0277703 0
3.2542415 105.58407 -3.1277704 0
3.3042414 105.63406 -3.1277704 0
3.4542415 105.63406 -3.1277704 0
3.2542415 105.63406 -3.0277703 0
3.4542415 105.73407 -3.0277703 0
3.5042415 105.63406 -3.1277704 0
3.6542416 105.73407 -3.1277704 0
3.7042415 105.73407 -3.1277704 0
5.0542417 105.63406 -3.0777705 0
4.9042416 105.63406 -2.3777704 0
5.0542417 105.58407 -2.4277704 0
5.1042414 105.58407 -3.1277704 0
5.2542415 105.58407 -3.0777705 0
5.3042417 105.58407 -3.1277704 0
5.4542413 105.68407 -3.1277704 0
5.5042415 105.68407 -3.1277704 0
5.1042414 105.58407 -2.4777703 0
5.1542416 105.58407 -2.3777704 0
5.3542414 105.58407 -2.4777703 0
5.3042417 105.58407 -2.4277704 0
5.3542414 105.68407 -2.3777704 0
5.4542413 105.78407 -2.4277704 0
5.5042415 105.78407 -2.4777703 0
4.9542413 105.58407 -1.6777704 0
4.9042416 105.73407 -1.7777703 0
4.9042416 105.58407 -1.0777704 0
4.9542413 105.58407 -1.1277703 0
5.1542416 105.53407 -1.8277704 0
5.2042413 105.58407 -1.6777704 0
5.3542414 105.58407 -1.8277704 0
5.3542414 105.78407 -1.6777704 0
5.1542416 105.48407 -1.1777704 0
5.1042414 105.53407 -1.0777704 0
5.3542414 105.58407 -1.1777704 0
5.3042417 105.63406 -1.0777704 0
5.9042416 105.53407 -4.4277706 0
6.1042414 105.63406 -4.4277706 0
6.3042417 105.73407 -4.4277706 0
6.5042415 105.83407 -4.4277706 0
5.9542418 106.28407 -4.4777703 0
5.9042416 106.48407 -4.5777702 0
6.1542416 106.48407 -4.5777702 0
6.3542414 106.48407 -4.5777702 0
6.5542417 106.53407 -4.5777702 0
6.8042417 106.48407 -4.5777702 0
7.0042415 106.48407 -4.5777702 0
7.2042418 106.48407 -4.5777702 0
7.4042416 106.48407 -4.5777702 0
8.0042419 106.88406 -4.5277705 0
8.2042418 106.93407 -4.5277705 0
8.4542418 106.98407 -4.5277705 0
8.6542416 107.03407 -4.5277705 0
8.8542414 107.08407 -4.5277705 0
9.3042412 106.78407 -4.5277705 0
9.5542412 106.83407 -4.5277705 0
9.7542419 106.88406 -4.5277705 0
9.9542418 106.93407 -4.5277705 0
10.154242 106.98407 -4.5277705 0
10.354241 107.03407 -4.5277705 0
10.554241 107.08407 -4.5277705 0
12.054241 107.28407 -4.5777702 0
12.254242 107.33407 -4.5777702 0
12.454242 107.33407 -4.5777702 0
12.654242 107.33407 -4.5777702 0
12.904242 107.38406 -4.5777702 0
13.104241 107.38406 -4.5777702 0
13.304241 107.38406 -4.5777702 0
13.504242 107.43407 -4.5777702 0
13.754242 107.43407 -4.5777702 0
13.954242 107.43407 -4.5777702 0
3.1042414 105.68407 0.2722297 0
3.3542414 105.68407 0.2722297 0
2.9042416 105.63406 1.0222297 0
2.9542415 105.63406 0.97222972 0
3.3542414 105.53407 0.92222971 0
3.1042414 105.53407 0.97222972 0
3.1542416 105.53407 0.97222972 0
3.3042414 105.53407 0.97222972 0
3.3542414 105.53407 1.0222297 0
3.5542414 105.68407 0.2722297 0
3.7542415 105.68407 0.2722297 0
3.9542415 105.68407 0.22222969 0
3.9042416 105.73407 0.32222968 0
4.1042414 105.68407 0.2722297 0
3.5542414 105.53407 0.92222971 0
3.8042414 105.53407 0.92222971 0
3.5042415 105.53407 0.97222972 0
3.5542414 105.53407 0.97222972 0
3.7042415 105.53407 0.97222972 0
3.7542415 105.58407 0.97222972 0
4.3542414 105.68407 0.2722297 0
4.5042415 105.63406 0.2722297 0
4.7542415 105.58407 0.2722297 0
4.9542413 105.58407 0.2722297 0
4.7542415 105.53407 0.97222972 0
5.0042415 105.48407 0.97222972 0
5.1542416 105.58407 0.97222972 0
