# .PCD v0.7 - Point Cloud Data file format
VERSION 0.7
FIELDS x y z intensity
SIZE 4 4 4 4
TYPE F F F F
COUNT 1 1 1 1
WIDTH 1420
HEIGHT 1
VIEWPOINT 0 0 0 1 0 0 0
POINTS 1420
DATA ascii
5.5542417 65.884064 0.32222968 0
5.5542417 65.984062 0.32222968 0
5.6042414 65.884064 0.52222967 0
5.6042414 65.984062 0.47222969 0
5.6042414 65.984062 0.52222967 0
5.5042415 66.084068 0.32222968 0
5.5042415 66.234062 0.32222968 0
5.5542417 66.184067 0.32222968 0
5.5542417 66.234062 0.47222969 0
5.6042414 66.084068 0.52222967 0
5.6042414 66.134064 0.47222969 0
5.6042414 66.134064 0.52222967 0
5.6042414 66.184067 0.52222967 0
5.6042414 66.234062 0.52222967 0
5.5542417 66.334068 0.32222968 0
5.5042415 66.384064 0.32222968 0
5.5542417 66.284065 0.52222967 0
5.6042414 66.334068 0.47222969 0
5.6042414 66.334068 0.52222967 0
5.6042414 66.434067 0.47222969 0
5.6042414 66.434067 0.52222967 0
5.5542417 66.484062 0.32222968 0
5.5542417 66.534065 0.32222968 0
5.5542417 66.634064 0.32222968 0
5.5542417 66.534065 0.47222969 0
5.6042414 66.484062 0.52222967 0
5.6042414 66.534065 0.52222967 0
5.6042414 66.584068 0.52222967 0
5.6042414 66.634064 0.52222967 0
5.3542414 66.584068 0.57222968 0
5.6042414 65.884064 0.57222968 0
5.6042414 65.984062 0.57222968 0
5.4542413 66.784065 0.12222969 0
5.4542413 66.934067 0.12222969 0
5.2542415 66.734062 0.17222969 0
5.4542413 67.034065 0.17222969 0
5.4542413 67.134064 0.12222969 0
5.2042413 67.184067 0.17222969 0
5.2542415 67.234062 0.17222969 0
5.4542413 67.134064 0.17222969 0
5.4542413 67.284065 0.17222969 0
5.4542413 67.384064 0.17222969 0
5.4542413 67.434067 0.17222969 0
5.5042415 66.984062 0.12222969 0
5.5042415 66.784065 0.32222968 0
5.5542417 66.734062 0.3722297 0
5.5542417 66.684067 0.47222969 0
5.5542417 66.784065 0.47222969 0
5.5542417 66.834068 0.47222969 0
5.6042414 66.684067 0.52222967 0
5.6042414 66.784065 0.47222969 0
5.6042414 66.784065 0.52222967 0
5.5542417 66.884064 0.32222968 0
5.5542417 66.934067 0.3722297 0
5.5542417 66.884064 0.47222969 0
5.5542417 67.034065 0.3722297 0
5.5542417 67.034065 0.42222971 0
5.5542417 66.984062 0.47222969 0
5.5542417 67.034065 0.47222969 0
5.5042415 67.234062 0.12222969 0
5.5542417 67.134064 0.3722297 0
5.5542417 67.084068 0.47222969 0
5.5542417 67.134064 0.47222969 0
5.5042415 67.234062 0.42222971 0
5.5542417 67.184067 0.3722297 0
5.5542417 67.234062 0.47222969 0
5.6042414 67.184067 0.42222971 0
5.5042415 67.284065 0.17222969 0
5.5042415 67.434067 0.17222969 0
5.5542417 67.284065 0.3722297 0
5.5542417 67.334068 0.47222969 0
5.5042415 67.384064 0.3722297 0
5.5542417 67.434067 0.3722297 0
5.5542417 67.434067 0.47222969 0
5.6042414 67.284065 0.3722297 0
5.1042414 66.884064 0.67222971 0
5.2542415 67.234062 0.6222297 0
5.1042414 67.384064 0.67222971 0
5.3542414 67.084068 0.6222297 0
5.5042415 66.934067 0.57222968 0
4.6542416 67.884064 -0.077770315 0
4.6542416 68.034065 -0.077770315 0
4.7042413 67.484062 -0.12777032 0
4.7042413 67.534065 -0.12777032 0
4.7042413 67.584068 -0.17777032 0
4.7042413 67.634064 -0.12777032 0
4.7042413 67.484062 -0.027770313 0
4.7042413 67.534065 0.12222969 0
4.7042413 67.634064 -0.027770313 0
4.8542414 67.484062 0.022229688 0
4.7042413 67.684067 -0.12777032 0
4.7042413 67.734062 -0.12777032 0
4.7042413 67.784065 -0.17777032 0
4.7042413 67.784065 -0.12777032 0
4.7042413 67.684067 -0.027770313 0
4.7042413 67.734062 0.12222969 0
4.7042413 67.784065 -0.027770313 0
4.7042413 67.784065 0.022229688 0
4.7042413 67.534065 0.2722297 0
4.7542415 67.534065 0.2722297 0
4.7042413 67.584068 0.17222969 0
4.7042413 67.634064 0.2722297 0
4.7042413 67.734062 0.2722297 0
4.7542415 67.684067 0.2722297 0
4.7042413 67.784065 0.17222969 0
4.7542415 67.784065 0.2722297 0
4.7042413 67.884064 -0.12777032 0
4.7042413 67.984062 -0.17777032 0
4.7042413 67.984062 -0.12777032 0
4.7042413 68.034065 -0.12777032 0
4.7042413 67.884064 -0.027770313 0
4.7042413 67.884064 0.12222969 0
4.7042413 68.034065 -0.027770313 0
4.7042413 68.034065 0.022229688 0
4.7042413 68.034065 0.12222969 0
4.7042413 68.084068 -0.12777032 0
4.7042413 68.134064 -0.12777032 0
4.7542415 68.134064 -0.077770315 0
4.7042413 68.184067 -0.17777032 0
4.7042413 68.234062 -0.12777032 0
4.7042413 68.184067 -0.027770313 0
4.7042413 68.184067 0.12222969 0
4.7042413 68.234062 0.072229691 0
4.7042413 67.884064 0.2722297 0
4.7042413 67.984062 0.2722297 0
4.8042417 67.884064 0.2722297 0
4.8542414 68.034065 0.2722297 0
4.7042413 68.134064 0.2722297 0
4.7042413 68.234062 0.2722297 0
4.8042417 68.134064 0.2722297 0
4.5542417 67.584068 0.82222968 0
4.6542416 67.934067 0.82222968 0
4.5042415 68.134064 0.8722297 0
4.8042417 67.784065 0.77222967 0
4.9542413 67.584068 0.72222972 0
4.6542416 68.384064 -0.12777032 0
4.6542416 68.384064 0.12222969 0
4.6542416 68.434067 0.072229691 0
4.6542416 68.534065 -0.12777032 0
4.6542416 68.634064 -0.077770315 0
4.6542416 68.534065 0.12222969 0
4.6542416 68.684067 -0.12777032 0
4.6542416 68.784065 -0.077770315 0
4.7042413 68.284065 -0.12777032 0
4.7042413 68.334068 -0.12777032 0
4.7042413 68.384064 -0.12777032 0
4.7042413 68.434067 -0.12777032 0
4.7042413 68.434067 -0.077770315 0
4.7042413 68.284065 -0.027770313 0
4.7042413 68.334068 0.12222969 0
4.7042413 68.434067 -0.027770313 0
4.7042413 68.534065 -0.12777032 0
4.7042413 68.584068 -0.17777032 0
4.8042417 68.634064 -0.17777032 0
4.7042413 68.484062 0.072229691 0
4.7042413 68.584068 -0.027770313 0
5.0042415 68.334068 0.072229691 0
4.7042413 68.334068 0.2722297 0
4.8542414 68.384064 0.2722297 0
4.7042413 68.484062 0.2722297 0
4.7042413 68.584068 0.2722297 0
4.8042417 68.534065 0.2722297 0
4.7042413 68.734062 -0.12777032 0
4.7042413 68.734062 -0.077770315 0
4.8042417 68.784065 -0.17777032 0
4.8042417 68.834068 -0.22777031 0
4.7042413 68.734062 -0.027770313 0
4.7042413 68.684067 0.072229691 0
4.8042417 68.734062 -0.027770313 0
4.8042417 68.734062 0.072229691 0
4.7042413 68.934067 -0.12777032 0
4.7542415 68.984062 -0.22777031 0
4.8042417 68.934067 -0.17777032 0
4.8042417 68.884064 -0.12777032 0
4.8042417 69.034065 -0.17777032 0
4.8042417 68.984062 -0.12777032 0
4.8042417 69.034065 -0.12777032 0
4.7042413 68.884064 -0.027770313 0
4.7542415 68.884064 0.022229688 0
4.7542415 68.984062 0.022229688 0
4.8042417 68.934067 -0.027770313 0
4.7042413 68.734062 0.2722297 0
4.7042413 68.834068 0.17222969 0
4.8042417 68.834068 0.22222969 0
4.7542415 68.984062 0.17222969 0
4.8042417 68.934067 0.22222969 0
4.8042417 69.034065 0.22222969 0
4.4042416 68.434067 0.92222971 0
4.3042417 68.384064 0.97222972 0
4.6042414 68.734062 0.82222968 0
5.0542417 68.984062 0.6222297 0
5.4542413 67.534065 0.17222969 0
5.4542413 67.634064 0.17222969 0
5.4542413 67.734062 0.22222969 0
5.2042413 68.184067 0.17222969 0
5.4542413 67.884064 0.22222969 0
5.4542413 67.934067 0.2722297 0
5.4542413 67.984062 0.22222969 0
5.4542413 68.134064 0.22222969 0
5.4542413 68.134064 0.2722297 0
5.5042415 67.634064 0.17222969 0
5.5042415 67.584068 0.32222968 0
5.5542417 67.534065 0.47222969 0
5.5542417 67.584068 0.3722297 0
5.5542417 67.584068 0.47222969 0
5.6042414 67.484062 0.42222971 0
5.5042415 67.684067 0.17222969 0
5.5042415 67.734062 0.32222968 0
5.5042415 67.784065 0.17222969 0
5.5542417 67.734062 0.3722297 0
5.5542417 67.684067 0.47222969 0
5.5542417 67.784065 0.42222971 0
5.5542417 67.784065 0.47222969 0
5.6042414 67.684067 0.42222971 0
5.5042415 67.934067 0.17222969 0
5.5542417 67.884064 0.42222971 0
5.5542417 67.884064 0.47222969 0
5.5542417 67.984062 0.42222971 0
5.5542417 67.984062 0.47222969 0
5.5042415 68.134064 0.22222969 0
5.5042415 68.184067 0.22222969 0
5.5542417 68.134064 0.42222971 0
5.5542417 68.134064 0.47222969 0
5.5542417 68.184067 0.42222971 0
5.5542417 68.234062 0.42222971 0
5.5542417 68.234062 0.47222969 0
5.1042414 68.584068 0.022229688 0
5.4042416 68.484062 0.12222969 0
5.4542413 68.584068 0.12222969 0
5.4542413 68.284065 0.22222969 0
5.4542413 68.384064 0.22222969 0
5.4542413 68.434067 0.22222969 0
5.4542413 68.384064 0.52222967 0
5.4542413 68.534065 0.22222969 0
5.4542413 68.634064 0.17222969 0
5.4542413 68.634064 0.22222969 0
5.3542414 68.534065 0.52222967 0
5.4542413 68.534065 0.47222969 0
5.4042416 68.734062 0.12222969 0
5.4542413 68.834068 0.12222969 0
5.4042416 68.934067 0.12222969 0
5.4042416 68.984062 0.12222969 0
5.4542413 68.784065 0.17222969 0
5.4542413 68.784065 0.2722297 0
5.4542413 68.934067 0.2722297 0
5.5042415 68.284065 0.22222969 0
5.5542417 68.434067 0.22222969 0
5.5542417 68.284065 0.42222971 0
5.5542417 68.334068 0.42222971 0
5.5042415 68.434067 0.42222971 0
5.5542417 68.384064 0.47222969 0
5.5042415 68.484062 0.22222969 0
5.5542417 68.534065 0.42222971 0
5.5542417 68.584068 0.42222971 0
5.5042415 68.684067 0.22222969 0
5.5542417 68.684067 0.22222969 0
5.5042415 68.784065 0.32222968 0
5.5042415 68.684067 0.3722297 0
5.5042415 68.684067 0.42222971 0
5.5042415 68.784065 0.42222971 0
5.5542417 68.784065 0.42222971 0
5.5042415 68.884064 0.2722297 0
5.5042415 68.934067 0.32222968 0
5.5042415 69.034065 0.2722297 0
5.5542417 68.984062 0.2722297 0
5.5042415 68.884064 0.42222971 0
5.5042415 68.984062 0.3722297 0
5.5042415 68.984062 0.42222971 0
5.1542416 68.784065 0.6222297 0
5.2542415 68.684067 0.57222968 0
5.2042413 68.884064 0.57222968 0
3.4042416 69.334068 1.2222297 0
3.1542416 69.584068 1.3222297 0
3.6542416 69.084068 1.1722296 0
3.7542415 69.784065 1.0722297 0
3.5542414 69.884064 1.1222297 0
3.7042415 70.084068 1.0722297 0
3.8042414 70.234062 1.0222297 0
3.6542416 70.634064 1.1222297 0
3.8542414 70.434067 1.0222297 0
4.2042413 70.034065 0.92222971 0
4.0542417 70.134064 0.97222972 0
4.0542417 70.234062 0.97222972 0
4.0542417 70.584068 0.92222971 0
4.2542415 70.484062 0.8722297 0
3.9542415 70.434067 0.97222972 0
2.9042416 69.884064 1.4222298 0
2.9542415 71.384064 1.3222297 0
3.0042415 71.384064 1.3222297 0
3.4542415 70.884064 1.1722296 0
3.2042415 71.134064 1.2722297 0
3.1542416 71.634064 1.2222297 0
3.2542415 71.834068 1.1722296 0
3.4042416 72.034065 1.1222297 0
4.1542416 70.784065 0.8722297 0
4.2542415 70.934067 0.82222968 0
3.5042415 71.634064 1.1222297 0
3.5542414 72.184067 1.0722297 0
3.7542415 71.984062 0.97222972 0
3.8542414 72.134064 0.97222972 0
4.1542416 71.734062 0.8722297 0
4.0042415 71.934067 0.92222971 0
2.8042414 71.184067 1.3722297 0
2.7042415 71.684067 1.4222298 0
4.8042417 69.134064 -0.12777032 0
4.8042417 69.134064 -0.077770315 0
4.8042417 69.184067 -0.17777032 0
4.8042417 69.234062 -0.12777032 0
4.7042413 69.084068 -0.027770313 0
4.7542415 69.134064 0.022229688 0
4.7042413 69.184067 0.12222969 0
4.8042417 69.084068 -0.027770313 0
4.8042417 69.234062 -0.027770313 0
4.7542415 69.284065 -0.17777032 0
4.7542415 69.384064 -0.17777032 0
4.8042417 69.284065 -0.12777032 0
4.8042417 69.334068 -0.077770315 0
4.8042417 69.384064 -0.12777032 0
4.8042417 69.434067 -0.12777032 0
4.7542415 69.284065 -0.027770313 0
4.7542415 69.384064 -0.027770313 0
4.7542415 69.434067 -0.027770313 0
4.8042417 69.334068 0.12222969 0
4.8042417 69.384064 0.022229688 0
5.0042415 69.284065 0.12222969 0
4.7542415 69.184067 0.22222969 0
4.8042417 69.084068 0.17222969 0
4.8042417 69.084068 0.22222969 0
4.8042417 69.184067 0.22222969 0
4.7542415 69.284065 0.22222969 0
4.7542415 69.334068 0.22222969 0
4.8042417 69.284065 0.17222969 0
4.8042417 69.434067 0.22222969 0
4.7542415 69.534065 -0.12777032 0
4.7542415 69.634064 -0.17777032 0
4.7542415 69.634064 -0.12777032 0
4.8042417 69.534065 -0.17777032 0
4.8042417 69.534065 0.022229688 0
4.8542414 69.534065 0.12222969 0
4.8042417 69.634064 0.072229691 0
4.7542415 69.784065 -0.17777032 0
4.7542415 69.784065 -0.077770315 0
4.8042417 69.684067 -0.12777032 0
4.8042417 69.684067 -0.077770315 0
4.8042417 69.684067 0.022229688 0
4.8042417 69.834068 0.022229688 0
4.8042417 69.484062 0.17222969 0
4.8042417 69.534065 0.22222969 0
4.7542415 69.684067 0.17222969 0
4.7542415 69.684067 0.22222969 0
4.7542415 69.784065 0.22222969 0
4.6542416 69.434067 0.77222967 0
4.3542414 69.834068 0.8722297 0
4.6542416 69.584068 0.72222972 0
4.5042415 69.634064 0.82222968 0
4.8542414 69.084068 0.72222972 0
4.8042417 69.284065 0.72222972 0
4.9042416 69.134064 0.67222971 0
4.9542413 69.184067 0.6222297 0
5.0542417 69.334068 0.6222297 0
4.7542415 69.884064 -0.17777032 0
4.7542415 70.034065 -0.17777032 0
4.7542415 70.034065 -0.077770315 0
4.8042417 69.884064 -0.077770315 0
4.8042417 69.934067 -0.077770315 0
4.8042417 70.034065 -0.22777031 0
4.7542415 69.984062 0.12222969 0
4.8042417 69.884064 0.072229691 0
4.8042417 69.984062 0.022229688 0
4.7542415 70.084068 -0.17777032 0
4.7542415 70.134064 -0.17777032 0
4.7542415 70.134064 -0.077770315 0
4.7542415 70.234062 -0.22777031 0
4.7542415 70.184067 -0.077770315 0
4.7542415 70.234062 -0.12777032 0
4.8042417 70.084068 -0.077770315 0
4.7542415 70.134064 0.022229688 0
4.7542415 70.134064 0.072229691 0
4.8042417 70.084068 0.022229688 0
5.0042415 69.984062 0.072229691 0
4.7542415 69.884064 0.22222969 0
4.7542415 70.034065 0.22222969 0
4.7542415 70.134064 0.22222969 0
4.7542415 70.284065 -0.17777032 0
4.7542415 70.334068 -0.077770315 0
4.7542415 70.384064 -0.17777032 0
4.7542415 70.434067 -0.22777031 0
4.7542415 70.384064 -0.12777032 0
4.8042417 70.334068 -0.22777031 0
4.8042417 70.334068 -0.077770315 0
4.8042417 70.384064 -0.22777031 0
4.7542415 70.284065 -0.027770313 0
4.7542415 70.284065 0.022229688 0
4.7542415 70.284065 0.072229691 0
4.7542415 70.434067 0.072229691 0
4.7542415 70.534065 -0.22777031 0
4.7542415 70.534065 -0.17777032 0
4.7542415 70.484062 -0.077770315 0
4.7542415 70.534065 -0.12777032 0
4.7542415 70.634064 -0.17777032 0
4.7542415 70.584068 -0.077770315 0
4.7542415 70.634064 -0.12777032 0
4.7542415 70.534065 -0.027770313 0
4.7542415 70.584068 0.022229688 0
4.7542415 70.634064 0.072229691 0
4.8042417 70.534065 -0.027770313 0
4.9042416 70.484062 -0.077770315 0
4.9042416 70.484062 0.022229688 0
5.0542417 70.584068 0.57222968 0
5.4542413 69.134064 0.022229688 0
5.4042416 69.084068 0.12222969 0
5.4042416 69.234062 0.12222969 0
5.4542413 69.184067 0.072229691 0
5.4542413 69.334068 0.072229691 0
5.4542413 69.384064 0.022229688 0
5.4042416 69.184067 0.17222969 0
5.4042416 69.334068 0.17222969 0
5.4542413 69.334068 0.2722297 0
5.4042416 69.434067 0.17222969 0
5.4542413 69.484062 0.072229691 0
5.4542413 69.634064 0.022229688 0
5.4042416 69.684067 0.12222969 0
5.4542413 69.834068 0.12222969 0
5.2042413 69.634064 0.52222967 0
5.4542413 69.484062 0.2722297 0
5.4042416 69.584068 0.17222969 0
5.4542413 69.584068 0.22222969 0
5.4042416 69.684067 0.17222969 0
5.4542413 69.734062 0.22222969 0
5.4042416 69.834068 0.17222969 0
5.4542413 69.834068 0.22222969 0
5.5042415 69.084068 0.32222968 0
5.5042415 69.134064 0.32222968 0
5.5042415 69.184067 0.2722297 0
5.5542417 69.234062 0.2722297 0
5.5542417 69.134064 0.42222971 0
5.5042415 69.234062 0.42222971 0
5.5042415 69.284065 0.2722297 0
5.5042415 69.334068 0.2722297 0
5.5042415 69.334068 0.32222968 0
5.5542417 69.434067 0.2722297 0
5.5542417 69.334068 0.42222971 0
5.5542417 69.434067 0.42222971 0
5.5042415 69.484062 0.2722297 0
5.5542417 69.534065 0.2722297 0
5.5042415 69.584068 0.2722297 0
5.5542417 69.634064 0.32222968 0
5.5042415 69.584068 0.42222971 0
5.5042415 69.684067 0.2722297 0
5.5042415 69.734062 0.32222968 0
5.5042415 69.684067 0.42222971 0
5.5042415 69.784065 0.42222971 0
5.4542413 69.884064 0.072229691 0
5.4542413 70.034065 0.12222969 0
5.4042416 70.134064 0.072229691 0
5.4542413 70.134064 0.072229691 0
5.4542413 70.184067 0.12222969 0
5.4042416 69.934067 0.17222969 0
5.4542413 70.034065 0.22222969 0
5.3542414 70.034065 0.47222969 0
5.4542413 69.934067 0.42222971 0
5.4042416 69.884064 0.47222969 0
5.4042416 70.084068 0.17222969 0
5.4542413 70.184067 0.17222969 0
5.4542413 70.234062 0.17222969 0
5.3042417 70.184067 0.47222969 0
5.4042416 70.284065 0.072229691 0
5.4042416 70.384064 0.072229691 0
5.4542413 70.384064 0.072229691 0
5.4542413 70.384064 0.12222969 0
5.4042416 70.484062 0.072229691 0
5.4042416 70.484062 0.12222969 0
5.4042416 70.534065 0.12222969 0
5.4042416 70.634064 0.072229691 0
5.4042416 70.634064 0.12222969 0
5.1542416 70.434067 0.52222967 0
5.2042413 70.334068 0.52222967 0
5.4042416 70.334068 0.17222969 0
5.4042416 70.384064 0.17222969 0
5.4542413 70.484062 0.22222969 0
5.4542413 70.534065 0.17222969 0
5.4542413 70.584068 0.22222969 0
5.5042415 69.884064 0.32222968 0
5.5542417 69.884064 0.32222968 0
5.5042415 70.034065 0.32222968 0
5.5042415 70.184067 0.32222968 0
5.5042415 70.084068 0.42222971 0
5.5042415 70.234062 0.3722297 0
5.5042415 70.634064 0.12222969 0
5.5042415 70.334068 0.32222968 0
5.5042415 70.384064 0.3722297 0
5.5042415 70.534065 0.32222968 0
5.5042415 70.484062 0.3722297 0
5.5042415 70.534065 0.3722297 0
5.5042415 70.634064 0.3722297 0
4.7542415 70.684067 -0.22777031 0
4.7542415 70.734062 -0.077770315 0
4.7542415 70.784065 -0.17777032 0
4.7542415 70.784065 -0.12777032 0
4.8042417 70.684067 -0.22777031 0
4.7542415 70.734062 0.022229688 0
4.7542415 70.784065 0.072229691 0
4.8042417 70.784065 -0.027770313 0
4.7542415 70.884064 -0.22777031 0
4.7542415 70.884064 -0.17777032 0
4.7542415 70.884064 -0.077770315 0
4.7542415 70.934067 -0.077770315 0
4.7542415 71.034065 -0.17777032 0
4.7542415 71.034065 -0.077770315 0
4.8042417 71.034065 -0.17777032 0
4.7542415 70.884064 0.022229688 0
4.7542415 70.934067 0.072229691 0
4.7542415 71.034065 -0.027770313 0
4.8042417 71.034065 -0.027770313 0
4.9042416 70.984062 -0.17777032 0
4.9042416 70.934067 -0.027770313 0
4.7042413 71.134064 -0.17777032 0
4.7542415 71.084068 -0.17777032 0
4.7542415 71.134064 -0.17777032 0
4.7542415 71.134064 -0.12777032 0
4.7542415 71.134064 0.072229691 0
4.7542415 71.184067 -0.027770313 0
4.8042417 71.234062 -0.027770313 0
4.7042413 71.284065 -0.17777032 0
4.7542415 71.284065 -0.17777032 0
4.7542415 71.334068 -0.17777032 0
4.7542415 71.334068 -0.12777032 0
4.7042413 71.434067 -0.22777031 0
4.7542415 71.384064 -0.17777032 0
4.7542415 71.434067 -0.077770315 0
4.8042417 71.334068 -0.17777032 0
4.8542414 71.384064 -0.22777031 0
4.7542415 71.334068 -0.027770313 0
4.7542415 71.284065 0.12222969 0
4.7542415 71.434067 0.12222969 0
5.0042415 71.134064 0.072229691 0
5.0542417 71.234062 -0.027770313 0
4.9042416 71.284065 -0.077770315 0
4.7542415 71.134064 0.17222969 0
4.5042415 70.834068 0.77222967 0
4.4542413 71.234062 0.72222972 0
4.3542414 71.084068 0.77222967 0
4.6042414 71.234062 0.72222972 0
4.5042415 71.384064 0.72222972 0
4.5042415 71.384064 0.77222967 0
4.8542414 70.884064 0.6222297 0
4.9542413 70.734062 0.6222297 0
4.7042413 71.084068 0.67222971 0
4.7042413 71.134064 0.67222971 0
4.9042416 71.384064 0.57222968 0
4.7042413 71.534065 -0.22777031 0
4.7542415 71.484062 -0.17777032 0
4.7542415 71.534065 -0.17777032 0
4.7542415 71.584068 -0.077770315 0
4.7542415 71.484062 -0.027770313 0
4.7542415 71.484062 0.12222969 0
4.7542415 71.634064 -0.027770313 0
4.7542415 71.634064 0.12222969 0
4.7042413 71.684067 -0.22777031 0
4.7042413 71.684067 -0.17777032 0
4.7542415 71.684067 -0.17777032 0
4.7542415 71.734062 -0.17777032 0
4.7542415 71.734062 -0.077770315 0
4.7542415 71.784065 -0.22777031 0
4.7042413 71.784065 -0.12777032 0
4.8042417 71.734062 -0.17777032 0
4.7542415 71.784065 -0.027770313 0
4.7542415 71.834068 -0.027770313 0
4.8542414 71.784065 0.072229691 0
4.9042416 71.684067 -0.17777032 0
5.0042415 71.684067 0.072229691 0
5.0042415 71.834068 -0.027770313 0
4.7042413 71.934067 -0.22777031 0
4.7542415 71.884064 -0.22777031 0
4.7042413 71.884064 -0.12777032 0
4.7042413 71.934067 -0.12777032 0
4.7542415 71.934067 -0.12777032 0
4.7542415 71.984062 -0.12777032 0
4.7042413 71.934067 -0.027770313 0
4.7542415 71.934067 0.022229688 0
4.7542415 72.034065 -0.027770313 0
4.7542415 72.084068 -0.22777031 0
4.7042413 72.084068 -0.12777032 0
4.7042413 72.134064 -0.12777032 0
4.7042413 72.234062 -0.12777032 0
4.7542415 72.184067 -0.12777032 0
4.7542415 72.234062 -0.077770315 0
4.8542414 72.084068 -0.22777031 0
4.7542415 72.084068 0.022229688 0
4.7542415 72.234062 0.022229688 0
4.9042416 71.884064 0.022229688 0
4.8542414 72.084068 0.52222967 0
4.9042416 72.234062 0.52222967 0
4.3042417 71.584068 0.82222968 0
4.6042414 71.534065 0.67222971 0
4.6542416 71.684067 0.6222297 0
4.7542415 71.834068 0.6222297 0
4.8042417 71.934067 0.57222968 0
5.1042414 70.684067 0.12222969 0
5.2542415 70.684067 0.12222969 0
5.3042417 70.734062 -0.027770313 0
5.3542414 70.734062 0.072229691 0
5.4042416 70.684067 0.12222969 0
5.4042416 70.734062 0.12222969 0
5.4542413 70.684067 0.12222969 0
5.4042416 70.834068 0.12222969 0
5.3542414 70.884064 0.072229691 0
5.3542414 70.934067 0.12222969 0
5.4042416 70.884064 0.072229691 0
5.4042416 70.984062 0.072229691 0
5.4042416 71.034065 0.072229691 0
5.4542413 70.734062 0.17222969 0
5.4542413 70.734062 0.22222969 0
5.4542413 70.684067 0.32222968 0
5.4542413 70.834068 0.32222968 0
5.4542413 70.884064 0.22222969 0
5.4542413 70.934067 0.17222969 0
5.4542413 70.934067 0.2722297 0
5.4542413 70.984062 0.22222969 0
5.3042417 70.934067 0.47222969 0
5.3542414 71.084068 0.12222969 0
5.3542414 71.184067 0.022229688 0
5.3542414 71.234062 0.072229691 0
5.3542414 71.234062 0.12222969 0
5.4042416 71.084068 0.072229691 0
5.4042416 71.334068 -0.077770315 0
5.3542414 71.334068 0.022229688 0
5.3542414 71.384064 0.022229688 0
5.3542414 71.434067 0.072229691 0
5.4042416 71.334068 0.072229691 0
5.4042416 71.334068 0.12222969 0
5.4542413 71.134064 0.22222969 0
5.4542413 71.084068 0.2722297 0
5.4542413 71.234062 0.2722297 0
5.4542413 71.284065 0.22222969 0
5.4542413 71.334068 0.22222969 0
5.4542413 71.334068 0.2722297 0
5.4542413 71.434067 0.2722297 0
5.5042415 70.934067 0.12222969 0
5.5042415 70.734062 0.32222968 0
5.5042415 70.934067 0.32222968 0
5.5042415 71.184067 0.12222969 0
5.5042415 71.134064 0.17222969 0
5.5042415 71.134064 0.2722297 0
5.5042415 71.334068 0.22222969 0
5.2042413 71.484062 -0.22777031 0
5.1542416 71.834068 -0.027770313 0
5.2042413 71.684067 0.072229691 0
5.4042416 71.584068 -0.077770315 0
5.3542414 71.534065 0.022229688 0
5.3542414 71.484062 0.12222969 0
5.3542414 71.584068 0.022229688 0
5.3542414 71.584068 0.072229691 0
5.3542414 71.584068 0.12222969 0
5.3542414 71.684067 0.022229688 0
5.3542414 71.734062 0.12222969 0
5.3542414 71.834068 0.022229688 0
5.4042416 71.834068 -0.027770313 0
5.4042416 71.834068 0.12222969 0
5.1042414 71.684067 0.47222969 0
5.4542413 71.484062 0.22222969 0
5.4542413 71.534065 0.22222969 0
5.4542413 71.534065 0.2722297 0
5.4542413 71.634064 0.17222969 0
5.4042416 71.734062 0.17222969 0
5.4542413 71.684067 0.17222969 0
5.4542413 71.684067 0.2722297 0
5.4542413 71.834068 0.2722297 0
5.1542416 71.984062 -0.077770315 0
5.3542414 71.884064 0.022229688 0
5.3542414 71.934067 0.022229688 0
5.3542414 72.034065 0.022229688 0
5.3542414 71.984062 0.12222969 0
5.4042416 72.034065 0.072229691 0
5.4542413 72.034065 0.12222969 0
5.3542414 72.184067 -0.027770313 0
5.3542414 72.234062 0.12222969 0
5.4042416 72.084068 -0.027770313 0
5.4042416 72.084068 0.12222969 0
5.4042416 72.134064 0.12222969 0
5.4042416 72.184067 0.12222969 0
5.4042416 72.234062 0.072229691 0
5.4042416 72.234062 0.12222969 0
5.2542415 71.934067 0.42222971 0
5.4042416 71.884064 0.17222969 0
5.4542413 71.884064 0.17222969 0
5.4042416 71.984062 0.17222969 0
5.4542413 71.984062 0.32222968 0
5.4542413 72.134064 0.32222968 0
5.4042416 72.184067 0.32222968 0
5.5042415 71.534065 0.072229691 0
5.5042415 71.484062 0.17222969 0
5.5042415 71.734062 0.17222969 0
5.5042415 71.734062 0.22222969 0
5.5542417 72.184067 0.022229688 0
5.5042415 71.934067 0.2722297 0
5.5542417 72.034065 0.22222969 0
-3.0957587 72.284065 -0.22777031 0
-3.0457587 72.334068 -0.22777031 0
-2.9457586 72.434067 -0.17777032 0
-3.0957587 72.284065 0.022229688 0
-2.9457586 72.434067 0.072229691 0
-2.9457586 72.484062 0.12222969 0
-3.0957587 72.284065 0.17222969 0
-3.0457587 72.334068 0.22222969 0
-3.0957587 72.284065 0.2722297 0
-2.9957585 72.434067 0.52222967 0
-2.9457586 72.484062 0.22222969 0
-2.9457586 72.484062 0.3722297 0
-3.1457586 72.284065 0.57222968 0
-3.1957586 72.284065 0.92222971 0
-3.0957587 72.334068 0.67222971 0
-3.0457587 72.384064 0.72222972 0
-3.0957587 72.334068 0.77222967 0
-3.0457587 72.384064 0.8722297 0
-2.9457586 72.484062 0.6222297 0
-2.9457586 72.484062 0.72222972 0
-2.9457586 72.534065 0.8722297 0
-3.1457586 72.284065 1.0722297 0
-3.1957586 72.284065 1.2722297 0
-3.0957587 72.384064 1.1222297 0
-3.0457587 72.434067 1.0722297 0
-3.0957587 72.334068 1.2722297 0
-3.0957587 72.334068 1.3222297 0
-3.0457587 72.384064 1.2222297 0
-2.9457586 72.484062 0.97222972 0
-2.9457586 72.534065 1.0722297 0
-2.9457586 72.534065 1.2222297 0
-2.8957586 72.534065 -0.12777032 0
-2.7957587 72.584068 -0.17777032 0
-2.7957587 72.584068 0.022229688 0
-2.7957587 72.584068 0.12222969 0
-2.8957586 72.484062 0.22222969 0
-2.8457587 72.634064 0.32222968 0
-2.7957587 72.584068 0.17222969 0
-2.7957587 72.584068 0.47222969 0
-2.6957586 72.684067 -0.17777032 0
-2.5957587 72.834068 -0.22777031 0
-2.6457586 72.734062 -0.027770313 0
-2.6957586 72.734062 0.072229691 0
-2.6957586 72.734062 0.12222969 0
-2.5957587 72.834068 0.12222969 0
-2.5457587 72.884064 -0.077770315 0
-2.5457587 72.884064 0.022229688 0
-2.6957586 72.734062 0.17222969 0
-2.6957586 72.734062 0.32222968 0
-2.5957587 72.834068 0.2722297 0
-2.6957586 72.734062 0.52222967 0
-2.6457586 72.784065 0.42222971 0
-2.5457587 72.934067 0.3722297 0
-2.5457587 72.884064 0.52222967 0
-2.4957585 72.934067 -0.22777031 0
-2.3957586 73.034065 -0.22777031 0
-2.3957586 73.034065 -0.12777032 0
-2.4957585 72.934067 0.072229691 0
-2.4457586 72.984062 0.022229688 0
-2.4457586 72.984062 0.12222969 0
-2.4957585 72.934067 0.2722297 0
-2.4457586 73.034065 0.47222969 0
-2.8957586 72.534065 0.67222971 0
-2.7957587 72.634064 0.57222968 0
-2.7957587 72.634064 0.67222971 0
-2.8457587 72.634064 0.82222968 0
-2.7957587 72.634064 0.92222971 0
-2.7957587 72.634064 1.0722297 0
-2.8957586 72.534065 1.2222297 0
-2.7957587 72.634064 1.1722296 0
-2.6957586 72.734062 0.6222297 0
-2.6957586 72.734062 0.82222968 0
-2.6457586 72.784065 0.8722297 0
-2.5957587 72.884064 0.6222297 0
-2.5957587 72.884064 0.77222967 0
-2.5457587 72.934067 0.82222968 0
-2.8457587 72.684067 1.3222297 0
-2.6957586 72.784065 1.0222297 0
-2.6957586 72.784065 1.1222297 0
-2.6957586 72.784065 1.3222297 0
-2.5957587 72.884064 1.0222297 0
-2.5457587 72.934067 0.97222972 0
-2.5957587 72.884064 1.1222297 0
-2.5957587 72.884064 1.2722297 0
-2.4957585 72.934067 0.57222968 0
-2.4457586 72.984062 0.57222968 0
-2.4957585 72.984062 0.77222967 0
-2.4457586 73.034065 0.92222971 0
-2.4957585 72.984062 1.0222297 0
-2.4457586 72.984062 0.97222972 0
-2.4457586 73.034065 1.0722297 0
-2.4957585 73.034065 1.2722297 0
-2.3457587 73.134064 0.022229688 0
-2.3457587 73.084068 0.072229691 0
-2.2457585 73.184067 -0.12777032 0
-2.2957587 73.134064 -0.027770313 0
-2.2457585 73.184067 0.072229691 0
-2.1957586 73.234062 -0.027770313 0
-2.1457586 73.334068 -0.12777032 0
-2.1457586 73.284065 -0.027770313 0
-2.1457586 73.334068 0.022229688 0
-2.3957586 73.084068 0.22222969 0
-2.3957586 73.084068 0.32222968 0
-2.2457585 73.184067 0.22222969 0
-2.2457585 73.234062 0.2722297 0
-2.2957587 73.134064 0.42222971 0
-2.2457585 73.234062 0.42222971 0
-2.2957587 73.184067 0.47222969 0
-2.2457585 73.234062 0.52222967 0
-2.1457586 73.284065 0.22222969 0
-2.1957586 73.284065 0.3722297 0
-2.1457586 73.334068 0.42222971 0
-2.1457586 73.334068 0.52222967 0
-2.3457587 73.084068 0.57222968 0
-2.3957586 73.084068 0.72222972 0
-2.3957586 73.134064 0.77222967 0
-2.2457585 73.234062 0.72222972 0
-2.2957587 73.184067 0.8722297 0
-2.1457586 73.334068 0.72222972 0
-2.1957586 73.334068 0.82222968 0
-2.1457586 73.384064 0.8722297 0
-2.1457586 73.384064 0.92222971 0
-2.3457587 73.134064 0.97222972 0
-2.3457587 73.134064 1.0222297 0
-2.3957586 73.134064 1.2722297 0
-2.2957587 73.184067 0.97222972 0
-2.2457585 73.234062 0.97222972 0
-2.2457585 73.234062 1.2222297 0
-2.2457585 73.284065 1.0222297 0
-2.1457586 73.384064 0.97222972 0
-2.1457586 73.384064 1.1722296 0
-3.6957586 72.484062 1.8222297 0
-3.5957587 72.634064 1.8722297 0
-3.1957586 72.284065 1.4222298 0
-3.1957586 72.334068 1.6722298 0
-3.0457587 72.434067 1.3722297 0
-3.0457587 72.434067 1.6722298 0
-2.9457586 72.534065 1.3722297 0
-2.9457586 72.584068 1.6722298 0
-3.2457585 72.984062 2.1222298 0
-3.6457586 72.634064 2.1722298 0
-3.4957585 72.734062 2.1722298 0
-3.3957586 72.884064 2.1722298 0
-3.1457586 73.134064 2.1222298 0
-2.5957587 72.934067 1.5722297 0
-2.4957585 73.034065 1.5222297 0
-2.3457587 73.184067 1.5222297 0
-2.2457585 73.284065 1.4722297 0
-2.1457586 73.384064 1.4722297 0
-2.0957587 73.334068 -0.17777032 0
-2.0957587 73.384064 -0.077770315 0
-2.0457585 73.434067 -0.12777032 0
-1.9957587 73.434067 0.022229688 0
-2.0957587 73.334068 0.2722297 0
-2.0457585 73.434067 0.17222969 0
-2.0957587 73.384064 0.3722297 0
-2.0457585 73.434067 0.42222971 0
-1.9957587 73.434067 0.47222969 0
-1.9957587 73.484062 -0.22777031 0
-1.9457586 73.484062 -0.12777032 0
-1.9457586 73.484062 -0.077770315 0
-1.8957586 73.534065 -0.12777032 0
-1.8457586 73.634064 -0.12777032 0
-1.7957586 73.634064 -0.12777032 0
-1.8957586 73.534065 0.022229688 0
-1.7457587 73.734062 -0.17777032 0
-1.7957586 73.684067 -0.12777032 0
-1.7957586 73.684067 -0.027770313 0
-1.7457587 73.734062 0.12222969 0
-1.7457587 73.784065 0.12222969 0
-1.9957587 73.484062 0.22222969 0
-1.9457586 73.534065 0.17222969 0
-1.9457586 73.534065 0.32222968 0
-1.9457586 73.484062 0.3722297 0
-1.8457586 73.634064 0.17222969 0
-1.8457586 73.634064 0.32222968 0
-1.8957586 73.584068 0.3722297 0
-1.8957586 73.584068 0.47222969 0
-1.7957586 73.734062 0.32222968 0
-1.7457587 73.784065 0.2722297 0
-1.7957586 73.684067 0.3722297 0
-1.7957586 73.684067 0.42222971 0
-1.7457587 73.784065 0.52222967 0
-1.6957586 73.784065 -0.17777032 0
-1.6457586 73.834068 -0.17777032 0
-1.6957586 73.784065 -0.027770313 0
-1.6957586 73.784065 0.3722297 0
-1.6957586 73.784065 0.42222971 0
-2.0957587 73.384064 0.67222971 0
-2.0457585 73.434067 0.67222971 0
-2.0957587 73.434067 0.82222968 0
-1.9957587 73.534065 0.6222297 0
-1.9457586 73.534065 0.67222971 0
-2.0457585 73.484062 0.92222971 0
-1.9457586 73.534065 0.77222967 0
-1.9457586 73.534065 0.82222968 0
-1.8457586 73.634064 0.57222968 0
-1.8957586 73.584068 0.92222971 0
-1.8457586 73.684067 0.6222297 0
-1.8457586 73.684067 0.72222972 0
-1.7957586 73.734062 0.6222297 0
-1.7457587 73.784065 0.6222297 0
-1.7457587 73.784065 0.72222972 0
-1.7957586 73.734062 0.77222967 0
-1.7957586 73.734062 0.8722297 0
-1.9957587 73.484062 0.97222972 0
-2.0457585 73.484062 1.1722296 0
-1.9457586 73.584068 1.1722296 0
-1.8957586 73.634064 1.2222297 0
-1.8457586 73.684067 1.1222297 0
-1.7457587 73.834068 1.1222297 0
-1.7957586 73.784065 1.2222297 0
-1.6957586 73.834068 0.8722297 0
-2.0457585 73.484062 1.4722297 0
-1.9457586 73.634064 1.4222298 0
-1.7957586 73.734062 1.4222298 0
-1.8957586 73.684067 1.8222297 0
-1.7957586 73.784065 1.7722297 0
-1.6957586 73.834068 1.4222298 0
-1.5957586 73.884064 -0.17777032 0
-1.5957586 73.884064 -0.077770315 0
-1.5457586 73.984062 -0.22777031 0
-1.6457586 73.884064 0.12222969 0
-1.5957586 73.884064 0.072229691 0
-1.5457586 73.934067 0.072229691 0
-1.5457586 73.984062 0.12222969 0
-1.4957587 73.984062 -0.22777031 0
-1.4957587 73.984062 -0.17777032 0
-1.4957587 73.984062 -0.077770315 0
-1.4957587 74.034065 0.072229691 0
-1.4457586 74.034065 0.072229691 0
-1.3957586 74.084068 -0.22777031 0
-1.3957586 74.134064 -0.17777032 0
-1.3957586 74.084068 -0.077770315 0
-1.4457586 74.084068 0.072229691 0
-1.3957586 74.134064 0.022229688 0
-1.3457586 74.184067 0.072229691 0
-1.6457586 73.884064 0.22222969 0
-1.6457586 73.884064 0.2722297 0
-1.5957586 73.934067 0.32222968 0
-1.5957586 73.884064 0.3722297 0
-1.5957586 73.934067 0.47222969 0
-1.4957587 73.984062 0.22222969 0
-1.4957587 74.034065 0.22222969 0
-1.4957587 74.034065 0.32222968 0
-1.4957587 74.034065 0.3722297 0
-1.4957587 74.034065 0.47222969 0
-1.3957586 74.084068 0.17222969 0
-1.3957586 74.134064 0.32222968 0
-1.3457586 74.184067 0.17222969 0
-1.3457586 74.134064 0.42222971 0
-1.6957586 73.884064 0.6222297 0
-1.6457586 73.884064 0.6222297 0
-1.6457586 73.884064 0.67222971 0
-1.5457586 73.984062 0.57222968 0
-1.5457586 73.984062 0.6222297 0
-1.5957586 73.934067 0.82222968 0
-1.5957586 73.934067 0.8722297 0
-1.4957587 74.034065 0.6222297 0
-1.4957587 74.034065 0.82222968 0
-1.4957587 74.084068 0.6222297 0
-1.4457586 74.084068 0.6222297 0
-1.4457586 74.134064 0.57222968 0
-1.3957586 74.134064 0.6222297 0
-1.3457586 74.234062 0.57222968 0
-1.4957587 74.084068 0.8722297 0
-1.3957586 74.134064 0.77222967 0
-1.3957586 74.184067 0.82222968 0
-1.6457586 73.884064 1.0722297 0
-1.5457586 74.034065 1.0722297 0
-1.6957586 73.884064 1.2222297 0
-1.5457586 74.034065 1.1722296 0
-1.4457586 74.134064 1.0722297 0
-1.3457586 74.234062 1.0222297 0
-1.4457586 74.134064 1.1722296 0
-1.2457585 74.184067 -0.17777032 0
-1.2957586 74.184067 -0.12777032 0
-1.1457586 74.184067 -0.12777032 0
-1.2457585 74.184067 0.022229688 0
-1.2957586 74.184067 0.072229691 0
-1.1457586 74.184067 -0.027770313 0
-1.1457586 74.184067 0.072229691 0
-1.0457586 74.184067 -0.22777031 0
-1.0457586 74.184067 -0.17777032 0
-0.94575858 74.184067 -0.22777031 0
-0.99575859 74.184067 -0.077770315 0
-1.0457586 74.234062 -0.027770313 0
-1.0957586 74.184067 0.072229691 0
-0.99575859 74.234062 0.12222969 0
-1.2957586 74.184067 0.17222969 0
-1.2957586 74.234062 0.32222968 0
-1.2457585 74.234062 0.32222968 0
-1.1957586 74.234062 0.17222969 0
-1.1457586 74.234062 0.32222968 0
-1.2457585 74.234062 0.42222971 0
-1.1457586 74.234062 0.42222971 0
-1.0457586 74.234062 0.17222969 0
-0.94575858 74.234062 0.17222969 0
-1.0457586 74.234062 0.3722297 0
-0.99575859 74.184067 0.3722297 0
-0.84575856 74.184067 -0.12777032 0
-0.84575856 74.184067 -0.077770315 0
-0.79575861 74.184067 -0.22777031 0
-0.74575859 74.184067 -0.077770315 0
-0.89575857 74.184067 -0.027770313 0
-0.89575857 74.184067 0.12222969 0
-0.84575856 74.234062 0.12222969 0
-0.79575861 74.184067 0.022229688 0
-0.69575858 74.184067 -0.22777031 0
-0.64575857 74.184067 -0.12777032 0
-0.54575861 74.184067 -0.22777031 0
-0.59575856 74.184067 -0.077770315 0
-0.69575858 74.184067 0.022229688 0
-0.69575858 74.184067 0.12222969 0
-0.54575861 74.234062 0.022229688 0
-0.79575861 74.234062 0.17222969 0
-0.89575857 74.234062 0.42222971 0
-0.84575856 74.234062 0.3722297 0
-0.79575861 74.234062 0.3722297 0
-0.74575859 74.234062 0.3722297 0
-0.69575858 74.234062 0.17222969 0
-0.54575861 74.234062 0.17222969 0
-0.69575858 74.234062 0.42222971 0
-0.64575857 74.234062 0.3722297 0
-0.59575856 74.234062 0.3722297 0
-0.54575861 74.234062 0.42222971 0
-0.54575861 74.334068 -0.22777031 0
-0.54575861 74.384064 0.42222971 0
-1.2957586 74.234062 0.57222968 0
-1.2957586 74.234062 0.6222297 0
-1.1957586 74.234062 0.57222968 0
-1.2957586 74.234062 0.77222967 0
-1.2457585 74.234062 0.82222968 0
-1.1457586 74.234062 0.77222967 0
-1.0957586 74.234062 0.6222297 0
-1.0457586 74.234062 0.57222968 0
-0.99575859 74.234062 0.57222968 0
-0.94575858 74.234062 0.6222297 0
-1.0457586 74.234062 0.8722297 0
-0.99575859 74.234062 0.82222968 0
-1.2957586 74.234062 1.1722296 0
-1.1957586 74.284065 1.0722297 0
-0.99575859 74.284065 1.0722297 0
-1.0957586 74.284065 1.2222297 0
-0.84575856 74.234062 0.6222297 0
-0.89575857 74.234062 0.67222971 0
-0.79575861 74.234062 0.6222297 0
-0.84575856 74.234062 0.82222968 0
-0.84575856 74.234062 0.8722297 0
-0.74575859 74.234062 0.82222968 0
-0.69575858 74.234062 0.6222297 0
-0.54575861 74.234062 0.6222297 0
-0.64575857 74.234062 0.92222971 0
-0.59575856 74.234062 0.8722297 0
-0.89575857 74.234062 1.2222297 0
-0.84575856 74.284065 1.0722297 0
-0.69575858 74.284065 1.1222297 0
-0.54575861 74.284065 1.1222297 0
-0.54575861 74.434067 1.0722297 0
-1.5957586 73.984062 1.3722297 0
-1.4957587 74.084068 1.3722297 0
-1.3957586 74.184067 1.3722297 0
-1.6957586 73.934067 1.7722297 0
-1.5457586 74.034065 1.7722297 0
-1.4457586 74.184067 1.7722297 0
-1.3457586 74.284065 1.7222297 0
-1.2457585 74.284065 1.3722297 0
-1.0457586 74.284065 1.4222298 0
-1.0957586 74.284065 1.7722297 0
-0.84575856 74.284065 1.4222298 0
-0.64575857 74.284065 1.4722297 0
-0.89575857 74.284065 1.8222297 0
0.70424145 73.234062 2.0722296 0
1.0042415 73.584068 1.9722297 0
-0.44575858 74.184067 -0.22777031 0
-0.44575858 74.184067 -0.12777032 0
-0.44575858 74.184067 -0.027770313 0
-0.44575858 74.234062 0.022229688 0
-0.34575859 74.234062 0.022229688 0
-0.29575858 74.184067 -0.22777031 0
-0.24575858 74.184067 -0.077770315 0
-0.14575857 74.184067 -0.22777031 0
-0.29575858 74.184067 -0.027770313 0
-0.19575858 74.234062 0.022229688 0
-0.14575857 74.184067 -0.027770313 0
-0.49575859 74.234062 0.17222969 0
-0.44575858 74.234062 0.22222969 0
-0.34575859 74.234062 0.17222969 0
-0.44575858 74.234062 0.42222971 0
-0.34575859 74.234062 0.42222971 0
-0.29575858 74.234062 0.22222969 0
-0.14575857 74.234062 0.17222969 0
-0.14575857 74.234062 0.22222969 0
-0.29575858 74.234062 0.42222971 0
-0.24575858 74.234062 0.42222971 0
-0.19575858 74.234062 0.42222971 0
-0.14575857 74.234062 0.42222971 0
-0.34575859 74.384064 -0.17777032 0
-0.045758575 74.234062 -0.17777032 0
-0.045758575 74.184067 -0.077770315 0
-0.095758572 74.234062 0.022229688 0
0.0042414274 74.234062 -0.027770313 0
0.0042414274 74.234062 0.022229688 0
0.10424143 74.234062 -0.17777032 0
0.20424142 74.234062 -0.17777032 0
0.15424143 74.184067 -0.027770313 0
0.15424143 74.234062 0.022229688 0
0.25424144 74.234062 0.022229688 0
-0.045758575 74.234062 0.22222969 0
0.0042414274 74.234062 0.22222969 0
-0.095758572 74.234062 0.42222971 0
-0.045758575 74.234062 0.47222969 0
0.0042414274 74.234062 0.42222971 0
0.10424143 74.234062 0.22222969 0
0.20424142 74.234062 0.22222969 0
0.25424144 74.234062 0.22222969 0
0.15424143 74.234062 0.42222971 0
0.15424143 74.234062 0.47222969 0
0.054241426 74.384064 -0.22777031 0
-0.095758572 74.384064 0.3722297 0
-0.49575859 74.234062 0.6222297 0
-0.44575858 74.234062 0.6222297 0
-0.34575859 74.234062 0.67222971 0
-0.44575858 74.234062 0.8722297 0
-0.29575858 74.234062 0.6222297 0
-0.14575857 74.234062 0.67222971 0
-0.29575858 74.234062 0.8722297 0
-0.44575858 74.234062 0.97222972 0
-0.24575858 74.234062 0.97222972 0
-0.14575857 74.284065 0.8722297 0
-0.34575859 74.284065 1.1722296 0
-0.19575858 74.284065 1.1722296 0
0.0042414274 74.234062 0.72222972 0
0.10424143 74.234062 0.67222971 0
0.20424142 74.234062 0.72222972 0
0.25424144 74.234062 0.67222971 0
-0.045758575 74.234062 1.0222297 0
-0.045758575 74.284065 0.67222971 0
0.0042414274 74.284065 0.92222971 0
0.15424143 74.284065 0.92222971 0
-0.045758575 74.434067 1.0222297 0
0.0042414274 74.284065 1.2222297 0
0.15424143 74.284065 1.0222297 0
0.20424142 74.284065 1.2222297 0
0.35424143 74.184067 -0.22777031 0
0.35424143 74.234062 -0.17777032 0
0.30424142 74.234062 0.022229688 0
0.35424143 74.184067 -0.027770313 0
0.40424144 74.234062 0.022229688 0
0.45424142 74.234062 0.022229688 0
0.50424141 74.184067 -0.17777032 0
0.55424142 74.234062 -0.22777031 0
0.65424144 74.234062 -0.17777032 0
0.60424143 74.234062 0.022229688 0
0.35424143 74.234062 0.2722297 0
0.30424142 74.234062 0.47222969 0
0.35424143 74.234062 0.52222967 0
0.45424142 74.234062 0.47222969 0
0.50424141 74.234062 0.2722297 0
0.55424142 74.234062 0.2722297 0
0.65424144 74.234062 0.52222967 0
0.40424144 74.284065 -0.12777032 0
0.40424144 74.384064 -0.22777031 0
0.35424143 74.384064 0.2722297 0
0.70424145 74.234062 -0.22777031 0
0.75424147 74.234062 -0.12777032 0
0.80424142 74.184067 0.022229688 0
0.80424142 74.234062 0.072229691 0
0.90424144 74.184067 -0.17777032 0
0.90424144 74.234062 -0.12777032 0
1.0542414 74.234062 -0.12777032 0
0.95424145 74.234062 0.072229691 0
1.0542414 74.234062 0.072229691 0
0.70424145 74.234062 0.2722297 0
0.80424142 74.234062 0.52222967 0
0.90424144 74.234062 0.32222968 0
0.95424145 74.234062 0.52222967 0
0.70424145 74.284065 -0.17777032 0
0.85424143 74.334068 -0.17777032 0
1.0042415 74.284065 -0.17777032 0
0.80424142 74.384064 0.22222969 0
0.35424143 74.234062 0.67222971 0
0.50424141 74.234062 0.72222972 0
0.60424143 74.234062 0.57222968 0
0.55424142 74.234062 0.77222967 0
0.35424143 74.284065 0.77222967 0
0.35424143 74.434067 0.92222971 0
0.60424143 74.284065 0.72222972 0
0.30424142 74.284065 0.97222972 0
0.35424143 74.284065 1.0722297 0
0.45424142 74.284065 0.97222972 0
0.35424143 74.284065 1.2722297 0
0.65424144 74.284065 0.97222972 0
0.60424143 74.284065 1.1222297 0
0.55424142 74.284065 1.3222297 0
0.80424142 74.234062 0.57222968 0
1.0042415 74.234062 0.6222297 0
0.75424147 74.284065 0.72222972 0
0.70424145 74.284065 0.82222968 0
0.80424142 74.434067 0.82222968 0
0.90424144 74.284065 0.72222972 0
0.90424144 74.284065 0.82222968 0
1.0542414 74.284065 0.77222967 0
0.70424145 74.284065 1.3222297 0
1.0042415 74.984062 0.52222967 0
0.40424144 74.984062 0.77222967 0
0.75424147 74.934067 0.67222971 0
-0.49575859 74.284065 1.4722297 0
-0.24575858 74.284065 1.5222297 0
-0.045758575 74.284065 1.5722297 0
0.15424143 74.284065 1.6222297 0
0.35424143 74.284065 1.6222297 0
0.60424143 74.284065 1.6722298 0
0.80424142 74.334068 1.7222297 0
0.90424144 74.284065 1.3722297 0
0.90424144 74.484062 1.6722298 0
2.0042415 72.534065 1.6222297 0
2.1542416 72.284065 1.6222297 0
2.2042415 72.784065 1.5222297 0
2.4042416 73.034065 1.4222298 0
2.6042414 73.234062 1.3722297 0
2.3042414 73.834068 1.4722297 0
2.5542414 73.584068 1.4222298 0
1.1042415 74.234062 -0.17777032 0
1.1042415 74.234062 0.072229691 0
1.2042414 74.234062 0.022229688 0
1.3042414 74.234062 -0.22777031 0
1.3042414 74.234062 -0.17777032 0
1.4542414 74.234062 -0.22777031 0
1.4542414 74.234062 -0.027770313 0
1.1042415 74.234062 0.32222968 0
1.3042414 74.234062 0.3722297 0
1.2042414 74.334068 -0.22777031 0
1.2042414 74.384064 0.12222969 0
1.3042414 74.284065 -0.22777031 0
1.2042414 74.384064 0.32222968 0
1.2042414 74.384064 0.47222969 0
1.5042415 74.234062 -0.12777032 0
1.6542414 74.234062 -0.22777031 0
1.7042414 74.234062 -0.12777032 0
1.8042414 74.234062 -0.22777031 0
1.8542415 74.234062 -0.077770315 0
1.5042415 74.234062 0.3722297 0
1.6042415 74.284065 -0.22777031 0
1.6542414 74.284065 -0.027770313 0
1.6042415 74.384064 0.072229691 0
1.8042414 74.434067 -0.077770315 0
1.5542414 74.384064 0.22222969 0
1.6042415 74.284065 0.17222969 0
1.5542414 74.384064 0.42222971 0
1.8042414 74.284065 0.17222969 0
1.8542415 74.384064 0.22222969 0
1.8542415 74.384064 0.3722297 0
1.8542415 74.434067 0.47222969 0
1.1042415 74.234062 0.57222968 0
1.4542414 74.234062 0.6222297 0
1.2542415 74.284065 0.57222968 0
1.1042415 74.284065 0.8722297 0
1.2042414 74.284065 0.77222967 0
1.2042414 74.434067 0.77222967 0
1.6042415 74.284065 0.6222297 0
1.6042415 74.434067 0.67222971 0
1.3542415 74.884064 0.42222971 0
1.4542414 74.984062 0.42222971 0
2.0542414 74.234062 -0.077770315 0
2.0542414 74.284065 0.12222969 0
2.0042415 74.434067 0.022229688 0
2.2542415 74.284065 -0.12777032 0
2.2542415 74.434067 -0.17777032 0
2.2042415 74.284065 0.022229688 0
2.2042415 74.434067 0.12222969 0
2.1542416 74.384064 0.32222968 0
2.3542414 74.234062 0.022229688 0
2.6042414 74.234062 -0.12777032 0
2.6542416 74.234062 0.022229688 0
2.4542415 74.284065 -0.12777032 0
2.3042414 74.284065 0.12222969 0
2.3542414 74.434067 -0.027770313 0
2.5042415 74.284065 0.022229688 0
2.5042415 74.284065 0.072229691 0
2.5542414 74.434067 0.12222969 0
2.4042416 74.334068 0.32222968 0
2.4542415 74.384064 0.2722297 0
2.3042414 74.434067 0.3722297 0
2.3542414 74.434067 0.52222967 0
2.6542416 74.334068 0.2722297 0
2.0042415 74.434067 0.6222297 0
1.9042414 74.434067 0.82222968 0
2.2042415 74.434067 0.77222967 0
2.5542414 74.434067 0.72222972 0
1.2542415 73.884064 1.8722297 0
1.1042415 74.284065 1.3722297 0
1.3042414 74.284065 1.4222298 0
1.5042415 74.284065 1.4722297 0
1.5542414 74.434067 1.4222298 0
1.6542414 74.634064 1.3722297 0
2.0042415 74.184067 1.5722297 0
3.0542414 73.034065 1.2222297 0
3.3042414 72.784065 1.1722296 0
2.8042414 73.284065 1.3222297 0
2.7542415 73.484062 1.2722297 0
2.9042416 73.684067 1.2222297 0
3.8042414 72.584068 0.92222971 0
3.6542416 72.334068 1.0222297 0
3.6542416 72.384064 1.0222297 0
3.5042415 72.584068 1.0722297 0
4.0042415 72.334068 0.8722297 0
3.9042416 72.734062 0.8722297 0
4.0042415 72.884064 0.8722297 0
4.2542415 72.684067 0.77222967 0
3.5042415 73.784065 0.97222972 0
4.1042414 73.084068 0.82222968 0
4.2042413 73.234062 0.77222967 0
4.2542415 73.384064 0.72222972 0
2.8042414 74.234062 -0.027770313 0
2.7042415 74.434067 -0.22777031 0
2.7042415 74.434067 -0.077770315 0
2.8042414 74.284065 -0.17777032 0
2.7542415 74.284065 0.072229691 0
2.8542414 74.434067 0.072229691 0
3.0042415 74.284065 -0.17777032 0
3.0042415 74.434067 -0.12777032 0
2.9542415 74.284065 -0.027770313 0
2.9542415 74.284065 0.022229688 0
3.0542414 74.284065 -0.027770313 0
2.7542415 74.384064 0.22222969 0
2.7042415 74.434067 0.32222968 0
2.8542414 74.284065 0.17222969 0
2.7042415 74.434067 0.47222969 0
2.9042416 74.334068 0.2722297 0
3.0042415 74.284065 0.17222969 0
3.0542414 74.384064 0.22222969 0
3.0542414 74.434067 0.42222971 0
3.2542415 74.234062 -0.17777032 0
3.3542414 74.234062 -0.17777032 0
3.2042415 74.284065 -0.17777032 0
3.1542416 74.284065 0.022229688 0
3.1542416 74.284065 0.12222969 0
3.1542416 74.384064 0.022229688 0
3.2042415 74.284065 -0.027770313 0
3.3542414 74.284065 -0.22777031 0
3.3542414 74.434067 -0.17777032 0
3.3542414 74.284065 -0.027770313 0
3.3542414 74.334068 0.12222969 0
3.4042416 74.284065 -0.027770313 0
3.4542415 74.434067 -0.027770313 0
3.1542416 74.334068 0.22222969 0
3.1042414 74.434067 0.22222969 0
3.2042415 74.284065 0.32222968 0
3.3542414 74.284065 0.32222968 0
3.3542414 74.384064 0.17222969 0
3.4042416 74.334068 0.17222969 0
3.3542414 74.434067 0.3722297 0
3.0542414 73.884064 1.1722296 0
3.2042415 74.084068 1.0722297 0
3.3542414 74.284065 1.0222297 0
3.4542415 74.434067 0.97222972 0
2.8042414 74.884064 1.2722297 0
3.5042415 74.284065 -0.17777032 0
3.5542414 74.284065 -0.22777031 0
3.6042414 74.284065 -0.17777032 0
3.6542416 74.284065 -0.077770315 0
3.6542416 74.434067 -0.22777031 0
3.5042415 74.284065 -0.027770313 0
3.5042415 74.284065 0.12222969 0
3.6042414 74.284065 -0.027770313 0
3.6542416 74.284065 0.12222969 0
3.6542416 74.484062 -0.027770313 0
3.7542415 74.284065 -0.22777031 0
3.7542415 74.284065 -0.17777032 0
3.7042415 74.434067 -0.077770315 0
3.8042414 74.284065 -0.077770315 0
3.8042414 74.334068 -0.077770315 0
3.8042414 74.284065 0.072229691 0
3.8542414 74.484062 0.072229691 0
3.5042415 74.284065 0.2722297 0
3.5542414 74.284065 0.32222968 0
3.5042415 74.434067 0.17222969 0
3.6542416 74.334068 0.17222969 0
3.6542416 74.284065 0.2722297 0
3.6542416 74.434067 0.32222968 0
3.7542415 74.284065 0.2722297 0
3.9042416 74.284065 -0.17777032 0
3.9042416 74.284065 -0.077770315 0
4.0042415 74.284065 -0.22777031 0
4.0042415 74.284065 -0.17777032 0
4.0042415 74.284065 -0.077770315 0
4.0542417 74.284065 -0.077770315 0
4.0042415 74.434067 -0.12777032 0
3.9042416 74.334068 0.12222969 0
3.9542415 74.284065 0.072229691 0
4.1542416 74.284065 -0.17777032 0
4.2042413 74.284065 -0.077770315 0
4.2042413 74.334068 -0.077770315 0
4.2542415 74.434067 -0.12777032 0
4.1042414 74.284065 0.072229691 0
4.1542416 74.334068 0.12222969 0
4.2542415 74.284065 0.072229691 0
4.1542416 74.484062 -0.12777032 0
4.2042413 74.484062 0.022229688 0
3.9042416 74.284065 0.2722297 0
4.1042414 74.334068 0.22222969 0
4.2542415 74.284065 0.22222969 0
3.7542415 74.134064 0.8722297 0
3.6042414 74.634064 0.92222971 0
4.0042415 74.484062 0.77222967 0
4.2042413 74.934067 0.32222968 0
3.7042415 74.784065 0.8722297 0
3.8042414 74.984062 0.82222968 0
4.2042413 74.784065 0.67222971 0
2.9542415 74.934067 1.4222298 0
4.7042413 72.284065 -0.12777032 0
4.7042413 72.334068 -0.12777032 0
4.7042413 72.384064 -0.17777032 0
4.7542415 72.384064 -0.12777032 0
4.7542415 72.434067 -0.12777032 0
4.7542415 72.384064 -0.027770313 0
4.7542415 72.384064 0.022229688 0
4.7042413 72.534065 -0.17777032 0
4.7042413 72.484062 -0.12777032 0
4.7042413 72.634064 -0.12777032 0
4.7542415 72.634064 -0.12777032 0
4.7542415 72.534065 -0.027770313 0
