# .PCD v0.7 - Point Cloud Data file format
VERSION 0.7
FIELDS x y z intensity
SIZE 4 4 4 4
TYPE F F F F
COUNT 1 1 1 1
WIDTH 1456
HEIGHT 1
VIEWPOINT 0 0 0 1 0 0 0
POINTS 1456
DATA ascii
18.204241 89.634064 -3.8277705 0
18.104242 89.684067 -3.8277705 0
18.304241 89.134064 -3.7777703 0
18.554241 89.434067 -3.8277705 0
18.604242 89.384064 -3.7777703 0
18.304241 89.584068 -3.8277705 0
18.404242 89.534065 -3.8277705 0
18.454241 89.534065 -3.8277705 0
18.504242 89.48407 -3.7777703 0
18.654242 89.784065 -3.8277705 0
18.654242 89.834068 -3.8277705 0
17.154242 90.034065 -3.8277705 0
17.254242 90.034065 -3.8277705 0
17.104242 90.23407 -3.8277705 0
17.154242 90.184067 -3.8277705 0
17.204241 90.184067 -3.8277705 0
17.304241 89.98407 -3.8277705 0
17.404242 89.98407 -3.8277705 0
17.404242 90.034065 -3.8277705 0
17.304241 90.134064 -3.8277705 0
17.354242 90.084068 -3.8277705 0
17.504242 89.934067 -3.8277705 0
17.504242 90.034065 -3.8277705 0
17.554241 89.98407 -3.8277705 0
17.604242 89.934067 -3.8277705 0
17.704241 89.884064 -3.8277705 0
17.704241 90.634064 -3.8277705 0
17.804241 90.584068 -3.8277705 0
17.854242 90.584068 -3.8277705 0
17.854242 90.634064 -3.8277705 0
17.204241 90.784065 -3.8277705 0
17.254242 90.784065 -3.8277705 0
17.154242 90.884064 -3.8277705 0
17.204241 90.884064 -3.8277705 0
17.304241 90.834068 -3.8277705 0
17.354242 90.784065 -3.8277705 0
17.454241 90.73407 -3.8277705 0
17.404242 90.784065 -3.8277705 0
17.454241 90.784065 -3.8277705 0
17.554241 90.73407 -3.8277705 0
17.604242 90.684067 -3.8277705 0
17.604242 90.73407 -3.8277705 0
17.704241 90.684067 -3.8277705 0
17.754242 90.684067 -3.8277705 0
18.254242 90.23407 -3.8277705 0
18.004242 90.434067 -3.8277705 0
17.954241 90.534065 -3.8277705 0
17.954241 90.634064 -3.8277705 0
18.054241 90.584068 -3.8277705 0
18.104242 90.384064 -3.8277705 0
18.204241 90.284065 -3.8277705 0
18.154242 90.534065 -3.8277705 0
18.254242 90.534065 -3.8277705 0
18.454241 90.034065 -3.8277705 0
18.304241 90.23407 -3.8277705 0
18.354242 90.184067 -3.8277705 0
18.404242 90.134064 -3.8277705 0
18.554241 89.934067 -3.8277705 0
18.504242 89.98407 -3.8277705 0
18.604242 89.884064 -3.8277705 0
18.304241 90.534065 -3.8277705 0
18.354242 90.48407 -3.8277705 0
18.454241 90.48407 -3.8277705 0
18.554241 90.434067 -3.8277705 0
18.654242 90.384064 -3.8277705 0
18.654242 91.434067 -3.8777704 0
18.704241 85.23407 -3.6277704 0
18.804241 85.134064 -3.6277704 0
18.854242 85.23407 -3.6277704 0
18.704241 85.434067 -3.6277704 0
18.754242 85.434067 -3.6277704 0
18.804241 85.284065 -3.6277704 0
18.804241 85.334068 -3.6277704 0
18.904242 85.084068 -3.6277704 0
18.904242 85.134064 -3.6277704 0
19.004242 85.284065 -3.6277704 0
19.054241 85.384064 -3.6277704 0
19.054241 85.434067 -3.6277704 0
18.704241 85.534065 -3.6277704 0
19.104242 85.584068 -3.6277704 0
19.154242 85.834068 -3.6777704 0
19.104242 85.684067 -3.6277704 0
19.104242 85.73407 -3.6277704 0
18.854242 86.23407 -3.6277704 0
18.954241 86.23407 -3.6277704 0
19.054241 86.134064 -3.6277704 0
19.004242 86.184067 -3.6277704 0
18.754242 86.284065 -3.6277704 0
19.154242 85.934067 -3.6777704 0
19.254242 86.034065 -3.6277704 0
19.154242 86.084068 -3.6777704 0
19.154242 86.184067 -3.6777704 0
19.154242 86.23407 -3.6777704 0
19.154242 86.134064 -3.6277704 0
19.204241 86.084068 -3.6277704 0
19.304241 85.98407 -3.6277704 0
19.454241 85.934067 -3.6277704 0
19.404242 85.98407 -3.6277704 0
19.104242 86.384064 -3.6777704 0
19.104242 86.48407 -3.6777704 0
19.104242 86.584068 -3.6777704 0
19.104242 86.634064 -3.6777704 0
19.354242 86.634064 -3.6777704 0
19.404242 86.534065 -3.6777704 0
19.454241 86.48407 -3.6777704 0
19.654242 85.834068 -3.6277704 0
19.854242 85.834068 -3.6777704 0
19.754242 85.784065 -3.6277704 0
19.804241 85.684067 -3.6277704 0
20.054241 85.284065 -3.6277704 0
20.004242 85.434067 -3.6277704 0
20.054241 85.384064 -3.6277704 0
20.104242 85.134064 -3.6277704 0
20.154242 85.084068 -3.6277704 0
20.104242 85.23407 -3.6277704 0
20.204241 85.134064 -3.6277704 0
20.204241 85.184067 -3.6277704 0
20.204241 85.23407 -3.6277704 0
20.154242 85.434067 -3.6277704 0
20.204241 85.284065 -3.6277704 0
20.254242 85.334068 -3.6277704 0
20.204241 85.384064 -3.6277704 0
20.254242 85.434067 -3.6277704 0
19.954241 85.634064 -3.6277704 0
20.004242 85.48407 -3.6277704 0
20.054241 85.534065 -3.6277704 0
20.004242 85.584068 -3.6277704 0
19.904242 85.73407 -3.6777704 0
19.904242 85.684067 -3.6277704 0
20.254242 85.534065 -3.6777704 0
20.254242 85.634064 -3.6777704 0
20.154242 85.48407 -3.6277704 0
19.504242 85.934067 -3.6277704 0
19.604242 85.884064 -3.6277704 0
19.654242 86.23407 -3.6777704 0
19.754242 85.98407 -3.6777704 0
19.754242 86.034065 -3.6777704 0
19.804241 85.934067 -3.6777704 0
19.704241 86.134064 -3.6777704 0
19.554241 86.334068 -3.6777704 0
19.504242 86.434067 -3.6777704 0
19.604242 86.284065 -3.6777704 0
20.254242 86.634064 -3.7277703 0
19.054241 86.684067 -3.6777704 0
19.054241 86.784065 -3.6777704 0
19.054241 86.884064 -3.6777704 0
19.004242 86.98407 -3.6777704 0
19.004242 87.034065 -3.7277703 0
19.004242 87.034065 -3.6777704 0
19.054241 86.98407 -3.6777704 0
18.754242 87.23407 -3.7277703 0
18.854242 87.134064 -3.6777704 0
18.704241 87.284065 -3.7277703 0
18.804241 87.434067 -3.7277703 0
18.854242 87.384064 -3.7277703 0
18.904242 87.084068 -3.6777704 0
18.954241 87.084068 -3.7277703 0
18.954241 87.084068 -3.6777704 0
18.904242 87.23407 -3.7277703 0
18.954241 87.184067 -3.7277703 0
18.904242 87.284065 -3.7277703 0
19.054241 87.284065 -3.7277703 0
19.104242 86.73407 -3.6777704 0
19.254242 86.73407 -3.6777704 0
19.204241 86.834068 -3.6777704 0
19.104242 86.934067 -3.6777704 0
19.154242 86.884064 -3.6777704 0
19.304241 86.73407 -3.6777704 0
19.104242 87.334068 -3.7277703 0
19.104242 87.384064 -3.7277703 0
18.704241 87.634064 -3.7277703 0
18.754242 87.584068 -3.7277703 0
18.804241 87.48407 -3.7277703 0
19.004242 88.23407 -3.7277703 0
19.104242 87.48407 -3.7277703 0
19.154242 87.584068 -3.7277703 0
19.154242 87.684067 -3.7277703 0
19.154242 87.784065 -3.7277703 0
19.204241 87.884064 -3.7277703 0
19.204241 88.034065 -3.7777703 0
19.204241 87.98407 -3.7277703 0
19.104242 88.184067 -3.7277703 0
19.204241 88.084068 -3.7777703 0
19.204241 88.134064 -3.7277703 0
19.254242 88.084068 -3.7277703 0
19.204241 88.184067 -3.7777703 0
19.404242 88.034065 -3.7277703 0
19.454241 87.98407 -3.7277703 0
19.304241 88.084068 -3.7277703 0
20.254242 86.73407 -3.7277703 0
20.254242 86.784065 -3.7277703 0
20.204241 86.934067 -3.7277703 0
20.204241 87.034065 -3.7277703 0
20.054241 87.434067 -3.7277703 0
20.154242 87.134064 -3.7277703 0
20.154242 87.23407 -3.7277703 0
20.204241 87.084068 -3.7277703 0
20.254242 87.084068 -3.7277703 0
20.254242 87.184067 -3.7277703 0
20.254242 87.23407 -3.7277703 0
20.104242 87.334068 -3.7277703 0
20.104242 87.384064 -3.7277703 0
20.254242 87.334068 -3.7277703 0
19.804241 87.834068 -3.7277703 0
19.854242 87.784065 -3.7277703 0
19.504242 87.934067 -3.7277703 0
19.604242 87.934067 -3.7277703 0
19.704241 87.884064 -3.7277703 0
19.854242 87.934067 -3.7777703 0
19.804241 88.034065 -3.7777703 0
19.854242 87.98407 -3.7777703 0
19.754242 88.134064 -3.7777703 0
19.704241 88.23407 -3.7777703 0
19.954241 87.634064 -3.7277703 0
20.054241 87.534065 -3.7277703 0
20.004242 87.584068 -3.7277703 0
20.054241 87.634064 -3.7277703 0
19.904242 87.73407 -3.7277703 0
19.954241 87.73407 -3.7277703 0
19.904242 87.834068 -3.7277703 0
19.954241 87.784065 -3.7277703 0
20.004242 87.684067 -3.7277703 0
20.154242 87.584068 -3.7277703 0
20.204241 87.534065 -3.7277703 0
20.454241 85.23407 -3.6277704 0
20.354242 85.334068 -3.6277704 0
20.304241 85.384064 -3.6277704 0
20.404242 85.284065 -3.6277704 0
20.554241 85.184067 -3.6277704 0
20.604242 85.134064 -3.6277704 0
20.654242 85.084068 -3.6277704 0
20.304241 85.73407 -3.6777704 0
20.304241 85.834068 -3.6777704 0
20.304241 85.934067 -3.6777704 0
20.304241 86.034065 -3.6777704 0
20.304241 86.134064 -3.6777704 0
20.304241 86.23407 -3.6777704 0
20.304241 86.334068 -3.6777704 0
20.304241 86.434067 -3.6777704 0
20.304241 86.48407 -3.6777704 0
21.854242 85.73407 -3.6777704 0
21.804241 85.834068 -3.6777704 0
21.854242 85.784065 -3.6777704 0
21.254242 86.584068 -3.7277703 0
21.354242 86.434067 -3.7277703 0
21.454241 86.334068 -3.6777704 0
21.504242 86.23407 -3.6777704 0
21.604242 86.134064 -3.6777704 0
21.754242 85.934067 -3.6777704 0
21.704241 86.034065 -3.6777704 0
20.304241 87.284065 -3.7277703 0
20.304241 87.384064 -3.7277703 0
20.354242 87.384064 -3.7277703 0
20.454241 87.334068 -3.7277703 0
20.554241 87.23407 -3.7277703 0
20.654242 87.134064 -3.7277703 0
20.604242 87.184067 -3.7277703 0
20.504242 87.284065 -3.7277703 0
20.854242 86.98407 -3.7277703 0
21.054241 86.73407 -3.7277703 0
21.004242 86.834068 -3.7277703 0
20.954241 86.884064 -3.7277703 0
20.754242 87.084068 -3.7277703 0
20.304241 87.48407 -3.7277703 0
20.354242 87.534065 -3.7277703 0
20.354242 87.634064 -3.7277703 0
20.354242 87.784065 -3.7777703 0
20.354242 87.834068 -3.7777703 0
20.354242 87.98407 -3.7777703 0
20.354242 88.084068 -3.7777703 0
20.354242 88.134064 -3.7777703 0
21.154242 86.684067 -3.7277703 0
21.854242 87.834068 -3.7777703 0
21.554241 88.23407 -3.7777703 0
21.654242 88.084068 -3.7777703 0
21.604242 88.184067 -3.7777703 0
21.754242 88.034065 -3.7777703 0
21.804241 87.934067 -3.7777703 0
18.704241 88.334068 -3.7277703 0
18.804241 88.334068 -3.7277703 0
18.904242 88.284065 -3.7277703 0
19.054241 88.98407 -3.7777703 0
19.054241 89.034065 -3.7777703 0
19.204241 88.284065 -3.7777703 0
19.204241 88.384064 -3.7777703 0
19.154242 88.584068 -3.7777703 0
19.204241 88.48407 -3.7777703 0
19.454241 88.584068 -3.7777703 0
19.154242 88.684067 -3.7777703 0
19.104242 88.834068 -3.7777703 0
19.154242 88.784065 -3.7777703 0
19.254242 88.834068 -3.7777703 0
19.104242 88.884064 -3.7777703 0
19.154242 88.934067 -3.7777703 0
19.104242 88.98407 -3.7777703 0
19.204241 88.884064 -3.7777703 0
19.304241 88.784065 -3.7777703 0
19.404242 88.684067 -3.7777703 0
18.804241 89.23407 -3.7777703 0
18.704241 89.334068 -3.7777703 0
18.754242 89.284065 -3.7777703 0
18.954241 89.134064 -3.7777703 0
18.904242 89.184067 -3.7777703 0
19.004242 89.084068 -3.7777703 0
19.054241 89.084068 -3.7777703 0
19.004242 89.184067 -3.7777703 0
18.954241 89.284065 -3.8277705 0
18.954241 89.334068 -3.8277705 0
18.904242 89.384064 -3.8277705 0
18.854242 89.48407 -3.8277705 0
18.804241 89.584068 -3.8277705 0
18.704241 89.73407 -3.8277705 0
18.754242 89.684067 -3.8277705 0
19.554241 88.434067 -3.7777703 0
19.654242 88.334068 -3.7777703 0
19.504242 88.48407 -3.7777703 0
19.754242 89.834068 -3.8277705 0
19.854242 89.784065 -3.8277705 0
20.254242 89.084068 -3.8277705 0
20.254242 89.134064 -3.8277705 0
20.204241 89.184067 -3.8277705 0
20.154242 89.434067 -3.8277705 0
20.204241 89.284065 -3.8277705 0
20.204241 89.384064 -3.8277705 0
19.954241 89.73407 -3.8277705 0
20.054241 89.684067 -3.8277705 0
20.004242 89.784065 -3.8277705 0
20.004242 89.834068 -3.8277705 0
20.104242 89.48407 -3.8277705 0
20.104242 89.584068 -3.8277705 0
20.154242 89.634064 -3.8277705 0
20.254242 89.534065 -3.8277705 0
20.204241 89.584068 -3.8277705 0
19.054241 90.23407 -3.8277705 0
18.754242 90.384064 -3.8277705 0
18.854242 90.334068 -3.8277705 0
18.954241 90.284065 -3.8277705 0
19.104242 90.184067 -3.8277705 0
19.254242 90.134064 -3.8277705 0
19.204241 90.184067 -3.8277705 0
19.454241 90.034065 -3.8277705 0
19.304241 90.084068 -3.8277705 0
19.404242 90.084068 -3.8277705 0
18.754242 91.334068 -3.8777704 0
18.704241 91.384064 -3.8777704 0
18.854242 91.284065 -3.8777704 0
18.954241 91.184067 -3.8777704 0
19.054241 91.134064 -3.8777704 0
18.904242 91.284065 -3.8777704 0
19.104242 91.034065 -3.8777704 0
19.154242 90.98407 -3.8777704 0
19.204241 90.934067 -3.8777704 0
19.254242 90.884064 -3.8777704 0
19.304241 90.834068 -3.8777704 0
19.354242 90.784065 -3.8777704 0
19.404242 90.73407 -3.8777704 0
19.454241 90.684067 -3.8777704 0
19.504242 89.98407 -3.8277705 0
19.554241 89.98407 -3.8277705 0
19.654242 89.934067 -3.8277705 0
19.704241 89.884064 -3.8277705 0
19.854242 90.034065 -3.8277705 0
19.854242 90.084068 -3.8277705 0
19.804241 90.184067 -3.8277705 0
19.654242 90.434067 -3.8777704 0
19.504242 90.634064 -3.8777704 0
19.554241 90.584068 -3.8777704 0
19.604242 90.48407 -3.8777704 0
19.754242 90.284065 -3.8777704 0
19.704241 90.384064 -3.8777704 0
19.954241 89.884064 -3.8277705 0
19.904242 89.98407 -3.8277705 0
20.354242 88.284065 -3.7777703 0
20.354242 88.384064 -3.7777703 0
20.354242 88.48407 -3.7777703 0
20.354242 88.534065 -3.7777703 0
20.354242 88.634064 -3.7777703 0
20.304241 88.784065 -3.7777703 0
20.304241 88.834068 -3.7777703 0
20.304241 88.934067 -3.8277705 0
20.804241 89.034065 -3.8277705 0
20.854242 89.034065 -3.8277705 0
20.904242 88.98407 -3.8277705 0
21.004242 88.884064 -3.8277705 0
20.354242 89.434067 -3.8277705 0
20.454241 89.334068 -3.8277705 0
20.404242 89.384064 -3.8277705 0
20.654242 89.184067 -3.8277705 0
20.504242 89.284065 -3.8277705 0
20.604242 89.284065 -3.8277705 0
20.304241 89.48407 -3.8277705 0
20.754242 89.134064 -3.8277705 0
20.704241 89.184067 -3.8277705 0
21.404242 88.434067 -3.7777703 0
21.304241 88.584068 -3.7777703 0
21.104242 88.784065 -3.8277705 0
21.204241 88.684067 -3.7777703 0
21.504242 88.334068 -3.7777703 0
20.404242 91.434067 -3.9277704 0
20.454241 91.434067 -3.9277704 0
20.554241 91.334068 -3.9277704 0
20.504242 91.384064 -3.9277704 0
20.654242 91.284065 -3.9277704 0
20.954241 91.034065 -3.8777704 0
21.054241 90.884064 -3.8777704 0
20.704241 91.23407 -3.9277704 0
20.754242 91.184067 -3.9277704 0
20.804241 91.134064 -3.8777704 0
20.854242 91.084068 -3.9277704 0
21.354242 90.584068 -3.8777704 0
21.454241 90.48407 -3.8777704 0
21.604242 90.23407 -3.8777704 0
21.854242 89.98407 -3.8777704 0
21.754242 90.084068 -3.8777704 0
21.704241 90.184067 -3.8777704 0
21.554241 90.384064 -3.8777704 0
21.154242 90.784065 -3.8777704 0
21.254242 90.684067 -3.8777704 0
15.554242 91.73407 -3.8277705 0
15.504242 91.784065 -3.8277705 0
15.554242 91.784065 -3.8277705 0
15.654242 91.73407 -3.8277705 0
15.704242 91.73407 -3.8277705 0
15.754242 91.73407 -3.8277705 0
15.704242 91.784065 -3.8277705 0
15.854241 91.73407 -3.8277705 0
15.804242 91.784065 -3.8277705 0
15.804242 91.834068 -3.6777704 0
15.504242 91.934067 -3.7277703 0
15.554242 91.884064 -3.6777704 0
15.554242 91.934067 -3.7277703 0
15.604241 91.934067 -3.7277703 0
15.654242 91.884064 -3.7277703 0
15.654242 91.884064 -3.6777704 0
15.604241 92.034065 -3.7277703 0
15.654242 91.98407 -3.7277703 0
15.704242 91.98407 -3.7277703 0
15.754242 91.98407 -3.7277703 0
15.804242 91.934067 -3.7277703 0
15.804242 92.034065 -3.7277703 0
15.854241 91.98407 -3.7277703 0
15.904242 91.784065 -3.8277705 0
15.954242 91.784065 -3.8277705 0
16.054241 91.73407 -3.8277705 0
16.054241 91.784065 -3.8277705 0
16.154242 91.73407 -3.8277705 0
16.204241 91.784065 -3.8277705 0
16.254242 91.784065 -3.8277705 0
15.904242 91.884064 -3.6777704 0
15.954242 91.934067 -3.7277703 0
15.954242 91.98407 -3.7277703 0
15.954242 92.034065 -3.7277703 0
16.054241 91.884064 -3.7277703 0
16.054241 91.98407 -3.7277703 0
16.104242 91.934067 -3.7277703 0
16.154242 91.884064 -3.7277703 0
16.154242 92.034065 -3.7277703 0
16.254242 91.934067 -3.7277703 0
16.204241 91.98407 -3.7277703 0
16.254242 92.034065 -3.7277703 0
16.354242 91.73407 -3.8277705 0
16.354242 91.784065 -3.8277705 0
16.454241 91.784065 -3.8277705 0
16.504242 91.784065 -3.8277705 0
16.554241 91.784065 -3.8277705 0
16.604242 91.784065 -3.8277705 0
16.654242 91.784065 -3.8277705 0
16.304241 91.884064 -3.7277703 0
16.354242 92.034065 -3.7277703 0
16.404242 91.884064 -3.7277703 0
16.404242 91.934067 -3.7277703 0
16.404242 91.98407 -3.7277703 0
16.454241 92.034065 -3.7277703 0
16.554241 91.884064 -3.7277703 0
16.554241 91.934067 -3.7277703 0
16.504242 92.034065 -3.7277703 0
16.554241 91.98407 -3.7277703 0
16.554241 92.034065 -3.7277703 0
16.654242 91.884064 -3.7277703 0
16.604242 92.034065 -3.7277703 0
16.654242 91.98407 -3.7277703 0
16.854242 91.784065 -3.8777704 0
16.954241 91.784065 -3.8777704 0
17.054241 91.784065 -3.8777704 0
16.754242 91.784065 -3.8277705 0
16.854242 91.784065 -3.8277705 0
16.904242 91.834068 -3.8277705 0
16.954241 91.784065 -3.8277705 0
17.004242 91.784065 -3.8277705 0
17.054241 91.784065 -3.8277705 0
16.704241 91.98407 -3.7277703 0
16.754242 91.98407 -3.7277703 0
16.754242 92.034065 -3.7277703 0
16.804241 91.884064 -3.7277703 0
16.854242 91.934067 -3.7277703 0
16.854242 91.98407 -3.7277703 0
16.904242 91.884064 -3.7277703 0
16.904242 91.98407 -3.7277703 0
16.954241 91.98407 -3.7277703 0
17.004242 91.934067 -3.7277703 0
17.054241 91.884064 -3.7277703 0
17.054241 91.98407 -3.7277703 0
16.954241 92.084068 -3.7277703 0
15.604241 93.784065 -3.7777703 0
15.704242 93.784065 -3.7777703 0
15.854241 93.784065 -3.7777703 0
15.954242 93.784065 -3.7777703 0
16.104242 93.784065 -3.7777703 0
16.204241 93.784065 -3.8277705 0
16.354242 93.784065 -3.8277705 0
16.454241 93.834068 -3.8277705 0
16.604242 93.834068 -3.8277705 0
16.704241 93.784065 -3.8277705 0
16.854242 93.784065 -3.8277705 0
17.004242 93.784065 -3.8277705 0
17.154242 91.784065 -3.8777704 0
17.254242 91.784065 -3.8777704 0
17.354242 91.784065 -3.8777704 0
17.454241 91.784065 -3.8777704 0
17.154242 91.784065 -3.8277705 0
17.304241 91.784065 -3.8277705 0
17.404242 91.834068 -3.8277705 0
17.454241 91.834068 -3.7277703 0
17.154242 91.934067 -3.7277703 0
17.204241 91.884064 -3.7277703 0
17.254242 91.934067 -3.7277703 0
17.254242 91.98407 -3.7277703 0
17.154242 92.084068 -3.7277703 0
17.304241 91.884064 -3.7277703 0
17.304241 91.934067 -3.7277703 0
17.354242 91.884064 -3.7277703 0
17.454241 91.884064 -3.7277703 0
17.454241 91.934067 -3.7277703 0
17.404242 91.98407 -3.7277703 0
17.354242 92.084068 -3.7277703 0
17.504242 91.784065 -3.8777704 0
17.554241 91.784065 -3.8777704 0
17.654242 91.784065 -3.8777704 0
17.704241 91.784065 -3.8777704 0
17.754242 91.784065 -3.8777704 0
17.804241 91.784065 -3.8777704 0
17.854242 91.784065 -3.8777704 0
17.504242 91.784065 -3.8277705 0
17.554241 91.834068 -3.7277703 0
17.604242 91.784065 -3.8277705 0
17.654242 91.784065 -3.7277703 0
17.704241 91.784065 -3.8277705 0
17.704241 91.784065 -3.7277703 0
17.754242 91.784065 -3.7277703 0
17.804241 91.784065 -3.8277705 0
17.854242 91.784065 -3.7277703 0
17.554241 91.884064 -3.7277703 0
17.604242 91.934067 -3.7277703 0
17.604242 91.98407 -3.7277703 0
17.554241 92.084068 -3.7777703 0
17.704241 91.884064 -3.7277703 0
17.754242 91.934067 -3.7277703 0
17.754242 91.98407 -3.7277703 0
17.854242 91.884064 -3.7277703 0
17.704241 92.084068 -3.7777703 0
17.954241 91.784065 -3.8777704 0
18.004242 91.784065 -3.8777704 0
18.054241 91.784065 -3.8777704 0
18.154242 91.73407 -3.8777704 0
18.104242 91.784065 -3.8777704 0
18.204241 91.684067 -3.8777704 0
18.254242 91.684067 -3.8777704 0
18.204241 91.784065 -3.8777704 0
17.904242 91.784065 -3.8277705 0
17.904242 91.784065 -3.7777703 0
17.954241 91.784065 -3.7777703 0
18.054241 91.784065 -3.7777703 0
18.154242 91.784065 -3.7777703 0
18.254242 91.784065 -3.7777703 0
17.954241 91.884064 -3.7277703 0
17.954241 91.98407 -3.7777703 0
17.904242 91.98407 -3.7277703 0
18.054241 91.98407 -3.7277703 0
17.904242 92.084068 -3.7777703 0
18.104242 91.884064 -3.7277703 0
18.104242 92.034065 -3.7777703 0
18.204241 91.884064 -3.7277703 0
18.204241 91.98407 -3.7277703 0
18.104242 92.084068 -3.7777703 0
18.354242 91.634064 -3.8777704 0
18.454241 91.534065 -3.8777704 0
18.404242 91.584068 -3.8777704 0
18.304241 91.784065 -3.8777704 0
18.404242 91.784065 -3.8777704 0
18.554241 91.48407 -3.8777704 0
18.604242 91.48407 -3.8777704 0
18.504242 91.784065 -3.8777704 0
18.604242 91.834068 -3.8777704 0
18.354242 91.784065 -3.7777703 0
18.454241 91.784065 -3.7777703 0
18.554241 91.784065 -3.7777703 0
18.654242 91.784065 -3.7777703 0
18.354242 91.934067 -3.7277703 0
18.304241 92.034065 -3.7777703 0
18.354242 91.98407 -3.7777703 0
18.454241 92.034065 -3.7777703 0
18.304241 92.084068 -3.7777703 0
18.504242 91.934067 -3.7277703 0
18.504242 91.98407 -3.7777703 0
18.604242 91.884064 -3.7277703 0
18.654242 91.98407 -3.7777703 0
18.654242 92.034065 -3.7777703 0
18.504242 92.084068 -3.7777703 0
17.104242 93.784065 -3.8277705 0
17.254242 93.784065 -3.8277705 0
17.354242 93.784065 -3.8277705 0
17.504242 93.73407 -3.8277705 0
17.604242 93.784065 -3.8277705 0
17.754242 93.73407 -3.8277705 0
17.854242 93.73407 -3.8277705 0
18.004242 93.684067 -3.8277705 0
18.104242 93.684067 -3.8277705 0
18.254242 93.684067 -3.8277705 0
18.354242 93.634064 -3.8277705 0
18.504242 93.634064 -3.8277705 0
18.604242 93.634064 -3.8277705 0
17.454241 97.73407 -3.9777703 0
17.454241 97.784065 -4.0277705 0
17.454241 97.634064 -3.6277704 0
17.454241 97.634064 -3.5777705 0
17.454241 97.584068 -3.5277703 0
17.354242 97.784065 -3.4777703 0
17.604242 97.434067 -3.6277704 0
17.654242 97.384064 -3.5777705 0
17.704241 97.384064 -3.6277704 0
17.754242 97.384064 -3.5777705 0
17.754242 97.434067 -3.5277703 0
17.804241 97.384064 -3.6277704 0
17.554241 97.684067 -3.9777703 0
17.554241 97.73407 -3.9777703 0
17.654242 97.73407 -3.9777703 0
17.604242 97.784065 -4.0277705 0
17.504242 97.48407 -3.6277704 0
17.554241 97.48407 -3.5777705 0
17.554241 97.534065 -3.4777703 0
17.604242 97.48407 -3.5277703 0
17.604242 97.534065 -3.5277703 0
17.704241 97.534065 -3.4777703 0
17.754242 97.48407 -3.5277703 0
17.904242 97.334068 -3.6277704 0
17.904242 97.384064 -3.5777705 0
17.904242 97.434067 -3.5277703 0
18.004242 97.384064 -3.6277704 0
18.004242 97.384064 -3.5777705 0
18.004242 97.434067 -3.5277703 0
18.104242 97.384064 -3.6277704 0
18.154242 97.384064 -3.5777705 0
18.154242 97.434067 -3.5777705 0
18.204241 97.334068 -3.6277704 0
18.254242 97.384064 -3.5777705 0
17.904242 97.48407 -3.5277703 0
17.904242 97.534065 -3.4777703 0
18.104242 97.48407 -3.5277703 0
18.104242 97.534065 -3.4777703 0
18.254242 97.48407 -3.5277703 0
18.304241 97.384064 -3.6277704 0
18.304241 97.434067 -3.5777705 0
18.404242 97.384064 -3.6277704 0
18.404242 97.384064 -3.5777705 0
18.454241 97.434067 -3.5777705 0
18.504242 97.384064 -3.5777705 0
18.554241 97.384064 -3.6277704 0
18.604242 97.434067 -3.5777705 0
18.654242 97.384064 -3.6277704 0
18.654242 97.384064 -3.5777705 0
18.304241 97.534065 -3.4777703 0
18.404242 97.48407 -3.5277703 0
18.504242 97.534065 -3.4777703 0
18.604242 97.48407 -3.5277703 0
18.654242 97.534065 -3.4777703 0
17.404242 97.634064 -3.3777704 0
17.454241 97.834068 -3.2777703 0
17.554241 97.584068 -3.2777703 0
17.654242 97.48407 -3.2777703 0
17.604242 97.584068 -3.3777704 0
17.554241 97.634064 -3.1777704 0
17.654242 97.534065 -3.1777704 0
17.604242 97.634064 -3.0777705 0
17.754242 97.48407 -3.2777703 0
17.854242 97.48407 -3.2777703 0
17.804241 97.584068 -3.3777704 0
17.754242 97.584068 -3.0777705 0
17.804241 97.534065 -3.1777704 0
17.604242 97.73407 -2.9777703 0
17.654242 97.684067 -2.9777703 0
17.754242 97.634064 -2.9777703 0
17.854242 97.634064 -2.9777703 0
17.804241 97.684067 -2.9777703 0
17.754242 97.834068 -2.8277705 0
17.954241 97.48407 -3.2777703 0
18.054241 97.48407 -3.2777703 0
18.004242 97.584068 -3.3777704 0
17.904242 97.534065 -3.1777704 0
17.904242 97.584068 -3.0777705 0
18.054241 97.534065 -3.1777704 0
18.054241 97.584068 -3.0777705 0
18.154242 97.48407 -3.2777703 0
18.254242 97.48407 -3.2777703 0
18.254242 97.584068 -3.3777704 0
18.154242 97.534065 -3.1777704 0
18.204241 97.584068 -3.0777705 0
17.954241 97.634064 -2.9777703 0
18.054241 97.634064 -2.9777703 0
17.954241 97.684067 -2.9777703 0
17.954241 97.834068 -2.8277705 0
18.154242 97.634064 -2.9777703 0
18.254242 97.634064 -2.9777703 0
18.104242 97.684067 -2.9777703 0
18.154242 97.784065 -2.8277705 0
18.254242 97.834068 -2.7777703 0
18.354242 97.48407 -3.2777703 0
18.454241 97.48407 -3.2777703 0
18.454241 97.584068 -3.3777704 0
18.304241 97.534065 -3.1777704 0
18.354242 97.584068 -3.0777705 0
18.404242 97.534065 -3.1777704 0
18.554241 97.48407 -3.2777703 0
18.654242 97.48407 -3.2777703 0
18.654242 97.634064 -3.3777704 0
18.554241 97.534065 -3.1777704 0
18.504242 97.584068 -3.0777705 0
18.654242 97.634064 -3.0777705 0
18.404242 97.634064 -2.9777703 0
18.304241 97.684067 -2.9777703 0
18.354242 97.834068 -2.8777704 0
18.454241 97.684067 -2.9777703 0
18.354242 97.834068 -2.7777703 0
18.504242 97.634064 -2.9777703 0
18.604242 97.634064 -2.9277704 0
18.554241 97.834068 -2.8777704 0
18.654242 97.73407 -2.9777703 0
18.704241 91.834068 -3.8777704 0
18.804241 91.784065 -3.8777704 0
18.904242 91.834068 -3.8777704 0
18.954241 91.834068 -3.8777704 0
19.054241 91.834068 -3.8777704 0
18.754242 91.784065 -3.7777703 0
18.854242 91.784065 -3.7777703 0
18.954241 91.784065 -3.7777703 0
19.054241 91.784065 -3.7777703 0
18.754242 91.934067 -3.7277703 0
18.804241 91.98407 -3.7777703 0
18.804241 92.034065 -3.7777703 0
18.704241 92.134064 -3.7777703 0
18.904242 91.934067 -3.7777703 0
18.954241 91.98407 -3.7777703 0
19.004242 91.934067 -3.7777703 0
19.004242 92.034065 -3.7777703 0
18.904242 92.084068 -3.7777703 0
19.154242 91.834068 -3.8777704 0
19.304241 91.834068 -3.8777704 0
19.354242 91.834068 -3.8777704 0
19.154242 91.784065 -3.8277705 0
19.254242 91.834068 -3.8277705 0
19.354242 91.834068 -3.8277705 0
19.454241 91.834068 -3.8277705 0
19.154242 91.934067 -3.7777703 0
19.154242 91.98407 -3.7777703 0
19.154242 92.034065 -3.7777703 0
19.104242 92.134064 -3.7777703 0
19.304241 91.934067 -3.7777703 0
19.304241 91.98407 -3.7777703 0
19.354242 92.034065 -3.7777703 0
19.454241 91.934067 -3.7777703 0
19.454241 91.98407 -3.7777703 0
19.304241 92.084068 -3.7777703 0
19.504242 91.834068 -3.9277704 0
19.604242 91.834068 -3.9277704 0
19.704241 91.834068 -3.9277704 0
19.804241 91.834068 -3.9277704 0
19.554241 91.834068 -3.8277705 0
19.654242 91.834068 -3.8277705 0
19.754242 91.834068 -3.8277705 0
19.854242 91.834068 -3.8277705 0
19.554241 91.934067 -3.7777703 0
19.554241 92.034065 -3.7777703 0
19.604242 91.98407 -3.7777703 0
19.504242 92.134064 -3.7777703 0
19.704241 91.934067 -3.7777703 0
19.704241 92.034065 -3.7777703 0
19.754242 91.98407 -3.7777703 0
19.854242 91.934067 -3.7777703 0
19.704241 92.134064 -3.7777703 0
19.904242 91.834068 -3.9277704 0
20.004242 91.73407 -3.9277704 0
20.054241 91.73407 -3.9277704 0
20.154242 91.634064 -3.9277704 0
20.254242 91.584068 -3.9277704 0
20.104242 91.684067 -3.9277704 0
20.254242 91.834068 -3.8777704 0
19.904242 91.834068 -3.8277705 0
20.004242 91.834068 -3.8277705 0
20.054241 91.834068 -3.8277705 0
20.154242 91.834068 -3.8277705 0
19.904242 91.98407 -3.7777703 0
19.904242 92.034065 -3.7777703 0
20.004242 91.934067 -3.7777703 0
19.954241 92.134064 -3.7777703 0
20.154242 91.934067 -3.7777703 0
20.104242 92.034065 -3.7777703 0
20.254242 92.034065 -3.7777703 0
20.104242 92.084068 -3.7777703 0
20.154242 92.134064 -3.8277705 0
20.254242 92.084068 -3.8277705 0
18.754242 93.584068 -3.8277705 0
18.854242 93.584068 -3.8277705 0
19.004242 93.534065 -3.8277705 0
19.454241 93.434067 -3.8277705 0
19.104242 93.534065 -3.8277705 0
19.254242 93.48407 -3.8277705 0
19.354242 93.48407 -3.8277705 0
19.604242 93.384064 -3.8277705 0
19.704241 93.384064 -3.8277705 0
19.854242 93.334068 -3.8277705 0
19.954241 93.284065 -3.8277705 0
20.104242 93.23407 -3.8277705 0
20.204241 93.184067 -3.8277705 0
20.354242 91.48407 -3.9277704 0
20.304241 91.584068 -3.9277704 0
20.354242 91.834068 -3.8777704 0
20.454241 91.834068 -3.8777704 0
20.554241 91.834068 -3.8777704 0
20.304241 91.934067 -3.7777703 0
20.404242 91.934067 -3.7777703 0
20.404242 91.98407 -3.7777703 0
20.354242 92.134064 -3.8277705 0
20.454241 92.084068 -3.8277705 0
20.554241 91.934067 -3.7777703 0
20.604242 91.98407 -3.7777703 0
20.554241 92.134064 -3.8277705 0
20.654242 92.084068 -3.8277705 0
20.704241 91.834068 -3.8777704 0
20.804241 91.834068 -3.8777704 0
20.904242 91.834068 -3.8777704 0
21.004242 91.834068 -3.8777704 0
20.704241 91.934067 -3.7777703 0
20.754242 92.034065 -3.8277705 0
20.854242 91.934067 -3.7777703 0
20.754242 92.134064 -3.8277705 0
20.854242 92.084068 -3.8277705 0
20.954241 92.034065 -3.8277705 0
21.004242 91.98407 -3.7777703 0
20.954241 92.134064 -3.8277705 0
21.004242 92.084068 -3.8277705 0
20.704241 93.034065 -3.8277705 0
20.804241 92.98407 -3.8277705 0
20.904242 92.934067 -3.8277705 0
21.054241 92.884064 -3.8277705 0
21.104242 91.834068 -3.9277704 0
21.204241 91.834068 -3.9277704 0
21.354242 91.834068 -3.9277704 0
21.454241 91.834068 -3.9277704 0
21.104242 92.034065 -3.8277705 0
21.154242 91.98407 -3.8277705 0
21.254242 92.034065 -3.8277705 0
21.204241 92.084068 -3.8277705 0
21.204241 92.134064 -3.8277705 0
21.304241 91.98407 -3.8277705 0
21.454241 92.034065 -3.8277705 0
21.404242 92.084068 -3.8277705 0
21.404242 92.184067 -3.8277705 0
21.604242 91.834068 -3.9277704 0
21.704241 91.834068 -3.9277704 0
21.854242 91.834068 -3.9277704 0
21.504242 91.98407 -3.8277705 0
21.654242 91.934067 -3.8277705 0
21.604242 92.034065 -3.8277705 0
21.604242 92.084068 -3.8277705 0
21.604242 92.184067 -3.8277705 0
21.804241 91.98407 -3.8277705 0
21.804241 92.034065 -3.8277705 0
21.804241 92.084068 -3.8277705 0
21.804241 92.184067 -3.8277705 0
21.154242 92.834068 -3.8277705 0
21.254242 92.784065 -3.8277705 0
21.404242 92.73407 -3.8277705 0
21.604242 92.634064 -3.8277705 0
21.754242 92.534065 -3.8277705 0
21.854242 92.48407 -3.8277705 0
21.504242 92.684067 -3.8277705 0
20.304241 93.134064 -3.8277705 0
20.454241 93.134064 -3.8277705 0
20.554241 93.084068 -3.8277705 0
21.554241 94.634064 -3.9277704 0
21.654242 94.584068 -3.9277704 0
21.854242 94.434067 -3.9277704 0
21.754242 94.534065 -3.9277704 0
18.754242 97.384064 -3.6277704 0
18.754242 97.384064 -3.5777705 0
18.754242 97.434067 -3.5777705 0
18.854242 97.384064 -3.6277704 0
18.904242 97.384064 -3.5777705 0
18.904242 97.434067 -3.5777705 0
18.954241 97.434067 -3.6277704 0
19.054241 97.434067 -3.5777705 0
18.954241 97.784065 -3.9777703 0
19.004242 97.73407 -4.0277705 0
19.054241 97.73407 -3.9777703 0
18.754242 97.48407 -3.5277703 0
18.854242 97.584068 -3.4777703 0
18.954241 97.534065 -3.5277703 0
19.054241 97.634064 -3.4777703 0
19.104242 97.73407 -4.0277705 0
19.154242 97.73407 -3.9777703 0
19.104242 97.48407 -3.6277704 0
19.104242 97.534065 -3.5777705 0
19.154242 97.684067 -3.5277703 0
21.054241 94.834068 -3.9277704 0
21.204241 94.784065 -3.9277704 0
21.304241 94.73407 -3.9277704 0
21.404242 94.684067 -3.9277704 0
18.804241 97.48407 -3.2777703 0
18.704241 97.534065 -3.1777704 0
18.804241 97.534065 -3.1777704 0
18.804241 97.634064 -3.0777705 0
18.904242 97.48407 -3.2777703 0
18.904242 97.634064 -3.4277704 0
19.004242 97.534065 -3.2777703 0
18.954241 97.584068 -3.1777704 0
18.954241 97.634064 -3.0777705 0
18.704241 97.634064 -2.9277704 0
18.804241 97.73407 -2.9777703 0
18.804241 97.684067 -2.9277704 0
18.954241 97.684067 -2.9277704 0
19.104242 97.634064 -3.1777704 0
17.354242 98.034065 -3.9777703 0
17.354242 98.134064 -4.0777702 0
17.404242 98.034065 -3.6277704 0
17.354242 100.23407 -4.1277704 0
17.354242 100.13406 -3.6777704 0
17.504242 100.23407 -4.1277704 0
17.504242 98.034065 -3.1777704 0
17.604242 97.934067 -2.9277704 0
17.554241 97.98407 -2.8277705 0
17.704241 97.934067 -2.7777703 0
17.854242 97.884064 -2.7777703 0
17.954241 97.884064 -2.7777703 0
18.104242 97.884064 -2.7777703 0
18.504242 97.884064 -2.7777703 0
18.604242 97.884064 -2.7777703 0
17.354242 99.834068 -3.1777704 0
18.954241 98.134064 -4.0277705 0
18.954241 98.184067 -4.0277705 0
18.954241 100.28407 -4.1277704 0
18.904242 100.68407 -4.1777701 0
19.104242 100.28407 -4.1277704 0
18.704241 97.884064 -2.8777704 0
18.754242 97.884064 -2.7777703 0
18.904242 97.934067 -2.7777703 0
22.054241 85.434067 -3.6777704 0
22.104242 85.334068 -3.6777704 0
22.154242 85.284065 -3.6777704 0
21.954243 85.634064 -3.6777704 0
22.004242 85.48407 -3.6777704 0
22.654242 86.134064 -3.7277703 0
22.654242 86.23407 -3.7277703 0
22.554241 86.434067 -3.7277703 0
22.604242 86.334068 -3.7277703 0
22.504242 86.534065 -3.7277703 0
22.504242 86.634064 -3.7277703 0
22.854242 85.284065 -3.6777704 0
22.854242 85.384064 -3.6777704 0
22.904242 85.134064 -3.6777704 0
22.954243 85.134064 -3.6777704 0
22.904242 85.23407 -3.6777704 0
23.004242 85.23407 -3.6777704 0
23.004242 85.334068 -3.6777704 0
23.004242 85.434067 -3.6777704 0
22.854242 85.534065 -3.6777704 0
22.804241 85.634064 -3.6777704 0
22.754242 85.784065 -3.6777704 0
22.804241 85.73407 -3.6777704 0
23.004242 85.534065 -3.6777704 0
23.054241 85.634064 -3.6777704 0
23.054241 85.73407 -3.6777704 0
23.054241 85.834068 -3.7277703 0
22.704243 85.934067 -3.6777704 0
22.754242 85.884064 -3.6777704 0
22.704243 85.98407 -3.7277703 0
22.704243 86.084068 -3.7277703 0
23.054241 85.934067 -3.7277703 0
23.054241 86.034065 -3.7277703 0
23.054241 86.134064 -3.7277703 0
23.054241 86.23407 -3.7277703 0
22.854242 86.284065 -3.7277703 0
22.854242 86.334068 -3.7277703 0
22.904242 86.434067 -3.7277703 0
23.054241 86.334068 -3.7277703 0
23.054241 86.434067 -3.7277703 0
22.904242 86.48407 -3.7277703 0
22.954243 86.584068 -3.7277703 0
23.004242 86.534065 -3.7277703 0
23.004242 86.634064 -3.7277703 0
22.254242 87.134064 -3.7277703 0
22.204243 87.23407 -3.7277703 0
22.154242 87.284065 -3.7777703 0
22.154242 87.334068 -3.7777703 0
22.104242 87.434067 -3.7777703 0
22.454243 86.73407 -3.7277703 0
22.404242 86.834068 -3.7277703 0
22.354242 86.934067 -3.7277703 0
22.304241 87.034065 -3.7277703 0
22.054241 87.48407 -3.7777703 0
22.054241 87.534065 -3.7777703 0
22.004242 87.634064 -3.7777703 0
21.954243 87.73407 -3.7777703 0
21.904242 87.784065 -3.7777703 0
22.954243 86.684067 -3.7277703 0
22.954243 86.784065 -3.7277703 0
23.004242 86.73407 -3.7277703 0
23.004242 86.834068 -3.7277703 0
22.954243 87.034065 -3.7777703 0
22.954243 86.98407 -3.7277703 0
23.004242 86.884064 -3.7277703 0
23.004242 86.934067 -3.7277703 0
23.004242 86.98407 -3.7777703 0
22.954243 87.134064 -3.7777703 0
22.954243 87.23407 -3.7777703 0
23.054241 87.084068 -3.7777703 0
23.054241 87.184067 -3.7777703 0
22.954243 87.334068 -3.7777703 0
22.904242 87.434067 -3.7777703 0
23.054241 87.284065 -3.7777703 0
23.054241 87.384064 -3.7777703 0
22.854242 87.534065 -3.7777703 0
22.854242 87.634064 -3.7777703 0
22.854242 87.73407 -3.7777703 0
22.804241 87.834068 -3.7777703 0
23.054241 87.48407 -3.7777703 0
22.754242 87.934067 -3.7777703 0
22.754242 88.034065 -3.7777703 0
22.804241 87.884064 -3.7777703 0
22.704243 88.134064 -3.7777703 0
22.704243 88.23407 -3.8277705 0
23.104242 87.584068 -3.7777703 0
23.104242 87.634064 -3.7777703 0
23.104242 87.684067 -3.7777703 0
23.104242 87.784065 -3.7777703 0
23.104242 87.884064 -3.7777703 0
23.104242 87.98407 -3.7777703 0
23.104242 88.134064 -3.8277705 0
23.154242 88.084068 -3.8277705 0
23.104242 88.23407 -3.8277705 0
22.654242 88.334068 -3.8277705 0
22.604242 88.434067 -3.8277705 0
22.554241 88.634064 -3.8277705 0
22.604242 88.534065 -3.8277705 0
22.454243 88.834068 -3.8277705 0
22.354242 89.034065 -3.8277705 0
22.404242 88.934067 -3.8277705 0
22.504242 88.73407 -3.8277705 0
22.254242 89.23407 -3.8277705 0
22.154242 89.434067 -3.8277705 0
22.204243 89.284065 -3.8277705 0
22.204243 89.384064 -3.8277705 0
22.054241 89.634064 -3.8777704 0
21.954243 89.73407 -3.8777704 0
21.954243 89.834068 -3.8777704 0
22.104242 89.48407 -3.8277705 0
22.104242 89.584068 -3.8277705 0
22.304241 89.134064 -3.8277705 0
23.054241 88.884064 -3.8277705 0
23.054241 88.98407 -3.8277705 0
23.104242 88.284065 -3.8277705 0
23.104242 88.384064 -3.8277705 0
23.104242 88.534065 -3.8277705 0
23.104242 88.584068 -3.8277705 0
23.104242 88.684067 -3.8277705 0
23.104242 88.784065 -3.8277705 0
23.004242 89.284065 -3.8777704 0
23.004242 89.384064 -3.8777704 0
23.054241 89.084068 -3.8277705 0
23.004242 89.184067 -3.8277705 0
22.954243 89.48407 -3.8777704 0
22.954243 89.584068 -3.8777704 0
22.954243 89.684067 -3.8777704 0
22.904242 89.834068 -3.8777704 0
21.904242 89.884064 -3.8777704 0
22.654242 90.584068 -3.9277704 0
22.254242 91.384064 -3.9277704 0
22.454243 91.034065 -3.9277704 0
22.554241 90.784065 -3.9277704 0
22.604242 90.73407 -3.9277704 0
22.504242 90.884064 -3.9277704 0
22.504242 90.98407 -3.9277704 0
22.354242 91.23407 -3.9277704 0
22.404242 91.084068 -3.9277704 0
22.404242 91.184067 -3.9277704 0
22.304241 91.284065 -3.9277704 0
22.854242 89.98407 -3.8777704 0
22.804241 90.084068 -3.8777704 0
22.804241 90.184067 -3.8777704 0
22.904242 89.884064 -3.8777704 0
22.754242 90.284065 -3.8777704 0
22.704243 90.384064 -3.8777704 0
22.704243 90.48407 -3.9277704 0
22.054241 91.834068 -3.9277704 0
22.154242 91.534065 -3.9277704 0
22.154242 91.634064 -3.9277704 0
22.204243 91.48407 -3.9277704 0
22.104242 91.73407 -3.9277704 0
21.954243 91.884064 -3.9277704 0
21.954243 91.98407 -3.8277705 0
21.954243 92.034065 -3.8277705 0
22.004242 92.084068 -3.8277705 0
22.054241 92.184067 -3.8277705 0
22.104242 91.98407 -3.8277705 0
22.154242 92.034065 -3.8277705 0
22.254242 91.98407 -3.8277705 0
22.204243 92.084068 -3.8277705 0
22.254242 92.184067 -3.8277705 0
22.404242 92.084068 -3.8777704 0
22.504242 92.184067 -3.8777704 0
22.604242 92.084068 -3.8777704 0
22.354242 92.034065 -3.8277705 0
22.454243 91.98407 -3.8277705 0
22.404242 92.184067 -3.8277705 0
22.504242 92.034065 -3.8277705 0
22.604242 91.98407 -3.8277705 0
22.504242 92.134064 -3.8277705 0
22.654242 92.084068 -3.8277705 0
21.954243 92.434067 -3.8277705 0
22.054241 92.384064 -3.8277705 0
22.204243 92.334068 -3.8277705 0
22.304241 92.284065 -3.8277705 0
22.704243 92.184067 -3.8777704 0
22.804241 92.084068 -3.8777704 0
22.904242 92.084068 -3.8777704 0
22.954243 92.184067 -3.8777704 0
23.004242 92.084068 -3.8777704 0
22.754242 91.98407 -3.8277705 0
22.854242 91.934067 -3.8277705 0
22.704243 92.084068 -3.8277705 0
22.954243 91.98407 -3.8277705 0
23.004242 91.934067 -3.8277705 0
23.104242 92.084068 -3.8777704 0
23.154242 92.184067 -3.8777704 0
23.204243 92.134064 -3.8777704 0
23.304241 91.98407 -3.8777704 0
23.304241 92.084068 -3.8777704 0
23.454243 92.084068 -3.8777704 0
23.454243 92.134064 -3.8777704 0
23.404242 92.184067 -3.8777704 0
23.154242 91.934067 -3.8277705 0
23.104242 91.98407 -3.8277705 0
23.354242 91.98407 -3.8277705 0
22.004242 94.384064 -3.9277704 0
22.104242 94.334068 -3.9277704 0
22.204243 94.284065 -3.9277704 0
22.304241 94.184067 -3.9277704 0
22.404242 94.134064 -3.9277704 0
22.654242 93.98407 -3.9277704 0
22.554241 94.084068 -3.9277704 0
22.954243 93.784065 -3.8777704 0
23.054241 93.73407 -3.8777704 0
23.454243 93.434067 -3.8777704 0
23.254242 93.584068 -3.8777704 0
23.154242 93.684067 -3.8777704 0
23.354242 93.48407 -3.8777704 0
22.754242 93.934067 -3.9277704 0
22.854242 93.884064 -3.8777704 0
23.504242 91.98407 -3.8777704 0
23.654242 91.98407 -3.8777704 0
23.654242 92.084068 -3.8777704 0
23.654242 92.134064 -3.8777704 0
23.604242 92.184067 -3.8777704 0
23.854242 91.98407 -3.8777704 0
23.854242 92.084068 -3.8777704 0
23.854242 92.134064 -3.8777704 0
23.854242 92.184067 -3.8777704 0
23.504242 91.934067 -3.8277705 0
23.654242 91.934067 -3.8277705 0
23.854242 91.98407 -3.8277705 0
24.054241 92.034065 -3.8777704 0
24.054241 92.084068 -3.8777704 0
24.204243 91.98407 -3.8777704 0
24.104242 92.134064 -3.8777704 0
24.104242 92.23407 -3.8777704 0
24.254242 92.084068 -3.8777704 0
24.004242 91.98407 -3.8277705 0
23.954243 93.034065 -3.8777704 0
24.054241 92.934067 -3.8777704 0
24.154242 92.834068 -3.8777704 0
24.254242 92.784065 -3.8777704 0
24.404242 91.98407 -3.8777704 0
24.404242 92.034065 -3.8777704 0
24.304241 92.134064 -3.8777704 0
24.554241 91.98407 -3.8777704 0
24.604242 92.034065 -3.8777704 0
24.504242 92.084068 -3.8777704 0
24.504242 92.134064 -3.9277704 0
24.754242 91.98407 -3.8777704 0
24.804241 92.034065 -3.8777704 0
24.704243 92.084068 -3.8777704 0
24.754242 92.134064 -3.9277704 0
24.804241 92.23407 -3.8777704 0
24.954243 91.98407 -3.8777704 0
25.004242 92.034065 -3.8777704 0
24.904242 92.084068 -3.9277704 0
24.904242 92.134064 -3.8777704 0
25.004242 92.134064 -3.9277704 0
25.054241 91.98407 -3.8277705 0
25.004242 92.084068 -3.8277705 0
24.454243 92.584068 -3.8777704 0
24.604242 92.434067 -3.8777704 0
24.554241 92.534065 -3.8777704 0
24.354242 92.684067 -3.8777704 0
24.704243 92.334068 -3.8777704 0
23.554241 93.334068 -3.8777704 0
23.654242 93.284065 -3.8777704 0
23.754242 93.184067 -3.8777704 0
23.854242 93.134064 -3.8777704 0
24.504242 94.634064 -3.9277704 0
24.604242 94.534065 -3.9277704 0
24.954243 94.184067 -3.9277704 0
25.054241 94.134064 -3.9277704 0
24.754242 94.384064 -3.9277704 0
24.854242 94.284065 -3.9277704 0
24.704243 94.48407 -3.9277704 0
24.304241 94.834068 -3.9777703 0
24.404242 94.73407 -3.9777703 0
23.454243 97.034065 -0.3777703 0
23.304241 97.084068 -0.3777703 0
24.204243 95.284065 -0.42777032 0
23.504242 95.98407 -0.3777703 0
23.754242 96.084068 -0.47777033 0
23.854242 96.23407 -0.52777034 0
23.754242 96.084068 -0.3777703 0
23.954243 96.134064 -0.42777032 0
24.004242 96.184067 -0.32777032 0
24.204243 96.184067 -0.3777703 0
24.254242 96.23407 -0.32777032 0
24.404242 95.284065 -0.42777032 0
24.604242 95.284065 -0.42777032 0
24.954243 95.184067 -0.52777034 0
24.904242 95.184067 -0.42777032 0
24.954243 95.384064 -0.42777032 0
24.604242 95.684067 -0.52777034 0
24.404242 96.23407 -0.3777703 0
24.504242 95.934067 -0.3777703 0
24.604242 96.23407 -0.42777032 0
24.604242 96.23407 -0.32777032 0
25.004242 95.48407 -0.47777033 0
24.954243 95.634064 -0.3777703 0
25.054241 95.784065 -0.42777032 0
24.754242 96.184067 -0.42777032 0
25.004242 95.884064 -0.32777032 0
25.054241 96.134064 -0.27777031 0
23.804241 96.48407 -0.67777032 0
23.504242 96.384064 -0.32777032 0
23.554241 96.98407 -0.32777032 0
23.704243 96.934067 -0.32777032 0
23.854242 96.884064 -0.32777032 0
24.004242 96.634064 -0.77777034 0
24.054241 96.534065 -0.6277703 0
24.104242 96.284065 -0.47777033 0
24.254242 96.584068 -0.6277703 0
24.054241 96.684067 -0.82777035 0
24.254242 96.73407 -0.77777034 0
24.204243 96.684067 -0.72777033 0
24.204243 96.98407 -0.8777703 0
24.004242 96.834068 -0.32777032 0
23.954243 97.034065 -0.3777703 0
24.154242 96.784065 -0.32777032 0
24.154242 96.98407 -0.3777703 0
23.754242 97.48407 -1.1277703 0
23.704243 97.684067 -1.2277703 0
23.804241 97.684067 -1.1277703 0
23.954243 97.534065 -1.0777704 0
23.904242 97.684067 -1.1777704 0
24.054241 97.684067 -1.1777704 0
24.054241 97.73407 -1.1277703 0
24.254242 97.684067 -1.1277703 0
24.254242 97.73407 -1.1277703 0
23.504242 97.134064 -0.42777032 0
23.654242 97.134064 -0.42777032 0
23.804241 97.084068 -0.42777032 0
24.104242 97.184067 -0.92777032 0
24.104242 97.23407 -0.8777703 0
24.204243 97.584068 -1.0277703 0
24.304241 96.334068 -0.47777033 0
24.554241 96.434067 -0.42777032 0
24.654242 96.534065 -0.6277703 0
24.404242 96.73407 -0.72777033 0
24.354242 96.98407 -0.92777032 0
24.504242 96.784065 -0.72777033 0
24.604242 96.73407 -0.67777032 0
24.504242 96.684067 -0.57777029 0
24.704243 96.634064 -0.67777032 0
25.054241 96.584068 -0.67777032 0
24.854242 96.584068 -0.6277703 0
24.904242 96.48407 -0.6277703 0
24.904242 96.634064 -0.57777029 0
24.804241 96.73407 -0.72777033 0
24.754242 97.034065 -0.8777703 0
24.754242 96.884064 -0.67777032 0
24.954243 96.684067 -0.67777032 0
24.404242 97.684067 -1.1277703 0
24.454243 97.73407 -1.0777704 0
24.604242 97.684067 -1.1277703 0
24.754242 97.434067 -1.4277704 0
25.004242 97.434067 -1.3777703 0
24.904242 97.334068 -1.1277703 0
24.754242 97.48407 -1.1277703 0
24.804241 97.48407 -1.1277703 0
24.704243 97.73407 -1.0777704 0
24.804241 97.684067 -1.0777704 0
25.054241 97.584068 -1.3777703 0
25.054241 97.48407 -1.0777704 0
24.454243 97.084068 -0.8777703 0
24.354242 97.284065 -0.8777703 0
24.604242 97.084068 -0.8777703 0
24.304241 97.334068 -0.6277703 0
24.404242 97.284065 -0.6277703 0
24.354242 97.584068 -1.0277703 0
24.404242 97.48407 -1.0277703 0
24.654242 97.534065 -0.97777033 0
24.754242 97.23407 -1.0277703 0
24.704243 97.084068 -0.82777035 0
24.954243 97.134064 -0.82777035 0
25.004242 97.084068 -0.82777035 0
24.954243 97.284065 -0.97777033 0
24.854242 97.584068 -0.97777033 0
25.154242 91.98407 -3.8777704 0
25.204243 92.034065 -3.9277704 0
25.104242 92.084068 -3.9277704 0
25.204243 92.184067 -3.9277704 0
25.354242 91.98407 -3.8777704 0
25.454243 91.934067 -3.8777704 0
25.404242 92.034065 -3.9277704 0
25.354242 92.084068 -3.9277704 0
25.454243 92.184067 -3.9277704 0
25.254242 91.934067 -3.8277705 0
25.554241 91.98407 -3.8777704 0
25.654242 91.934067 -3.8777704 0
25.604242 92.034065 -3.9277704 0
25.554241 92.084068 -3.9277704 0
25.754242 91.98407 -3.8777704 0
25.854242 91.934067 -3.8777704 0
25.854242 92.034065 -3.9277704 0
25.704243 92.184067 -3.9277704 0
25.804241 92.134064 -3.9277704 0
25.954243 91.98407 -3.8777704 0
26.054241 92.034065 -3.9277704 0
25.904242 92.184067 -3.9277704 0
26.004242 92.134064 -3.9277704 0
26.104242 91.98407 -3.8777704 0
26.154242 91.98407 -3.9277704 0
26.254242 92.034065 -3.9277704 0
26.154242 92.184067 -3.9277704 0
26.254242 92.134064 -3.9277704 0
26.304241 91.98407 -3.8777704 0
26.404242 92.034065 -3.9277704 0
26.404242 92.184067 -3.9777703 0
26.504242 92.034065 -3.9277704 0
26.554241 91.98407 -3.8777704 0
26.554241 92.034065 -3.8777704 0
26.604242 91.934067 -3.8777704 0
26.604242 91.98407 -3.9277704 0
26.504242 92.134064 -3.9277704 0
26.504242 92.184067 -3.8777704 0
26.654242 92.184067 -3.9777703 0
26.204243 92.584068 -3.8777704 0
25.954243 93.034065 -3.8777704 0
26.004242 92.934067 -3.8777704 0
26.154242 92.73407 -3.8777704 0
26.104242 92.834068 -3.8777704 0
26.354242 92.384064 -3.8777704 0
26.454243 92.284065 -3.8777704 0
26.304241 92.48407 -3.8777704 0
25.454243 93.634064 -3.9277704 0
25.354242 93.73407 -3.9277704 0
25.304241 93.834068 -3.9277704 0
25.604242 93.434067 -3.9277704 0
25.854242 93.134064 -3.9277704 0
25.804241 93.23407 -3.9277704 0
25.704243 93.334068 -3.9277704 0
25.554241 93.534065 -3.9277704 0
25.104242 94.034065 -3.9277704 0
25.204243 93.934067 -3.9277704 0
26.604242 94.184067 -3.9777703 0
26.354242 94.584068 -3.9777703 0
26.454243 94.48407 -3.9777703 0
26.554241 94.284065 -3.9777703 0
26.504242 94.384064 -3.9777703 0
26.754242 91.98407 -3.8777704 0
26.754242 92.034065 -3.9277704 0
26.854242 91.934067 -3.8777704 0
26.854242 92.034065 -3.9277704 0
26.704243 92.134064 -3.9777703 0
27.004242 92.034065 -3.9777703 0
27.004242 91.98407 -3.8777704 0
26.954243 92.134064 -3.9777703 0
26.904242 92.184067 -3.9777703 0
27.154242 91.934067 -3.8777704 0
27.104242 92.034065 -3.9277704 0
27.254242 91.98407 -3.9277704 0
27.204243 92.084068 -3.9777703 0
27.204243 92.134064 -3.9777703 0
27.204243 92.184067 -3.9777703 0
27.354242 92.034065 -3.9277704 0
27.454243 91.934067 -3.8777704 0
27.454243 92.084068 -3.9777703 0
27.454243 92.134064 -3.9777703 0
27.454243 92.434067 -3.8777704 0
27.454243 92.584068 -3.8777704 0
27.204243 93.034065 -3.9277704 0
27.354242 92.684067 -3.9277704 0
27.354242 92.784065 -3.9277704 0
27.304241 92.934067 -3.9277704 0
27.554241 91.98407 -3.9277704 0
27.604242 92.034065 -3.9277704 0
27.654242 91.98407 -3.8777704 0
27.554241 92.184067 -3.8777704 0
27.604242 92.084068 -3.8777704 0
27.754242 91.934067 -3.8777704 0
27.854242 92.034065 -3.9777703 0
27.804241 91.98407 -3.9277704 0
27.704243 92.084068 -3.9777703 0
27.704243 92.134064 -3.9777703 0
28.054241 91.934067 -3.9277704 0
28.054241 91.934067 -3.8777704 0
27.954243 92.084068 -3.9777703 0
28.004242 92.134064 -3.9777703 0
28.104242 92.034065 -3.9777703 0
28.104242 91.98407 -3.9277704 0
28.204243 92.084068 -3.9777703 0
28.254242 92.134064 -3.9777703 0
27.504242 92.334068 -3.8777704 0
27.054241 93.384064 -3.9277704 0
26.854242 93.73407 -3.9277704 0
26.804241 93.834068 -3.9277704 0
26.954243 93.584068 -3.9277704 0
27.004242 93.48407 -3.9277704 0
27.154242 93.134064 -3.9277704 0
27.104242 93.284065 -3.9277704 0
26.754242 93.934067 -3.9277704 0
26.704243 94.034065 -3.9777703 0
26.254242 94.684067 -3.9777703 0
26.204243 94.834068 -3.9777703 0
26.154242 94.934067 -3.9777703 0
25.154242 95.084068 -0.77777034 0
25.154242 95.23407 -0.77777034 0
25.254242 95.334068 -0.82777035 0
25.204243 95.434067 -0.72777033 0
25.604242 94.934067 -0.3777703 0
25.604242 95.134064 -0.32777032 0
25.554241 95.434067 -0.32777032 0
25.654242 95.334068 -0.27777031 0
25.754242 95.384064 -0.42777032 0
25.504242 95.684067 -1.0777704 0
