# .PCD v0.7 - Point Cloud Data file format
VERSION 0.7
FIELDS x y z intensity
SIZE 4 4 4 4
TYPE F F F F
COUNT 1 1 1 1
WIDTH 1447
HEIGHT 1
VIEWPOINT 0 0 0 1 0 0 0
POINTS 1447
DATA ascii
16.404242 42.984066 -1.6277703 0
16.404242 43.034065 -1.6277703 0
16.454241 42.984066 -1.6277703 0
16.454241 43.034065 -1.6277703 0
16.504242 42.684067 -1.5777704 0
16.504242 42.784065 -1.6277703 0
16.554241 42.834064 -1.6277703 0
16.604242 42.684067 -1.5777704 0
16.654242 42.684067 -1.6277703 0
16.604242 42.884064 -1.6277703 0
16.654242 42.934067 -1.6277703 0
16.304241 43.134064 -1.6277703 0
16.354242 43.084064 -1.6277703 0
16.304241 43.234066 -1.6277703 0
16.304241 43.334064 -1.6277703 0
16.354242 43.384064 -1.6277703 0
16.454241 43.334064 -1.6277703 0
16.404242 43.384064 -1.6277703 0
16.504242 43.084064 -1.6277703 0
16.554241 43.134064 -1.6277703 0
16.504242 43.234066 -1.6277703 0
16.554241 43.184067 -1.6277703 0
16.604242 43.134064 -1.6277703 0
16.604242 43.184067 -1.6277703 0
16.654242 43.234066 -1.6277703 0
16.504242 43.284065 -1.6277703 0
16.504242 43.434067 -1.6277703 0
16.754242 42.734066 -1.6277703 0
16.854242 42.734066 -1.6277703 0
16.704241 42.984066 -1.6277703 0
16.754242 43.034065 -1.6277703 0
16.904242 42.784065 -1.6277703 0
16.954241 42.784065 -1.6277703 0
17.054241 42.684067 -1.5777704 0
17.054241 42.784065 -1.6277703 0
16.804241 43.084064 -1.6277703 0
16.854242 43.134064 -1.6277703 0
16.754242 43.284065 -1.6277703 0
16.804241 43.334064 -1.6277703 0
16.854242 43.334064 -1.6277703 0
16.954241 43.134064 -1.6277703 0
17.054241 43.184067 -1.6277703 0
16.954241 43.384064 -1.6277703 0
17.004242 43.384064 -1.6277703 0
17.054241 43.434067 -1.6277703 0
17.204241 40.634064 -1.4777703 0
17.304241 40.634064 -1.4777703 0
17.404242 40.634064 -1.4777703 0
17.154242 40.834064 -1.5277703 0
17.254242 40.834064 -1.5277703 0
17.354242 40.834064 -1.5277703 0
17.454241 40.834064 -1.5277703 0
17.504242 40.634064 -1.4777703 0
17.604242 40.634064 -1.4777703 0
17.704241 40.634064 -1.4777703 0
17.804241 40.634064 -1.4777703 0
17.554241 40.834064 -1.5277703 0
17.654242 40.784065 -1.5277703 0
17.754242 40.784065 -1.5277703 0
17.854242 40.784065 -1.5277703 0
17.154242 41.234066 -1.5277703 0
17.254242 41.234066 -1.5277703 0
17.104242 41.434067 -1.5277703 0
17.204241 41.434067 -1.5277703 0
17.304241 41.234066 -1.5277703 0
17.404242 41.284065 -1.5277703 0
17.104242 41.734066 -1.5777704 0
17.204241 41.734066 -1.5777704 0
17.254242 41.734066 -1.5777704 0
17.304241 41.484066 -1.5277703 0
17.404242 41.484066 -1.5277703 0
17.304241 41.734066 -1.5777704 0
17.354242 41.734066 -1.5777704 0
17.404242 41.784065 -1.5777704 0
17.504242 41.234066 -1.5277703 0
17.604242 41.234066 -1.5277703 0
17.704241 41.234066 -1.5277703 0
17.754242 41.234066 -1.5277703 0
17.804241 41.234066 -1.5277703 0
17.804241 41.434067 -1.5777704 0
17.854242 41.434067 -1.5777704 0
17.504242 41.484066 -1.5277703 0
17.604242 41.484066 -1.5277703 0
17.504242 41.734066 -1.5777704 0
17.604242 41.734066 -1.5777704 0
17.704241 41.484066 -1.5777704 0
17.704241 41.734066 -1.5777704 0
17.804241 41.734066 -1.5777704 0
17.704241 41.834064 -1.2777703 0
17.804241 41.734066 -1.2777703 0
17.804241 41.834064 -1.2777703 0
17.704241 41.834064 -1.2277703 0
17.804241 41.834064 -1.2277703 0
17.804241 41.834064 -1.1277703 0
17.904242 40.634064 -1.4777703 0
18.004242 40.584064 -1.4777703 0
18.104242 40.584064 -1.4777703 0
18.204241 40.584064 -1.4777703 0
17.954241 40.784065 -1.5277703 0
18.054241 40.734066 -1.5277703 0
18.154242 40.684067 -1.5277703 0
18.254242 40.684067 -1.5277703 0
18.254242 41.034065 -1.5277703 0
18.304241 40.534065 -1.4777703 0
18.354242 40.584064 -1.4777703 0
18.354242 40.634064 -1.5277703 0
18.454241 40.534065 -1.4777703 0
18.454241 40.634064 -1.5277703 0
18.654242 40.434067 -1.5277703 0
18.504242 40.534065 -1.4777703 0
18.554241 40.584064 -1.5277703 0
18.604242 40.534065 -1.4777703 0
18.654242 40.534065 -1.5277703 0
18.604242 40.584064 -1.5277703 0
18.604242 40.634064 -1.5277703 0
18.454241 40.834064 -1.5277703 0
18.354242 40.934067 -1.5277703 0
18.304241 40.984066 -1.5277703 0
18.404242 40.884064 -1.5277703 0
18.554241 40.734066 -1.5277703 0
18.504242 40.784065 -1.5277703 0
18.554241 41.034065 -1.5277703 0
18.654242 40.934067 -1.5277703 0
18.604242 40.984066 -1.5277703 0
17.904242 41.184067 -1.5277703 0
18.004242 41.134064 -1.5277703 0
18.054241 41.134064 -1.5277703 0
17.904242 41.434067 -1.5777704 0
18.004242 41.384064 -1.5277703 0
18.104242 41.084064 -1.5277703 0
18.154242 41.084064 -1.5277703 0
18.104242 41.334064 -1.5277703 0
18.154242 41.284065 -1.5277703 0
18.204241 41.284065 -1.5277703 0
17.904242 41.684067 -1.5777704 0
17.904242 41.734066 -1.5777704 0
18.004242 41.684067 -1.5777704 0
18.104242 41.634064 -1.5777704 0
18.204241 41.634064 -1.5777704 0
18.254242 41.584064 -1.5777704 0
17.954241 41.534065 -1.3777703 0
17.904242 41.634064 -1.2777703 0
18.004242 41.484066 -1.1777704 0
18.054241 41.484066 -1.1777704 0
18.004242 41.534065 -1.0777704 0
18.054241 41.484066 -1.1277703 0
18.054241 41.484066 -1.0777704 0
17.904242 41.834064 -1.2777703 0
17.954241 41.834064 -1.2777703 0
18.054241 41.834064 -1.2777703 0
17.904242 41.834064 -1.2277703 0
17.904242 41.834064 -1.1277703 0
18.004242 41.834064 -1.2277703 0
18.054241 41.834064 -1.2277703 0
18.004242 41.834064 -1.1277703 0
18.054241 41.834064 -1.0777704 0
18.304241 41.234066 -1.5277703 0
18.354242 41.184067 -1.5277703 0
18.454241 41.134064 -1.5277703 0
18.404242 41.184067 -1.5277703 0
18.504242 41.084064 -1.5277703 0
18.504242 41.434067 -1.5777704 0
18.554241 41.384064 -1.5777704 0
18.604242 41.334064 -1.5777704 0
18.654242 41.334064 -1.5777704 0
18.304241 41.534065 -1.5777704 0
18.404242 41.484066 -1.5777704 0
18.404242 41.534065 -1.5777704 0
18.404242 41.834064 -1.5777704 0
18.504242 41.834064 -1.5777704 0
18.604242 41.784065 -1.5777704 0
18.054241 41.484066 -1.0277703 0
17.104242 41.984066 -1.5777704 0
17.204241 41.984066 -1.5777704 0
17.104242 42.134064 -1.5777704 0
17.154242 42.184067 -1.5777704 0
17.254242 42.134064 -1.5777704 0
17.204241 42.184067 -1.5777704 0
17.304241 41.984066 -1.5777704 0
17.404242 41.984066 -1.5777704 0
17.304241 42.184067 -1.5777704 0
17.454241 42.184067 -1.5777704 0
17.154242 42.634064 -1.5777704 0
17.504242 41.984066 -1.5777704 0
17.604242 41.984066 -1.5777704 0
17.504242 42.184067 -1.5777704 0
17.604242 42.184067 -1.5777704 0
17.704241 41.984066 -1.5777704 0
17.804241 41.934067 -1.5777704 0
17.704241 42.184067 -1.5777704 0
17.804241 42.134064 -1.5777704 0
17.554241 42.634064 -1.5777704 0
17.654242 42.634064 -1.5777704 0
17.754242 42.634064 -1.5777704 0
17.854242 42.634064 -1.5777704 0
17.154242 42.784065 -1.6277703 0
17.254242 42.684067 -1.5777704 0
17.254242 42.834064 -1.6277703 0
17.354242 42.684067 -1.5777704 0
17.354242 42.834064 -1.6277703 0
17.454241 42.684067 -1.5777704 0
17.454241 42.834064 -1.6277703 0
17.154242 43.234066 -1.6277703 0
17.254242 43.234066 -1.6277703 0
17.154242 43.434067 -1.6277703 0
17.304241 43.284065 -1.6277703 0
17.354242 43.284065 -1.6277703 0
17.454241 43.284065 -1.6277703 0
17.554241 42.834064 -1.6277703 0
17.654242 42.834064 -1.6277703 0
17.754242 42.834064 -1.6277703 0
17.854242 42.784065 -1.6277703 0
17.554241 43.284065 -1.6277703 0
17.654242 43.284065 -1.6277703 0
17.854242 43.234066 -1.6277703 0
17.754242 43.284065 -1.6277703 0
17.854242 43.284065 -1.6277703 0
17.904242 41.934067 -1.5777704 0
18.004242 41.934067 -1.5777704 0
17.954241 42.134064 -1.5777704 0
18.004242 42.084064 -1.5777704 0
18.104242 41.934067 -1.5777704 0
18.204241 41.884064 -1.5777704 0
18.204241 42.034065 -1.5777704 0
18.104242 42.084064 -1.5777704 0
17.954241 42.634064 -1.5777704 0
18.054241 42.634064 -1.5777704 0
18.154242 42.584064 -1.5777704 0
18.254242 42.584064 -1.5777704 0
18.304241 41.884064 -1.5777704 0
18.304241 42.034065 -1.5777704 0
18.354242 41.984066 -1.5777704 0
18.404242 41.984066 -1.5777704 0
18.504242 41.934067 -1.5777704 0
18.604242 41.884064 -1.5777704 0
18.354242 42.584064 -1.5777704 0
18.454241 42.584064 -1.5777704 0
18.454241 42.634064 -1.6277703 0
18.554241 42.534065 -1.5777704 0
18.504242 42.584064 -1.5777704 0
18.554241 42.634064 -1.6277703 0
18.654242 42.534065 -1.6277703 0
18.654242 42.534065 -1.5777704 0
18.604242 42.584064 -1.6277703 0
17.954241 42.784065 -1.6277703 0
18.054241 42.784065 -1.6277703 0
18.154242 42.734066 -1.6277703 0
18.254242 42.734066 -1.6277703 0
17.954241 43.234066 -1.6277703 0
18.054241 43.184067 -1.6277703 0
18.004242 43.434067 -1.6277703 0
18.054241 43.434067 -1.6277703 0
18.154242 43.134064 -1.6277703 0
18.104242 43.184067 -1.6277703 0
18.254242 43.084064 -1.6277703 0
18.154242 43.384064 -1.6277703 0
18.204241 43.334064 -1.6277703 0
18.254242 43.334064 -1.6277703 0
18.304241 42.684067 -1.6277703 0
18.354242 42.684067 -1.6277703 0
18.304241 43.034065 -1.6277703 0
18.354242 43.034065 -1.6277703 0
18.404242 42.934067 -1.6277703 0
18.454241 42.884064 -1.6277703 0
18.504242 42.834064 -1.6277703 0
18.554241 42.784065 -1.6277703 0
18.604242 42.734066 -1.6277703 0
18.654242 42.684067 -1.6277703 0
18.654242 42.984066 -1.6277703 0
18.654242 43.034065 -1.6277703 0
18.404242 43.234066 -1.6277703 0
18.454241 43.184067 -1.6277703 0
18.354242 43.284065 -1.6277703 0
18.504242 43.134064 -1.6277703 0
18.604242 43.084064 -1.6277703 0
18.604242 43.434067 -1.6777704 0
15.504242 43.484066 -1.6277703 0
15.554242 43.484066 -1.6277703 0
15.604241 43.534065 -1.6277703 0
15.704242 43.584064 -1.6277703 0
15.754242 43.584064 -1.6277703 0
15.854241 43.534065 -1.6277703 0
15.804242 43.634064 -1.6277703 0
15.754242 43.834064 -1.6777704 0
15.804242 43.734066 -1.6277703 0
15.804242 43.834064 -1.6277703 0
15.504242 43.984066 -1.6777704 0
15.554242 44.034065 -1.6777704 0
15.504242 44.134064 -1.6777704 0
15.554242 44.084064 -1.6777704 0
15.604241 44.084064 -1.6777704 0
15.654242 44.134064 -1.6777704 0
15.804242 43.934067 -1.6777704 0
15.804242 43.984066 -1.6777704 0
15.804242 44.034065 -1.6777704 0
15.704242 44.184067 -1.6777704 0
15.754242 44.234066 -1.6777704 0
15.804242 44.134064 -1.6777704 0
15.804242 44.234066 -1.6777704 0
15.904242 43.484066 -1.6277703 0
15.954242 43.534065 -1.6277703 0
16.004242 43.584064 -1.6277703 0
16.054241 43.634064 -1.6277703 0
16.054241 43.834064 -1.6777704 0
15.904242 43.684067 -1.6277703 0
16.004242 43.684067 -1.6277703 0
16.004242 43.734066 -1.6277703 0
16.154242 43.534065 -1.6277703 0
16.104242 43.634064 -1.6277703 0
16.204241 43.784065 -1.6777704 0
16.254242 43.784065 -1.6777704 0
16.104242 43.684067 -1.6277703 0
16.104242 43.734066 -1.6277703 0
16.154242 43.684067 -1.6277703 0
16.104242 43.784065 -1.6277703 0
16.204241 43.784065 -1.6277703 0
16.054241 43.934067 -1.6777704 0
16.054241 44.034065 -1.6777704 0
16.054241 44.134064 -1.6777704 0
16.054241 44.234066 -1.6777704 0
16.254242 43.884064 -1.6777704 0
16.254242 43.934067 -1.6777704 0
16.254242 44.034065 -1.6777704 0
15.554242 44.434067 -1.6777704 0
15.654242 44.434067 -1.6777704 0
15.804242 44.284065 -1.6777704 0
15.804242 44.334064 -1.6777704 0
15.854241 44.434067 -1.6777704 0
15.704242 44.484066 -1.6777704 0
15.754242 44.484066 -1.6777704 0
15.854241 44.534065 -1.6777704 0
15.504242 44.734066 -1.6777704 0
15.504242 44.834064 -1.6777704 0
15.554242 44.884064 -1.6777704 0
15.604241 44.934067 -1.7277703 0
15.854241 44.734066 -1.6777704 0
15.804242 44.784065 -1.6777704 0
15.704242 44.934067 -1.7277703 0
15.754242 44.884064 -1.7277703 0
15.704242 44.984066 -1.7277703 0
15.904242 44.334064 -1.6777704 0
15.954242 44.384064 -1.6777704 0
16.004242 44.384064 -1.6777704 0
15.904242 44.534065 -1.6777704 0
15.904242 44.634064 -1.6777704 0
15.954242 44.584064 -1.6777704 0
15.954242 44.634064 -1.6777704 0
16.004242 44.534065 -1.6777704 0
16.104242 44.334064 -1.6777704 0
16.104242 44.434067 -1.6777704 0
16.104242 44.484066 -1.6777704 0
16.154242 44.534065 -1.6777704 0
16.154242 44.584064 -1.6777704 0
16.204241 44.534065 -1.6777704 0
16.254242 44.534065 -1.6777704 0
16.204241 44.584064 -1.6777704 0
16.204241 44.634064 -1.6777704 0
16.254242 44.584064 -1.6777704 0
15.904242 44.684067 -1.6777704 0
15.954242 44.734066 -1.6777704 0
15.954242 44.834064 -1.7277703 0
16.004242 44.934067 -1.7277703 0
16.054241 44.934067 -1.7277703 0
16.204241 44.684067 -1.6777704 0
16.254242 44.734066 -1.6777704 0
16.254242 44.834064 -1.7277703 0
16.204241 44.884064 -1.7277703 0
16.204241 44.934067 -1.7277703 0
16.354242 43.534065 -1.6277703 0
16.354242 43.584064 -1.6277703 0
16.404242 43.484066 -1.6277703 0
16.304241 43.784065 -1.6777704 0
16.304241 43.834064 -1.6777704 0
16.304241 43.734066 -1.6277703 0
16.304241 43.834064 -1.6277703 0
16.404242 43.834064 -1.6277703 0
16.554241 43.484066 -1.6277703 0
16.604242 43.534065 -1.6277703 0
16.654242 43.584064 -1.6277703 0
16.304241 43.884064 -1.6777704 0
16.354242 43.884064 -1.6777704 0
16.454241 43.934067 -1.6777704 0
16.304241 44.134064 -1.6777704 0
16.304241 44.234066 -1.6777704 0
16.504242 43.884064 -1.6777704 0
16.504242 43.934067 -1.6777704 0
16.604242 43.884064 -1.6777704 0
16.654242 43.884064 -1.6777704 0
16.604242 43.984066 -1.6777704 0
16.754242 43.584064 -1.6277703 0
16.804241 43.634064 -1.6277703 0
16.854242 43.634064 -1.6277703 0
16.954241 43.684067 -1.6777704 0
17.004242 43.734066 -1.6777704 0
16.704241 43.934067 -1.6777704 0
16.704241 44.034065 -1.6777704 0
16.804241 43.934067 -1.6777704 0
16.804241 44.084064 -1.6777704 0
16.904242 43.934067 -1.6777704 0
17.004242 43.934067 -1.6777704 0
17.054241 43.934067 -1.6777704 0
16.904242 44.084064 -1.6777704 0
16.904242 44.134064 -1.6777704 0
17.004242 44.134064 -1.6777704 0
16.304241 44.334064 -1.6777704 0
16.354242 44.384064 -1.6777704 0
16.354242 44.484066 -1.6777704 0
16.304241 44.584064 -1.6777704 0
16.354242 44.584064 -1.6777704 0
16.404242 44.584064 -1.6777704 0
16.404242 44.634064 -1.6777704 0
16.454241 44.634064 -1.6777704 0
16.504242 44.634064 -1.6777704 0
16.654242 44.634064 -1.6777704 0
16.304241 44.784065 -1.7277703 0
16.304241 44.834064 -1.7277703 0
16.454241 44.684067 -1.6777704 0
16.354242 44.934067 -1.7277703 0
16.404242 44.984066 -1.7277703 0
16.504242 44.684067 -1.6777704 0
16.504242 44.734066 -1.6777704 0
16.504242 44.784065 -1.7277703 0
16.554241 44.834064 -1.7277703 0
16.604242 44.684067 -1.6777704 0
16.654242 44.734066 -1.6777704 0
16.554241 44.984066 -1.7277703 0
16.604242 44.884064 -1.7277703 0
16.654242 44.934067 -1.7277703 0
16.854242 44.634064 -1.6777704 0
16.704241 44.684067 -1.6777704 0
16.704241 44.734066 -1.6777704 0
16.754242 44.684067 -1.6777704 0
16.804241 44.784065 -1.6777704 0
16.704241 44.984066 -1.7277703 0
16.904242 44.684067 -1.6777704 0
16.904242 44.784065 -1.7277703 0
17.054241 44.684067 -1.6777704 0
17.004242 44.784065 -1.7277703 0
17.054241 44.834064 -1.7277703 0
17.254242 43.484066 -1.6277703 0
17.104242 43.734066 -1.6777704 0
17.154242 43.734066 -1.6777704 0
17.254242 43.784065 -1.6777704 0
17.304241 43.484066 -1.6277703 0
17.354242 43.484066 -1.6277703 0
17.454241 43.484066 -1.6277703 0
17.304241 43.784065 -1.6777704 0
17.354242 43.784065 -1.6777704 0
17.404242 43.784065 -1.6777704 0
17.104242 43.984066 -1.6777704 0
17.204241 43.984066 -1.6777704 0
17.104242 44.184067 -1.6777704 0
17.204241 44.184067 -1.6777704 0
17.254242 44.184067 -1.6777704 0
17.304241 43.984066 -1.6777704 0
17.404242 43.984066 -1.6777704 0
17.304241 44.184067 -1.6777704 0
17.404242 44.184067 -1.6777704 0
17.554241 43.484066 -1.6277703 0
17.654242 43.484066 -1.6277703 0
17.504242 43.784065 -1.6777704 0
17.604242 43.784065 -1.6777704 0
17.754242 43.484066 -1.6277703 0
17.854242 43.484066 -1.6277703 0
17.704241 43.784065 -1.6777704 0
17.754242 43.784065 -1.6777704 0
17.854242 43.784065 -1.6777704 0
17.854242 43.784065 -1.3777703 0
17.504242 43.984066 -1.6777704 0
17.604242 43.984066 -1.6777704 0
17.504242 44.184067 -1.6777704 0
17.604242 44.184067 -1.6777704 0
17.704241 43.984066 -1.6777704 0
17.804241 43.984066 -1.6777704 0
17.704241 44.184067 -1.6777704 0
17.804241 44.184067 -1.6777704 0
17.754242 43.884064 -1.3777703 0
17.754242 43.884064 -1.3277704 0
17.854242 43.884064 -1.3777703 0
17.804241 43.884064 -1.2777703 0
17.854242 43.884064 -1.3277704 0
17.854242 43.884064 -1.2277703 0
17.154242 44.684067 -1.6777704 0
17.104242 44.834064 -1.7277703 0
17.204241 44.684067 -1.6777704 0
17.254242 44.834064 -1.7277703 0
17.304241 44.684067 -1.6777704 0
17.304241 44.834064 -1.7277703 0
17.454241 44.684067 -1.6777704 0
17.454241 44.834064 -1.7277703 0
17.554241 44.684067 -1.6777704 0
17.554241 44.834064 -1.7277703 0
17.654242 44.684067 -1.6777704 0
17.654242 44.834064 -1.7277703 0
17.704241 44.684067 -1.6777704 0
17.704241 44.834064 -1.7277703 0
17.854242 44.684067 -1.6777704 0
17.804241 44.834064 -1.7277703 0
17.954241 43.484066 -1.6777704 0
18.004242 43.584064 -1.4777703 0
17.904242 43.734066 -1.6777704 0
18.004242 43.734066 -1.6777704 0
18.254242 43.634064 -1.6777704 0
18.104242 43.734066 -1.6777704 0
18.154242 43.684067 -1.6777704 0
18.054241 43.534065 -1.2777703 0
18.054241 43.534065 -1.1777704 0
18.054241 43.534065 -1.1277703 0
17.954241 43.684067 -1.3277704 0
18.104242 43.484066 -1.3277704 0
18.104242 43.484066 -1.2777703 0
18.104242 43.534065 -1.2777703 0
18.104242 43.484066 -1.1777704 0
18.104242 43.534065 -1.1777704 0
18.104242 43.484066 -1.1277703 0
18.104242 43.534065 -1.1277703 0
17.904242 43.934067 -1.6777704 0
18.004242 43.934067 -1.6777704 0
17.904242 44.184067 -1.6777704 0
18.004242 44.184067 -1.6777704 0
18.104242 43.934067 -1.6777704 0
18.204241 43.934067 -1.6777704 0
18.254242 43.884064 -1.6777704 0
18.104242 44.134064 -1.6777704 0
18.204241 44.134064 -1.6777704 0
17.954241 43.884064 -1.3777703 0
17.954241 43.884064 -1.3277704 0
18.004242 43.884064 -1.3777703 0
18.054241 43.884064 -1.3277704 0
17.954241 43.884064 -1.2277703 0
18.054241 43.884064 -1.2277703 0
18.104242 43.884064 -1.3277704 0
18.304241 43.634064 -1.6777704 0
18.354242 43.584064 -1.6777704 0
18.454241 43.534065 -1.6777704 0
18.504242 43.534065 -1.6777704 0
18.554241 43.484066 -1.6777704 0
18.504242 43.834064 -1.6777704 0
18.604242 43.834064 -1.6777704 0
18.304241 43.884064 -1.6777704 0
18.404242 43.884064 -1.6777704 0
18.404242 44.034065 -1.6777704 0
18.304241 44.084064 -1.6777704 0
18.504242 43.984066 -1.6777704 0
18.604242 43.934067 -1.6777704 0
18.654242 43.934067 -1.6777704 0
18.154242 44.634064 -1.6777704 0
17.954241 44.684067 -1.6777704 0
17.904242 44.834064 -1.7277703 0
18.054241 44.684067 -1.6777704 0
18.054241 44.784065 -1.7277703 0
18.104242 44.784065 -1.7277703 0
18.254242 44.684067 -1.6777704 0
18.254242 44.784065 -1.7277703 0
18.354242 44.634064 -1.6777704 0
18.454241 44.634064 -1.6777704 0
18.504242 44.584064 -1.6777704 0
18.604242 44.584064 -1.6777704 0
18.604242 44.634064 -1.7277703 0
18.304241 44.734066 -1.7277703 0
18.354242 44.734066 -1.7277703 0
18.404242 44.684067 -1.7277703 0
18.454241 44.984066 -1.7277703 0
18.554241 44.684067 -1.7277703 0
18.604242 44.834064 -1.7277703 0
18.654242 44.784065 -1.7277703 0
18.504242 44.934067 -1.7277703 0
18.554241 44.884064 -1.7277703 0
18.754242 40.334064 -1.5277703 0
18.704241 40.384064 -1.5277703 0
18.754242 40.434067 -1.5277703 0
18.854242 40.434067 -1.5277703 0
18.704241 40.484066 -1.4777703 0
18.754242 40.484066 -1.5277703 0
18.804241 40.484066 -1.4777703 0
18.854242 40.484066 -1.4777703 0
18.854242 40.534065 -1.5277703 0
18.854242 40.634064 -1.5277703 0
18.954241 40.334064 -1.5277703 0
18.904242 40.434067 -1.5277703 0
18.954241 40.384064 -1.5277703 0
19.054241 40.284065 -1.5277703 0
19.004242 40.434067 -1.4777703 0
18.904242 40.484066 -1.5277703 0
18.704241 40.834064 -1.5277703 0
18.754242 40.784065 -1.5277703 0
18.804241 40.684067 -1.5277703 0
18.804241 40.734066 -1.5277703 0
19.054241 40.834064 -1.5277703 0
18.904242 41.034065 -1.5277703 0
18.954241 40.984066 -1.5277703 0
19.004242 40.934067 -1.5277703 0
19.054241 40.884064 -1.5277703 0
19.104242 40.384064 -1.4777703 0
19.254242 40.284065 -1.5277703 0
19.204241 40.384064 -1.4777703 0
19.254242 40.434067 -1.5277703 0
19.154242 40.584064 -1.5277703 0
19.204241 40.484066 -1.5277703 0
19.204241 40.534065 -1.5277703 0
19.304241 40.334064 -1.4777703 0
19.354242 40.334064 -1.4777703 0
19.454241 40.284065 -1.4777703 0
19.104242 40.684067 -1.5277703 0
19.404242 41.034065 -1.5277703 0
19.454241 40.984066 -1.5277703 0
18.754242 41.234066 -1.5277703 0
18.854242 41.134064 -1.5277703 0
18.804241 41.184067 -1.5277703 0
18.704241 41.284065 -1.5277703 0
18.804241 41.584064 -1.5777704 0
18.804241 41.634064 -1.5777704 0
18.704241 41.734066 -1.5777704 0
18.704241 41.784065 -1.5777704 0
18.754242 41.784065 -1.5777704 0
18.804241 41.734066 -1.5777704 0
18.854242 41.684067 -1.5777704 0
18.854242 41.784065 -1.5777704 0
18.904242 41.634064 -1.5777704 0
18.954241 41.584064 -1.5777704 0
19.004242 41.484066 -1.5777704 0
19.004242 41.534065 -1.5777704 0
19.054241 41.484066 -1.5777704 0
19.004242 41.634064 -1.5777704 0
19.054241 41.584064 -1.5777704 0
19.054241 41.634064 -1.5777704 0
18.904242 41.684067 -1.5777704 0
19.004242 41.684067 -1.5777704 0
19.054241 41.734066 -1.5777704 0
19.104242 41.434067 -1.5777704 0
19.154242 41.384064 -1.5777704 0
19.204241 41.334064 -1.5777704 0
19.254242 41.284065 -1.5777704 0
19.354242 41.134064 -1.5777704 0
19.304241 41.184067 -1.5777704 0
19.404242 41.084064 -1.5277703 0
19.304241 41.434067 -1.5777704 0
19.404242 41.434067 -1.5777704 0
19.104242 41.584064 -1.5777704 0
19.154242 41.584064 -1.5777704 0
19.204241 41.534065 -1.5777704 0
19.104242 41.834064 -1.5777704 0
19.304241 41.484066 -1.5777704 0
19.304241 41.534065 -1.5777704 0
19.354242 41.484066 -1.5777704 0
19.304241 41.634064 -1.5777704 0
19.354242 41.634064 -1.5777704 0
19.354242 41.734066 -1.5777704 0
19.354242 41.834064 -1.5777704 0
19.504242 40.284065 -1.4777703 0
19.654242 40.284065 -1.5277703 0
19.654242 40.384064 -1.5277703 0
19.654242 40.484066 -1.5277703 0
19.604242 40.584064 -1.5277703 0
19.704241 40.284065 -1.5277703 0
19.554241 40.684067 -1.5277703 0
19.504242 40.834064 -1.5277703 0
19.554241 40.784065 -1.5277703 0
19.504242 40.884064 -1.5277703 0
20.254242 40.634064 -1.5277703 0
20.004242 41.034065 -1.5277703 0
20.054241 40.984066 -1.5277703 0
20.254242 40.784065 -1.5277703 0
20.254242 40.834064 -1.5277703 0
20.154242 40.884064 -1.5277703 0
20.154242 41.034065 -1.5777704 0
20.154242 40.984066 -1.5277703 0
20.204241 40.884064 -1.5277703 0
19.554241 41.334064 -1.5777704 0
19.504242 41.384064 -1.5777704 0
19.604242 41.334064 -1.5777704 0
19.654242 41.334064 -1.5777704 0
19.754242 41.234066 -1.5777704 0
19.854242 41.134064 -1.5277703 0
19.804241 41.184067 -1.5777704 0
19.704241 41.284065 -1.5777704 0
19.704241 41.384064 -1.5777704 0
19.754242 41.434067 -1.5777704 0
19.654242 41.834064 -1.5777704 0
19.704241 41.484066 -1.5777704 0
19.754242 41.534065 -1.5777704 0
19.754242 41.634064 -1.5777704 0
19.854242 41.534065 -1.5777704 0
19.804241 41.634064 -1.5777704 0
19.854242 41.584064 -1.5777704 0
19.754242 41.734066 -1.5777704 0
19.704241 41.784065 -1.5777704 0
19.754242 41.834064 -1.5777704 0
19.904242 41.084064 -1.5277703 0
20.054241 41.234066 -1.5777704 0
19.904242 41.434067 -1.5777704 0
19.954241 41.384064 -1.5777704 0
20.004242 41.284065 -1.5777704 0
20.104242 41.084064 -1.5777704 0
20.104242 41.184067 -1.5777704 0
19.904242 41.484066 -1.5777704 0
18.854242 41.884064 -1.5777704 0
18.854242 41.934067 -1.5777704 0
18.854242 41.984066 -1.5777704 0
18.854242 42.084064 -1.5777704 0
18.854242 42.134064 -1.5777704 0
18.854242 42.184067 -1.5777704 0
19.054241 42.034065 -1.5777704 0
19.054241 42.134064 -1.5777704 0
19.054241 42.234066 -1.6277703 0
18.854242 42.284065 -1.6277703 0
18.804241 42.384064 -1.6277703 0
18.804241 42.434067 -1.6277703 0
18.854242 42.434067 -1.6277703 0
18.754242 42.484066 -1.6277703 0
18.754242 42.484066 -1.5777704 0
18.754242 42.534065 -1.6277703 0
18.704241 42.584064 -1.6277703 0
18.704241 42.634064 -1.6277703 0
18.804241 42.484066 -1.6277703 0
18.854242 42.484066 -1.5777704 0
18.954241 42.434067 -1.6277703 0
19.054241 42.334064 -1.6277703 0
19.004242 42.384064 -1.6277703 0
19.004242 42.434067 -1.6277703 0
19.054241 42.434067 -1.5777704 0
18.904242 42.484066 -1.5777704 0
18.954241 42.534065 -1.6277703 0
18.954241 42.584064 -1.6277703 0
19.104242 41.934067 -1.5777704 0
19.254242 42.234066 -1.5777704 0
19.354242 41.934067 -1.5777704 0
19.354242 42.034065 -1.5777704 0
19.454241 42.034065 -1.5777704 0
19.354242 42.134064 -1.5777704 0
19.304241 42.184067 -1.5777704 0
19.354242 42.234066 -1.6277703 0
19.404242 42.084064 -1.5777704 0
19.154242 42.284065 -1.6277703 0
19.154242 42.434067 -1.5777704 0
19.254242 42.384064 -1.5777704 0
19.254242 42.584064 -1.6277703 0
19.254242 42.634064 -1.6277703 0
19.354242 42.334064 -1.6277703 0
19.354242 42.334064 -1.5777704 0
19.304241 42.434067 -1.6277703 0
19.404242 42.334064 -1.5777704 0
19.304241 42.534065 -1.6277703 0
18.804241 42.834064 -1.6277703 0
18.854242 42.784065 -1.6277703 0
18.704241 42.934067 -1.6277703 0
18.754242 42.884064 -1.6277703 0
18.904242 42.684067 -1.6277703 0
18.904242 42.734066 -1.6277703 0
19.004242 43.034065 -1.6277703 0
19.054241 42.984066 -1.6277703 0
18.854242 43.234066 -1.6277703 0
18.704241 43.384064 -1.6777704 0
18.754242 43.334064 -1.6277703 0
18.804241 43.284065 -1.6277703 0
18.954241 43.134064 -1.6277703 0
18.904242 43.184067 -1.6277703 0
19.004242 43.084064 -1.6277703 0
19.154242 42.784065 -1.6277703 0
19.154242 42.834064 -1.6277703 0
19.204241 42.734066 -1.6277703 0
19.104242 42.934067 -1.6277703 0
19.254242 43.434067 -1.6777704 0
19.354242 43.234066 -1.6277703 0
19.454241 43.134064 -1.6277703 0
19.404242 43.184067 -1.6277703 0
19.354242 43.334064 -1.6777704 0
19.304241 43.384064 -1.6777704 0
19.554241 41.934067 -1.5777704 0
19.504242 41.984066 -1.5777704 0
19.604242 41.884064 -1.5777704 0
19.804241 41.934067 -1.5777704 0
19.804241 42.034065 -1.5777704 0
19.754242 42.134064 -1.6277703 0
19.754242 42.234066 -1.6277703 0
19.754242 42.234066 -1.5777704 0
19.804241 42.184067 -1.5777704 0
19.504242 42.334064 -1.5777704 0
19.554241 42.284065 -1.5777704 0
19.604242 42.284065 -1.5777704 0
19.754242 42.334064 -1.6277703 0
19.754242 42.434067 -1.6277703 0
19.704241 42.534065 -1.6277703 0
19.704241 42.634064 -1.6277703 0
19.904242 42.134064 -1.5777704 0
20.054241 42.084064 -1.5777704 0
20.204241 42.034065 -1.5777704 0
20.154242 42.084064 -1.5777704 0
19.654242 42.684067 -1.6277703 0
19.654242 42.734066 -1.6277703 0
19.604242 42.834064 -1.6277703 0
19.554241 42.934067 -1.6277703 0
19.504242 43.034065 -1.6277703 0
19.554241 43.034065 -1.6277703 0
19.604242 42.884064 -1.6277703 0
19.504242 43.434067 -1.6777704 0
19.554241 43.384064 -1.6777704 0
19.654242 43.334064 -1.6777704 0
19.804241 43.234066 -1.6277703 0
19.704241 43.334064 -1.6777704 0
19.754242 43.334064 -1.6777704 0
19.754242 43.434067 -1.6777704 0
19.804241 43.284065 -1.6777704 0
20.054241 43.034065 -1.6277703 0
20.154242 42.934067 -1.6277703 0
20.254242 42.884064 -1.6277703 0
20.254242 42.934067 -1.6277703 0
20.254242 42.984066 -1.6277703 0
19.954241 43.134064 -1.6277703 0
19.904242 43.184067 -1.6277703 0
20.004242 43.084064 -1.6277703 0
20.054241 43.384064 -1.6777704 0
20.154242 43.184067 -1.6777704 0
20.204241 43.084064 -1.6277703 0
20.204241 43.134064 -1.6277703 0
20.104242 43.284065 -1.6777704 0
20.104242 43.334064 -1.6777704 0
20.304241 40.334064 -1.5277703 0
20.354242 40.284065 -1.5277703 0
20.304241 40.434067 -1.5277703 0
20.304241 40.484066 -1.5277703 0
20.304241 40.584064 -1.5277703 0
20.454241 40.634064 -1.5277703 0
20.554241 40.434067 -1.5277703 0
20.654242 40.334064 -1.5277703 0
20.604242 40.384064 -1.5277703 0
20.504242 40.534065 -1.5277703 0
20.554241 40.284065 -1.3777703 0
20.554241 40.334064 -1.4277704 0
20.554241 40.284065 -1.2777703 0
20.604242 40.284065 -1.4277704 0
20.654242 40.284065 -1.4277704 0
20.654242 40.284065 -1.3277704 0
20.654242 40.284065 -1.2777703 0
20.554241 40.284065 -1.2277703 0
20.554241 40.334064 -1.2277703 0
20.554241 40.284065 -1.0777704 0
20.554241 40.334064 -1.0777704 0
20.604242 40.284065 -1.2277703 0
20.654242 40.284065 -1.2277703 0
20.604242 40.284065 -1.0777704 0
20.604242 40.334064 -1.1277703 0
20.304241 40.734066 -1.5277703 0
20.354242 40.684067 -1.5277703 0
20.304241 40.784065 -1.5277703 0
20.704241 40.284065 -1.5277703 0
20.554241 40.334064 -1.0277703 0
20.554241 40.334064 -0.97777033 0
20.554241 40.334064 -0.8777703 0
20.604242 40.284065 -0.97777033 0
20.654242 40.334064 -1.0277703 0
20.654242 40.334064 -0.97777033 0
20.604242 40.284065 -0.8777703 0
20.604242 40.334064 -0.8777703 0
20.654242 40.284065 -0.8777703 0
20.554241 40.334064 -0.82777035 0
20.554241 40.334064 -0.77777034 0
20.554241 40.284065 -0.67777032 0
20.554241 40.334064 -0.67777032 0
20.604242 40.284065 -0.77777034 0
20.604242 40.334064 -0.77777034 0
20.654242 40.334064 -0.77777034 0
20.604242 40.284065 -0.67777032 0
20.654242 40.334064 -0.67777032 0
20.554241 40.284065 -0.52777034 0
20.554241 40.334064 -0.52777034 0
20.554241 40.384064 -0.47777033 0
20.604242 40.284065 -0.57777029 0
20.604242 40.284065 -0.47777033 0
20.604242 40.334064 -0.52777034 0
20.654242 40.334064 -0.52777034 0
20.554241 40.284065 -0.42777032 0
20.554241 40.284065 -0.3777703 0
20.554241 40.334064 -0.32777032 0
20.554241 40.334064 -0.27777031 0
20.554241 40.384064 -0.27777031 0
20.604242 40.284065 -0.42777032 0
20.654242 40.334064 -0.42777032 0
20.604242 40.284065 -0.32777032 0
20.604242 40.284065 -0.27777031 0
20.604242 40.334064 -0.27777031 0
20.654242 40.334064 -0.32777032 0
20.654242 40.784065 -0.92777032 0
20.654242 41.034065 -0.8777703 0
20.654242 40.834064 -0.52777034 0
20.654242 41.034065 -0.3777703 0
20.704241 40.384064 -0.27777031 0
20.304241 41.084064 -1.5777704 0
20.304241 41.134064 -1.5777704 0
20.304241 41.184067 -1.5777704 0
20.354242 41.284065 -1.5777704 0
20.354242 41.384064 -1.5777704 0
20.404242 41.484066 -1.5777704 0
20.404242 41.584064 -1.5777704 0
20.404242 41.684067 -1.5777704 0
20.404242 41.784065 -1.5777704 0
20.554241 41.834064 -1.5777704 0
20.604242 41.784065 -1.5777704 0
20.754242 41.734066 -1.5777704 0
20.704241 41.784065 -1.5777704 0
20.854242 41.684067 -1.5777704 0
20.954241 41.634064 -1.5777704 0
21.054241 41.534065 -1.5777704 0
21.004242 41.584064 -1.5777704 0
21.054241 41.784065 -1.5777704 0
21.054241 41.834064 -1.5777704 0
21.454241 40.584064 -1.5277703 0
21.454241 40.684067 -1.5277703 0
21.454241 40.784065 -1.5777704 0
21.454241 40.834064 -1.5777704 0
21.404242 40.884064 -1.5777704 0
21.454241 40.934067 -1.5777704 0
21.404242 41.034065 -1.5777704 0
21.154242 40.834064 -1.3277704 0
21.304241 40.784065 -1.3277704 0
21.404242 40.734066 -1.3277704 0
21.504242 40.434067 -1.5277703 0
21.504242 40.484066 -1.5277703 0
21.504242 40.534065 -1.5277703 0
21.754242 40.634064 -1.3277704 0
21.504242 41.034065 -1.5777704 0
21.554241 40.734066 -1.3277704 0
21.654242 40.684067 -1.3277704 0
21.204241 41.434067 -1.5777704 0
21.254242 41.384064 -1.5777704 0
21.254242 41.434067 -1.5777704 0
21.354242 41.134064 -1.5777704 0
21.304241 41.234066 -1.5777704 0
21.304241 41.284065 -1.5777704 0
21.454241 41.284065 -1.5777704 0
21.104242 41.534065 -1.5777704 0
21.154242 41.484066 -1.5777704 0
21.154242 41.584064 -1.5777704 0
21.154242 41.634064 -1.5777704 0
21.204241 41.534065 -1.5777704 0
21.104242 41.734066 -1.5777704 0
21.504242 41.134064 -1.5777704 0
21.504242 41.184067 -1.5777704 0
21.504242 41.234066 -1.5777704 0
21.554241 41.334064 -1.5777704 0
21.554241 41.434067 -1.5777704 0
21.554241 41.534065 -1.5777704 0
21.604242 41.634064 -1.5777704 0
21.604242 41.734066 -1.5777704 0
21.604242 41.834064 -1.6277703 0
20.354242 41.934067 -1.5777704 0
20.304241 41.984066 -1.5777704 0
20.404242 41.934067 -1.5777704 0
20.454241 41.884064 -1.5777704 0
20.404242 41.984066 -1.5777704 0
20.454241 42.084064 -1.6277703 0
20.404242 42.184067 -1.6277703 0
20.504242 41.884064 -1.5777704 0
20.404242 42.284065 -1.6277703 0
20.404242 42.384064 -1.6277703 0
20.354242 42.534065 -1.6277703 0
20.354242 42.584064 -1.6277703 0
20.404242 42.484066 -1.6277703 0
20.654242 42.434067 -1.6277703 0
20.504242 42.634064 -1.6277703 0
20.554241 42.584064 -1.6277703 0
20.604242 42.534065 -1.6277703 0
20.854242 42.134064 -1.6277703 0
20.804241 42.234066 -1.6277703 0
20.954241 41.984066 -1.6277703 0
20.954241 42.034065 -1.6277703 0
21.004242 41.934067 -1.5777704 0
20.904242 42.084064 -1.6277703 0
20.754242 42.334064 -1.6277703 0
20.704241 42.384064 -1.6277703 0
20.354242 42.684067 -1.6277703 0
20.304241 42.784065 -1.6277703 0
20.404242 42.734066 -1.6277703 0
20.454241 42.684067 -1.6277703 0
20.404242 42.784065 -1.6277703 0
20.304241 42.884064 -1.6277703 0
20.354242 43.134064 -1.6777704 0
20.404242 43.234066 -1.6777704 0
20.404242 43.284065 -1.6777704 0
20.404242 43.434067 -1.6777704 0
21.604242 41.934067 -1.6277703 0
21.604242 42.034065 -1.6277703 0
21.604242 42.134064 -1.6277703 0
21.604242 42.234066 -1.6277703 0
21.554241 42.434067 -1.6277703 0
21.604242 42.334064 -1.6277703 0
21.554241 42.534065 -1.6277703 0
21.554241 42.634064 -1.6277703 0
21.454241 43.034065 -1.6777704 0
21.404242 43.134064 -1.6777704 0
21.404242 43.234066 -1.6777704 0
21.354242 43.334064 -1.6777704 0
21.354242 43.434067 -1.6777704 0
21.404242 43.434067 -1.6777704 0
21.454241 43.384064 -1.6777704 0
21.554241 42.734066 -1.6277703 0
21.504242 42.834064 -1.6277703 0
21.504242 42.884064 -1.6777704 0
21.504242 42.934067 -1.6777704 0
21.554241 42.984066 -1.6777704 0
21.854242 43.034065 -1.6777704 0
21.554241 43.084064 -1.6777704 0
21.554241 43.184067 -1.6777704 0
21.604242 43.234066 -1.6777704 0
21.654242 43.184067 -1.6777704 0
21.504242 43.334064 -1.6777704 0
21.554241 43.284065 -1.6777704 0
21.604242 43.284065 -1.6777704 0
21.604242 43.334064 -1.6777704 0
21.604242 43.434067 -1.6777704 0
21.704241 43.134064 -1.6777704 0
21.754242 43.084064 -1.6777704 0
18.854242 43.584064 -1.6777704 0
18.754242 43.734066 -1.6777704 0
18.704241 43.784065 -1.6777704 0
18.754242 43.834064 -1.6777704 0
18.854242 43.684067 -1.6777704 0
18.804241 43.784065 -1.6777704 0
18.854242 43.784065 -1.6777704 0
18.854242 43.834064 -1.6777704 0
19.054241 43.534065 -1.6777704 0
19.054241 43.584064 -1.6777704 0
19.054241 43.634064 -1.6777704 0
18.904242 43.684067 -1.6777704 0
18.904242 43.734066 -1.6777704 0
18.954241 43.734066 -1.6777704 0
18.904242 43.784065 -1.6777704 0
19.004242 43.684067 -1.6777704 0
18.704241 43.884064 -1.6777704 0
18.904242 43.884064 -1.6777704 0
18.904242 43.984066 -1.6777704 0
18.904242 44.084064 -1.6777704 0
18.904242 44.184067 -1.6777704 0
19.154242 43.534065 -1.6777704 0
19.104242 43.584064 -1.6777704 0
19.104242 43.634064 -1.6777704 0
19.204241 43.484066 -1.6777704 0
19.204241 43.584064 -1.6777704 0
19.104242 43.684067 -1.6777704 0
19.104242 43.784065 -1.6777704 0
19.304241 43.534065 -1.6777704 0
19.354242 43.484066 -1.6777704 0
19.354242 43.534065 -1.6777704 0
19.354242 43.634064 -1.6777704 0
19.404242 43.484066 -1.6777704 0
19.454241 43.484066 -1.6777704 0
19.404242 43.584064 -1.6777704 0
19.404242 43.684067 -1.6777704 0
19.404242 43.784065 -1.6777704 0
19.104242 43.884064 -1.6777704 0
19.104242 43.984066 -1.6777704 0
19.104242 44.084064 -1.6777704 0
19.104242 44.184067 -1.6777704 0
19.404242 43.884064 -1.6777704 0
19.404242 43.984066 -1.6777704 0
19.304241 44.234066 -1.6777704 0
19.404242 44.084064 -1.6777704 0
19.404242 44.134064 -1.6777704 0
19.454241 44.134064 -1.6777704 0
19.404242 44.184067 -1.6777704 0
18.854242 44.284065 -1.6777704 0
18.854242 44.384064 -1.7277703 0
18.754242 44.534065 -1.6777704 0
18.704241 44.584064 -1.7277703 0
18.704241 44.634064 -1.7277703 0
18.754242 44.584064 -1.7277703 0
18.804241 44.484066 -1.7277703 0
18.804241 44.534065 -1.7277703 0
18.854242 44.534065 -1.6777704 0
18.804241 44.584064 -1.7277703 0
18.904242 44.534065 -1.7277703 0
18.954241 44.484066 -1.7277703 0
18.954241 44.534065 -1.6777704 0
19.004242 44.484066 -1.7277703 0
19.004242 44.484066 -1.6777704 0
19.054241 44.484066 -1.7277703 0
19.054241 44.534065 -1.7277703 0
19.004242 44.584064 -1.7277703 0
18.704241 44.734066 -1.7277703 0
18.754242 44.684067 -1.7277703 0
18.754242 44.984066 -1.7277703 0
18.804241 44.934067 -1.7277703 0
18.854242 44.884064 -1.7277703 0
18.954241 44.684067 -1.7277703 0
18.904242 44.784065 -1.7277703 0
18.954241 44.784065 -1.7277703 0
19.104242 44.284065 -1.6777704 0
19.104242 44.384064 -1.7277703 0
19.104242 44.434067 -1.7277703 0
19.154242 44.384064 -1.7277703 0
19.154242 44.434067 -1.6777704 0
19.204241 44.334064 -1.6777704 0
19.254242 44.284065 -1.6777704 0
19.204241 44.434067 -1.6777704 0
19.104242 44.484066 -1.6777704 0
19.354242 44.384064 -1.7277703 0
19.354242 44.434067 -1.6777704 0
19.404242 44.284065 -1.7277703 0
19.454241 44.384064 -1.6777704 0
19.354242 44.484066 -1.7277703 0
19.354242 44.534065 -1.7277703 0
19.304241 44.584064 -1.7277703 0
19.254242 44.734066 -1.7277703 0
19.204241 44.784065 -1.7277703 0
19.154242 44.934067 -1.7277703 0
19.104242 44.984066 -1.7277703 0
19.204241 44.884064 -1.7277703 0
19.304241 44.684067 -1.7277703 0
19.804241 43.484066 -1.6777704 0
19.804241 43.534065 -1.6777704 0
19.804241 43.634064 -1.6777704 0
19.754242 43.784065 -1.6777704 0
19.804241 43.734066 -1.6777704 0
19.854242 43.684067 -1.6777704 0
19.804241 43.834064 -1.6777704 0
19.654242 43.934067 -1.6777704 0
19.604242 44.034065 -1.6777704 0
19.504242 44.084064 -1.6777704 0
19.504242 44.134064 -1.6777704 0
19.754242 43.884064 -1.6777704 0
19.854242 43.934067 -1.6777704 0
19.854242 44.034065 -1.6777704 0
19.804241 44.134064 -1.6777704 0
19.804241 44.234066 -1.7277703 0
19.804241 44.234066 -1.6777704 0
19.954241 43.534065 -1.6777704 0
19.904242 43.634064 -1.6777704 0
19.954241 43.584064 -1.6777704 0
20.054241 43.484066 -1.6777704 0
19.904242 44.234066 -1.6777704 0
20.004242 44.184067 -1.6777704 0
20.254242 44.034065 -1.6777704 0
20.104242 44.134064 -1.6777704 0
20.204241 44.134064 -1.6777704 0
19.554241 44.334064 -1.6777704 0
19.504242 44.384064 -1.6777704 0
19.654242 44.334064 -1.6777704 0
19.704241 44.284065 -1.6777704 0
19.804241 44.284065 -1.7277703 0
19.804241 44.334064 -1.7277703 0
19.804241 44.434067 -1.7277703 0
19.754242 44.534065 -1.7277703 0
19.754242 44.634064 -1.7277703 0
19.654242 44.834064 -1.7277703 0
19.604242 44.984066 -1.7277703 0
19.704241 44.684067 -1.7277703 0
19.704241 44.734066 -1.7277703 0
20.254242 44.984066 -1.7277703 0
20.454241 43.534065 -1.6777704 0
20.454241 43.634064 -1.6777704 0
20.454241 43.684067 -1.6777704 0
20.454241 43.834064 -1.6777704 0
20.304241 44.034065 -1.6777704 0
20.404242 44.034065 -1.6777704 0
20.454241 43.984066 -1.6777704 0
20.454241 44.234066 -1.7277703 0
20.504242 43.884064 -1.6777704 0
20.504242 43.934067 -1.6777704 0
20.554241 43.934067 -1.6777704 0
20.504242 43.984066 -1.6777704 0
20.504242 44.034065 -1.6777704 0
20.654242 43.884064 -1.6777704 0
20.504242 44.084064 -1.7277703 0
20.704241 43.834064 -1.6777704 0
20.804241 43.784065 -1.6777704 0
20.904242 43.734066 -1.6777704 0
20.954241 43.684067 -1.6777704 0
21.004242 43.684067 -1.6777704 0
21.004242 44.034065 -1.7277703 0
20.904242 44.234066 -1.7277703 0
20.954241 44.184067 -1.7277703 0
20.454241 44.334064 -1.7277703 0
20.454241 44.434067 -1.7277703 0
20.404242 44.534065 -1.7277703 0
20.454241 44.484066 -1.7277703 0
20.404242 44.634064 -1.7277703 0
20.454241 44.584064 -1.7277703 0
20.604242 44.634064 -1.7277703 0
20.654242 44.584064 -1.7277703 0
20.354242 44.834064 -1.7277703 0
20.404242 44.734066 -1.7277703 0
20.404242 44.834064 -1.7277703 0
20.454241 44.784065 -1.7277703 0
20.304241 44.934067 -1.7277703 0
20.354242 44.884064 -1.7277703 0
20.354242 44.934067 -1.7277703 0
20.504242 44.734066 -1.7277703 0
20.554241 44.684067 -1.7277703 0
20.854242 44.334064 -1.7277703 0
20.804241 44.384064 -1.7277703 0
20.704241 44.534065 -1.7277703 0
20.754242 44.484066 -1.7277703 0
21.104242 43.634064 -1.6777704 0
21.154242 43.584064 -1.6777704 0
21.204241 43.534065 -1.6777704 0
21.254242 43.634064 -1.6777704 0
21.154242 43.834064 -1.6777704 0
21.204241 43.684067 -1.6777704 0
21.204241 43.734066 -1.6777704 0
21.304241 43.484066 -1.6777704 0
21.304241 43.534065 -1.6777704 0
21.104242 43.934067 -1.6777704 0
21.154242 43.884064 -1.6777704 0
21.654242 43.584064 -1.6777704 0
21.654242 43.634064 -1.6777704 0
21.654242 43.734066 -1.6777704 0
21.654242 43.884064 -1.7277703 0
21.654242 43.934067 -1.7277703 0
21.654242 44.084064 -1.7277703 0
21.654242 44.184067 -1.7277703 0
21.654242 44.234066 -1.7277703 0
21.654242 44.334064 -1.7277703 0
21.654242 44.434067 -1.7277703 0
21.604242 44.484066 -1.7277703 0
21.604242 44.584064 -1.7277703 0
21.604242 44.634064 -1.7277703 0
21.604242 44.734066 -1.7277703 0
21.554241 44.884064 -1.7777703 0
21.554241 44.934067 -1.7777703 0
21.554241 44.884064 -1.7277703 0
21.554241 44.984066 -1.7777703 0
21.604242 44.984066 -1.7777703 0
21.904242 34.584064 -1.0777704 0
22.004242 34.534065 -1.0777704 0
22.254242 34.434067 -1.0777704 0
22.154242 34.484066 -1.0777704 0
22.604242 34.234066 -1.0777704 0
22.354242 34.334064 -1.0777704 0
22.504242 34.284065 -1.0777704 0
22.704243 34.184067 -1.0777704 0
22.804241 34.084064 -1.0777704 0
22.954243 34.034065 -1.0777704 0
23.054241 33.984066 -1.0777704 0
23.154242 33.884064 -1.0777704 0
22.604242 36.184067 -1.1277703 0
21.904242 36.534065 -1.1277703 0
22.054241 36.484066 -1.1277703 0
22.154242 36.434067 -1.1277703 0
22.254242 36.384064 -1.1277703 0
22.404242 36.334064 -1.1277703 0
22.504242 36.284065 -1.1277703 0
22.704243 36.134064 -1.1277703 0
22.854242 36.084064 -1.1277703 0
22.954243 36.034065 -1.1277703 0
23.054241 35.934067 -1.1277703 0
23.304241 35.834064 -1.1277703 0
23.404242 35.784065 -1.1277703 0
23.154242 35.884064 -1.1277703 0
23.604242 35.584064 -1.1277703 0
23.504242 35.684067 -1.1277703 0
22.004242 38.434067 -1.2277703 0
21.904242 38.484066 -1.2277703 0
22.104242 38.384064 -1.2277703 0
22.204243 38.334064 -1.2277703 0
22.454243 38.184067 -1.2277703 0
22.554241 38.134064 -1.2277703 0
22.654242 38.084064 -1.2277703 0
22.354242 38.284065 -1.2277703 0
23.104242 37.834064 -1.2277703 0
23.204243 37.784065 -1.2277703 0
23.454243 37.634064 -1.2277703 0
23.354242 37.734066 -1.2277703 0
22.804241 38.034065 -1.2277703 0
22.904242 37.984066 -1.2277703 0
23.004242 37.934067 -1.2277703 0
22.554241 40.234066 -1.3277704 0
22.654242 40.184067 -1.3277704 0
22.804241 40.134064 -1.3277704 0
23.004242 39.984066 -1.3277704 0
22.904242 40.084064 -1.3277704 0
23.354242 39.834064 -1.3277704 0
23.454243 39.784065 -1.3277704 0
23.304241 40.234066 -1.5277703 0
23.104242 39.984066 -1.3277704 0
23.254242 39.884064 -1.3277704 0
23.554241 37.584064 -1.2277703 0
23.654242 37.534065 -1.2277703 0
24.254242 38.134064 -1.2777703 0
24.404242 38.134064 -1.2777703 0
24.604242 38.134064 -1.2777703 0
24.754242 38.134064 -1.2777703 0
24.954243 38.134064 -1.2777703 0
24.954243 38.634064 -1.3277704 0
25.054241 38.534065 -1.3277704 0
23.954243 39.434067 -1.3277704 0
24.054241 39.334064 -1.3277704 0
24.204243 39.284065 -1.3277704 0
23.654242 39.634064 -1.3277704 0
23.554241 39.684067 -1.3277704 0
23.754242 39.534065 -1.3277704 0
23.854242 39.484066 -1.3277704 0
23.504242 40.234066 -1.5277703 0
23.754242 40.234066 -1.5277703 0
24.004242 40.234066 -1.5277703 0
24.504242 39.034065 -1.3277704 0
24.604242 38.934067 -1.3277704 0
24.304241 39.184067 -1.3277704 0
24.404242 39.134064 -1.3277704 0
24.854242 38.734066 -1.3277704 0
24.804241 38.834064 -1.3277704 0
24.704243 38.884064 -1.3277704 0
25.104242 38.134064 -1.2777703 0
25.304241 38.134064 -1.2777703 0
25.454243 38.184067 -1.2777703 0
25.254242 38.384064 -1.2777703 0
25.154242 38.484066 -1.2777703 0
25.354242 38.284065 -1.2777703 0
25.604242 38.034065 -1.2777703 0
25.504242 38.134064 -1.2777703 0
25.654242 38.134064 -1.2777703 0
25.704243 37.934067 -1.2777703 0
25.854242 37.934067 -1.2777703 0
25.854242 38.134064 -1.2777703 0
25.804241 38.484066 -1.3277704 0
26.054241 37.934067 -1.2777703 0
26.054241 38.134064 -1.2777703 0
26.254242 37.934067 -1.2777703 0
26.254242 38.134064 -1.3277704 0
26.004242 38.484066 -1.3277704 0
26.204243 38.484066 -1.3277704 0
26.454243 37.934067 -1.3277704 0
26.454243 38.134064 -1.3277704 0
26.454243 38.484066 -1.3277704 0
26.654242 38.484066 -1.3277704 0
25.354242 40.184067 -1.3777703 0
25.454243 40.084064 -1.3777703 0
25.754242 39.834064 -1.3777703 0
25.804241 39.734066 -1.3777703 0
25.554241 40.034065 -1.3777703 0
25.654242 39.934067 -1.3777703 0
26.154242 39.384064 -1.3777703 0
26.254242 39.284065 -1.3777703 0
26.454243 39.034065 -1.3277704 0
26.654242 38.784065 -1.3277704 0
26.554241 38.884064 -1.3277704 0
26.304241 39.184067 -1.3277704 0
25.904242 39.634064 -1.3777703 0
26.004242 39.584064 -1.3777703 0
26.104242 39.484066 -1.3777703 0
27.404242 37.634064 -1.3277704 0
27.354242 37.784065 -1.3277704 0
26.704243 37.934067 -1.3277704 0
26.704243 38.134064 -1.3277704 0
26.904242 37.934067 -1.3277704 0
26.904242 38.134064 -1.3277704 0
26.854242 38.484066 -1.3277704 0
26.804241 38.584064 -1.3277704 0
26.954243 38.384064 -1.3277704 0
27.004242 38.284065 -1.3277704 0
26.904242 38.484066 -1.3277704 0
27.104242 37.934067 -1.3277704 0
27.254242 37.884064 -1.3277704 0
27.254242 37.984066 -1.3277704 0
27.154242 38.084064 -1.3277704 0
27.104242 38.184067 -1.3277704 0
27.354242 37.934067 -1.3277704 0
27.354242 38.184067 -1.3277704 0
27.104242 38.484066 -1.3277704 0
27.354242 38.484066 -1.3277704 0
27.354242 38.534065 -1.3277704 0
27.504242 37.534065 -1.2777703 0
27.604242 37.484066 -1.2777703 0
27.854242 37.484066 -1.3277704 0
28.154242 37.484066 -1.3277704 0
27.554241 37.934067 -1.3277704 0
27.554241 38.134064 -1.3277704 0
27.804241 37.934067 -1.3277704 0
27.804241 38.184067 -1.3277704 0
27.554241 38.534065 -1.3777703 0
27.554241 38.484066 -1.3277704 0
27.804241 38.534065 -1.3777703 0
27.804241 38.484066 -1.3277704 0
28.054241 37.934067 -1.3277704 0
28.054241 38.184067 -1.3277704 0
28.054241 38.484066 -1.3777703 0
28.054241 38.534065 -1.3777703 0
28.254242 38.334064 -1.3277704 0
28.154242 38.584064 -1.3277704 0
28.204243 38.484066 -1.3277704 0
26.704243 38.684067 -1.3277704 0
27.454243 39.934067 -1.3777703 0
27.404242 40.034065 -1.3777703 0
27.354242 40.184067 -1.4277704 0
27.754242 39.384064 -1.3777703 0
27.854242 39.284065 -1.3777703 0
28.054241 38.834064 -1.3777703 0
27.954243 39.034065 -1.3777703 0
28.004242 38.934067 -1.3777703 0
28.104242 38.684067 -1.3777703 0
27.904242 39.184067 -1.3777703 0
27.654242 39.634064 -1.3777703 0
27.504242 39.834064 -1.3777703 0
27.604242 39.734066 -1.3777703 0
27.704243 39.484066 -1.3777703 0
21.904242 40.584064 -1.3277704 0
22.004242 40.534065 -1.3277704 0
22.204243 40.434067 -1.3277704 0
22.104242 40.484066 -1.3277704 0
22.354242 40.384064 -1.3277704 0
22.454243 40.284065 -1.3277704 0
23.004242 41.734066 -1.6277703 0
22.654242 42.234066 -1.6277703 0
22.354242 42.584064 -1.6277703 0
22.454243 42.484066 -1.6277703 0
22.504242 42.334064 -1.6277703 0
22.054241 42.834064 -1.6277703 0
21.904242 42.984066 -1.6277703 0
21.954243 42.984066 -1.6277703 0
22.004242 42.884064 -1.6277703 0
22.104242 42.784065 -1.6277703 0
22.154242 42.784065 -1.6277703 0
22.254242 42.684067 -1.6277703 0
22.804241 42.034065 -1.6277703 0
22.704243 42.134064 -1.6277703 0
23.454243 43.134064 -1.6777704 0
23.404242 43.184067 -1.6777704 0
23.354242 43.284065 -1.6777704 0
23.304241 43.384064 -1.6777704 0
24.104242 40.334064 -1.5777704 0
24.154242 40.434067 -1.5777704 0
24.154242 40.484066 -1.5777704 0
24.154242 40.584064 -1.5777704 0
24.204243 40.684067 -1.5777704 0
24.204243 40.784065 -1.5777704 0
24.154242 40.984066 -1.5777704 0
24.154242 41.034065 -1.5777704 0
24.204243 40.884064 -1.5777704 0
24.254242 40.934067 -1.5777704 0
24.254242 40.984066 -1.5777704 0
24.154242 41.134064 -1.5777704 0
24.154242 41.184067 -1.5777704 0
24.254242 41.084064 -1.5777704 0
24.104242 41.284065 -1.5777704 0
24.104242 41.384064 -1.5777704 0
24.054241 41.534065 -1.6277703 0
24.004242 41.634064 -1.6277703 0
24.004242 41.684067 -1.6277703 0
24.004242 41.784065 -1.6277703 0
24.004242 41.834064 -1.6277703 0
24.104242 41.484066 -1.6277703 0
24.304241 41.184067 -1.5777704 0
24.304241 41.334064 -1.6277703 0
24.304241 41.434067 -1.6277703 0
24.304241 41.484066 -1.6277703 0
24.304241 41.584064 -1.6277703 0
24.304241 41.734066 -1.6277703 0
24.354242 41.784065 -1.6277703 0
